X,Y,Z,Reflectivity
16.882,0.08,-0.781,0.0
15.33,0.072,-0.799,0.0
14.157,0.066,-0.822,0.0
13.068,0.061,-0.835,0.0
12.165,0.056,-0.849,0.0
17.94,0.08,-0.76,0.0
16.429,0.073,-0.792,0.0
15.073,0.066,-0.815,0.0
13.861,0.06,-0.832,0.0
12.911,0.056,-0.851,0.0
11.812,0.051,-0.847,0.0
17.476,0.072,-0.774,0.0
15.924,0.065,-0.799,0.0
14.491,0.058,-0.812,0.0
13.511,0.054,-0.837,0.0
12.472,0.049,-0.846,0.0
11.576,0.045,-0.853,0.0
16.877,0.063,-0.78,0.0
15.313,0.056,-0.798,0.0
14.144,0.051,-0.819,0.0
13.028,0.047,-0.832,0.0
12.168,0.043,-0.849,0.0
11.338,0.039,-0.857,0.0
16.384,0.054,-0.789,0.0
15.04,0.049,-0.812,0.0
13.825,0.044,-0.827,0.0
12.914,0.04,-0.85,0.0
11.805,0.036,-0.846,0.0
11.11,0.034,-0.861,0.0
15.851,0.045,-0.793,0.0
14.552,0.04,-0.813,0.0
13.482,0.037,-0.832,0.0
12.482,0.033,-0.845,0.0
11.576,0.03,-0.851,0.0
10.967,0.028,-0.871,0.0
15.386,0.036,-0.799,0.0
14.239,0.032,-0.822,0.0
13.17,0.029,-0.837,0.0
12.184,0.026,-0.847,0.0
11.346,0.024,-0.856,0.0
10.711,0.022,-0.87,0.0
15.018,0.027,-0.807,0.0
13.861,0.024,-0.826,0.0
12.891,0.022,-0.844,0.0
11.833,0.019,-0.845,0.0
11.162,0.017,-0.862,0.0
10.489,0.015,-0.872,0.0
14.65,0.018,-0.814,0.0
13.528,0.016,-0.831,0.0
12.524,0.014,-0.842,0.0
11.592,0.012,-0.849,0.0
10.969,0.01,-0.867,0.0
10.339,0.009,-0.878,0.0
14.299,0.009,-0.82,0.0
13.264,0.008,-0.838,0.0
12.245,0.006,-0.846,0.0
11.397,0.005,-0.855,0.0
10.772,0.004,-0.871,0.0
10.206,0.003,-0.885,0.0
13.915,0.0,-0.823,0.0
13.052,0.0,-0.848,0.0
11.898,-0.001,-0.843,0.0
11.241,-0.001,-0.863,0.0
10.537,-0.002,-0.87,0.0
10.064,-0.003,-0.89,0.0
13.66,-0.008,-0.832,0.0
12.594,-0.008,-0.84,0.0
11.673,-0.008,-0.847,0.0
11.0,-0.009,-0.864,0.0
10.379,-0.009,-0.875,0.0
9.882,-0.01,-0.892,0.0
13.408,-0.017,-0.839,0.0
12.351,-0.016,-0.845,0.0
11.47,-0.016,-0.852,0.0
10.793,-0.016,-0.866,0.0
10.27,-0.016,-0.884,0.0
9.775,-0.016,-0.898,0.0
13.045,-0.025,-0.839,0.0
12.067,-0.025,-0.846,0.0
11.304,-0.024,-0.858,0.0
10.616,-0.024,-0.869,0.0
10.097,-0.023,-0.886,0.0
9.642,-0.023,-0.903,0.0
12.731,-0.034,-0.84,0.0
11.763,-0.033,-0.844,0.0
11.078,-0.032,-0.86,0.0
10.463,-0.031,-0.874,0.0
9.95,-0.031,-0.889,0.0
9.451,-0.03,-0.9,0.0
12.429,-0.043,-0.84,0.0
11.581,-0.041,-0.85,0.0
10.883,-0.04,-0.862,0.0
10.299,-0.039,-0.877,0.0
9.832,-0.038,-0.895,0.0
9.319,-0.037,-0.903,0.0
12.211,-0.052,-0.845,0.0
11.382,-0.05,-0.854,0.0
10.725,-0.048,-0.867,0.0
10.198,-0.047,-0.885,0.0
9.66,-0.045,-0.895,0.0
9.208,-0.044,-0.907,0.0
11.925,-0.061,-0.844,0.0
11.152,-0.058,-0.854,0.0
10.543,-0.056,-0.869,0.0
10.012,-0.055,-0.885,0.0
9.563,-0.053,-0.901,0.0
9.122,-0.052,-0.913,0.0
11.676,-0.069,-0.844,0.0
11.003,-0.067,-0.86,0.0
10.403,-0.064,-0.873,0.0
9.905,-0.062,-0.89,0.0
9.401,-0.06,-0.9,0.0
8.993,-0.059,-0.913,0.0
11.499,-0.079,-0.849,0.0
10.885,-0.076,-0.867,0.0
10.294,-0.073,-0.88,0.0
9.758,-0.07,-0.892,0.0
9.318,-0.068,-0.906,0.0
8.909,-0.066,-0.918,0.0
11.334,-0.088,-0.853,0.0
10.703,-0.084,-0.868,0.0
10.165,-0.081,-0.883,0.0
9.659,-0.078,-0.897,0.0
9.156,-0.076,-0.903,0.0
8.797,-0.074,-0.919,0.0
11.187,-0.097,-0.858,0.0
10.544,-0.093,-0.87,0.0
10.039,-0.09,-0.887,0.0
9.478,-0.086,-0.893,0.0
9.084,-0.083,-0.909,0.0
8.643,-0.081,-0.915,0.0
10.969,-0.105,-0.857,0.0
10.425,-0.102,-0.875,0.0
9.901,-0.098,-0.888,0.0
9.438,-0.095,-0.903,0.0
9.006,-0.091,-0.914,0.0
8.544,-0.088,-0.917,0.0
10.9,-0.115,-0.866,0.0
10.31,-0.111,-0.879,0.0
9.815,-0.107,-0.894,0.0
9.336,-0.103,-0.906,0.0
8.879,-0.099,-0.913,0.0
8.485,-0.096,-0.922,0.0
10.74,-0.124,-0.868,0.0
10.203,-0.12,-0.883,0.0
9.706,-0.115,-0.897,0.0
9.261,-0.111,-0.91,0.0
8.848,-0.108,-0.921,0.0
8.379,-0.103,-0.922,0.0
10.625,-0.134,-0.872,0.0
10.072,-0.128,-0.885,0.0
9.582,-0.124,-0.898,0.0
9.127,-0.119,-0.909,0.0
8.744,-0.115,-0.922,0.0
8.309,-0.111,-0.924,0.0
10.473,-0.143,-0.873,0.0
9.924,-0.137,-0.884,0.0
9.454,-0.132,-0.897,0.0
9.058,-0.128,-0.913,0.0
8.602,-0.123,-0.917,0.0
8.255,-0.119,-0.929,0.0
10.362,-0.152,-0.876,0.0
9.838,-0.146,-0.889,0.0
9.353,-0.141,-0.899,0.0
8.961,-0.136,-0.914,0.0
8.526,-0.131,-0.92,0.0
8.137,-0.126,-0.925,0.0
10.261,-0.162,-0.88,0.0
9.778,-0.156,-0.895,0.0
9.265,-0.149,-0.902,0.0
0.0,0.0,0.0,0.0
8.464,-0.139,-0.923,0.0
8.111,-0.135,-0.932,0.0
10.184,-0.172,-0.885,0.0
9.694,-0.165,-0.898,0.0
9.21,-0.158,-0.907,0.0
0.0,0.0,0.0,0.0
8.388,-0.147,-0.924,0.0
8.035,-0.142,-0.932,0.0
10.057,-0.181,-0.885,0.0
9.553,-0.173,-0.895,0.0
9.136,-0.167,-0.909,0.0
0.0,0.0,0.0,0.0
8.328,-0.155,-0.926,0.0
7.945,-0.15,-0.93,0.0
9.948,-0.19,-0.885,0.0
9.464,-0.182,-0.897,0.0
9.092,-0.177,-0.914,0.0
8.642,-0.17,-0.92,0.0
8.209,-0.163,-0.922,0.0
7.912,-0.158,-0.934,0.0
9.879,-0.2,-0.889,0.0
9.412,-0.192,-0.902,0.0
9.007,-0.186,-0.915,0.0
8.51,-0.177,-0.914,0.0
8.169,-0.171,-0.925,0.0
7.836,-0.166,-0.933,0.0
9.819,-0.21,-0.893,0.0
9.335,-0.201,-0.903,0.0
8.919,-0.194,-0.914,0.0
8.499,-0.187,-0.921,0.0
8.153,-0.18,-0.931,0.0
7.819,-0.174,-0.938,0.0
9.688,-0.219,-0.89,0.0
9.277,-0.211,-0.906,0.0
8.796,-0.202,-0.91,0.0
8.428,-0.195,-0.921,0.0
8.046,-0.188,-0.926,0.0
7.78,-0.183,-0.941,0.0
9.645,-0.229,-0.895,0.0
9.187,-0.22,-0.906,0.0
8.755,-0.211,-0.913,0.0
8.407,-0.204,-0.926,0.0
8.009,-0.196,-0.929,0.0
7.727,-0.191,-0.941,0.0
9.576,-0.239,-0.897,0.0
9.157,-0.23,-0.91,0.0
8.704,-0.22,-0.915,0.0
8.341,-0.213,-0.926,0.0
7.987,-0.206,-0.933,0.0
7.653,-0.198,-0.938,0.0
9.539,-0.249,-0.901,0.0
9.084,-0.239,-0.91,0.0
8.667,-0.23,-0.918,0.0
8.254,-0.221,-0.923,0.0
7.956,-0.214,-0.935,0.0
7.603,-0.206,-0.938,0.0
9.428,-0.258,-0.898,0.0
9.043,-0.249,-0.913,0.0
8.585,-0.238,-0.916,0.0
8.183,-0.229,-0.921,0.0
7.968,-0.224,-0.943,0.0
7.585,-0.215,-0.941,0.0
9.388,-0.268,-0.901,0.0
8.959,-0.258,-0.911,0.0
8.573,-0.248,-0.921,0.0
8.104,-0.236,-0.918,0.0
7.83,-0.23,-0.932,0.0
7.518,-0.222,-0.938,0.0
9.318,-0.277,-0.9,0.0
8.886,-0.266,-0.909,0.0
8.508,-0.257,-0.919,0.0
8.186,-0.249,-0.932,0.0
7.752,-0.237,-0.928,0.0
7.45,-0.23,-0.934,0.0
9.26,-0.287,-0.9,0.0
8.868,-0.277,-0.913,0.0
8.419,-0.264,-0.915,0.0
8.066,-0.255,-0.923,0.0
0.0,0.0,0.0,0.0
7.467,-0.239,-0.941,0.0
9.235,-0.298,-0.903,0.0
8.801,-0.286,-0.911,0.0
8.392,-0.274,-0.917,0.0
8.046,-0.264,-0.926,0.0
7.772,-0.257,-0.939,0.0
7.473,-0.249,-0.946,0.0
9.174,-0.307,-0.902,0.0
8.825,-0.297,-0.918,0.0
8.386,-0.284,-0.92,0.0
8.073,-0.275,-0.933,0.0
7.683,-0.264,-0.932,0.0
7.369,-0.255,-0.936,0.0
9.18,-0.319,-0.907,0.0
8.802,-0.307,-0.92,0.0
8.349,-0.293,-0.92,0.0
8.021,-0.284,-0.931,0.0
7.66,-0.272,-0.933,0.0
7.393,-0.265,-0.943,0.0
9.109,-0.327,-0.904,0.0
8.734,-0.316,-0.917,0.0
8.334,-0.303,-0.922,0.0
7.953,-0.291,-0.926,0.0
7.666,-0.282,-0.937,0.0
7.336,-0.272,-0.938,0.0
9.134,-0.34,-0.91,0.0
8.724,-0.326,-0.919,0.0
8.273,-0.311,-0.919,0.0
7.982,-0.302,-0.933,0.0
7.681,-0.292,-0.941,0.0
7.349,-0.281,-0.943,0.0
9.083,-0.349,-0.908,0.0
8.686,-0.336,-0.918,0.0
8.292,-0.322,-0.924,0.0
7.935,-0.31,-0.93,0.0
7.613,-0.299,-0.936,0.0
7.327,-0.29,-0.942,0.0
9.025,-0.358,-0.905,0.0
8.676,-0.346,-0.92,0.0
8.293,-0.333,-0.926,0.0
7.945,-0.32,-0.933,0.0
7.597,-0.308,-0.936,0.0
7.371,-0.301,-0.95,0.0
9.039,-0.37,-0.909,0.0
8.609,-0.354,-0.915,0.0
8.261,-0.342,-0.925,0.0
7.939,-0.33,-0.934,0.0
7.607,-0.318,-0.939,0.0
7.328,-0.308,-0.946,0.0
9.041,-0.381,-0.911,0.0
8.653,-0.367,-0.921,0.0
8.226,-0.35,-0.922,0.0
7.903,-0.338,-0.932,0.0
7.599,-0.327,-0.939,0.0
7.315,-0.317,-0.946,0.0
9.039,-0.392,-0.913,0.0
8.599,-0.375,-0.917,0.0
8.251,-0.362,-0.926,0.0
7.895,-0.348,-0.932,0.0
7.56,-0.335,-0.935,0.0
7.265,-0.323,-0.94,0.0
9.007,-0.402,-0.911,0.0
8.67,-0.389,-0.925,0.0
8.217,-0.37,-0.924,0.0
7.924,-0.359,-0.936,0.0
7.586,-0.345,-0.939,0.0
7.264,-0.332,-0.941,0.0
9.022,-0.413,-0.913,0.0
8.617,-0.397,-0.92,0.0
8.214,-0.38,-0.924,0.0
7.905,-0.367,-0.934,0.0
7.586,-0.354,-0.94,0.0
7.245,-0.34,-0.939,0.0
8.944,-0.42,-0.905,0.0
8.525,-0.403,-0.911,0.0
8.215,-0.39,-0.924,0.0
7.881,-0.376,-0.932,0.0
7.574,-0.363,-0.938,0.0
7.286,-0.351,-0.944,0.0
9.047,-0.436,-0.916,0.0
0.0,0.0,0.0,0.0
8.25,-0.401,-0.928,0.0
7.913,-0.387,-0.935,0.0
7.575,-0.372,-0.938,0.0
7.276,-0.359,-0.942,0.0
9.032,-0.446,-0.914,0.0
8.618,-0.428,-0.92,0.0
8.223,-0.41,-0.924,0.0
7.827,-0.392,-0.924,0.0
7.631,-0.384,-0.944,0.0
7.278,-0.368,-0.942,0.0
9.044,-0.457,-0.914,0.0
0.0,0.0,0.0,0.0
8.239,-0.42,-0.925,0.0
7.913,-0.406,-0.934,0.0
7.616,-0.392,-0.942,0.0
7.331,-0.379,-0.948,0.0
9.057,-0.469,-0.914,0.0
8.583,-0.446,-0.914,0.0
8.239,-0.43,-0.924,0.0
7.905,-0.414,-0.931,0.0
7.583,-0.399,-0.936,0.0
7.333,-0.388,-0.947,0.0
9.025,-0.477,-0.909,0.0
8.672,-0.46,-0.922,0.0
8.256,-0.44,-0.924,0.0
7.939,-0.425,-0.934,0.0
7.577,-0.407,-0.934,0.0
7.308,-0.395,-0.942,0.0
9.061,-0.489,-0.91,0.0
8.651,-0.469,-0.918,0.0
8.282,-0.451,-0.925,0.0
7.929,-0.433,-0.93,0.0
7.597,-0.417,-0.934,0.0
7.39,-0.407,-0.95,0.0
9.091,-0.501,-0.911,0.0
8.691,-0.481,-0.919,0.0
8.29,-0.461,-0.923,0.0
7.922,-0.442,-0.927,0.0
7.619,-0.427,-0.935,0.0
7.33,-0.412,-0.94,0.0
9.089,-0.511,-0.908,0.0
8.708,-0.492,-0.918,0.0
8.338,-0.473,-0.926,0.0
7.99,-0.455,-0.932,0.0
7.62,-0.435,-0.932,0.0
7.363,-0.422,-0.942,0.0
9.137,-0.524,-0.909,0.0
8.786,-0.505,-0.923,0.0
8.322,-0.481,-0.921,0.0
8.005,-0.464,-0.931,0.0
7.669,-0.446,-0.935,0.0
7.392,-0.432,-0.942,0.0
9.19,-0.536,-0.911,0.0
8.71,-0.51,-0.912,0.0
8.353,-0.491,-0.921,0.0
8.037,-0.474,-0.931,0.0
7.682,-0.455,-0.933,0.0
7.405,-0.44,-0.941,0.0
9.181,-0.545,-0.906,0.0
8.848,-0.527,-0.922,0.0
8.418,-0.504,-0.924,0.0
8.066,-0.485,-0.931,0.0
7.743,-0.467,-0.937,0.0
7.447,-0.451,-0.942,0.0
9.214,-0.557,-0.905,0.0
8.836,-0.536,-0.916,0.0
8.447,-0.514,-0.923,0.0
8.088,-0.494,-0.929,0.0
7.788,-0.477,-0.938,0.0
7.473,-0.46,-0.942,0.0
9.321,-0.573,-0.91,0.0
8.835,-0.545,-0.911,0.0
8.456,-0.523,-0.919,0.0
8.14,-0.505,-0.931,0.0
7.861,-0.49,-0.942,0.0
7.502,-0.469,-0.941,0.0
9.336,-0.583,-0.906,0.0
8.821,-0.552,-0.905,0.0
8.569,-0.538,-0.926,0.0
8.201,-0.517,-0.933,0.0
7.813,-0.494,-0.932,0.0
7.55,-0.479,-0.943,0.0
9.405,-0.596,-0.907,0.0
8.986,-0.571,-0.916,0.0
8.58,-0.547,-0.922,0.0
8.188,-0.524,-0.926,0.0
7.879,-0.506,-0.935,0.0
7.613,-0.49,-0.945,0.0
9.462,-0.608,-0.907,0.0
9.007,-0.581,-0.912,0.0
8.585,-0.555,-0.917,0.0
8.232,-0.534,-0.926,0.0
7.905,-0.515,-0.932,0.0
7.596,-0.496,-0.938,0.0
9.522,-0.621,-0.906,0.0
9.077,-0.594,-0.913,0.0
8.697,-0.571,-0.923,0.0
8.272,-0.544,-0.924,0.0
7.904,-0.522,-0.927,0.0
7.625,-0.505,-0.936,0.0
9.556,-0.632,-0.902,0.0
9.097,-0.603,-0.909,0.0
0.0,0.0,0.0,0.0
8.32,-0.555,-0.923,0.0
7.98,-0.533,-0.929,0.0
7.678,-0.515,-0.937,0.0
9.618,-0.644,-0.901,0.0
9.22,-0.619,-0.914,0.0
8.789,-0.592,-0.919,0.0
0.0,0.0,0.0,0.0
8.084,-0.547,-0.935,0.0
7.756,-0.527,-0.94,0.0
9.653,-0.654,-0.896,0.0
9.257,-0.629,-0.91,0.0
8.853,-0.603,-0.919,0.0
0.0,0.0,0.0,0.0
8.142,-0.558,-0.935,0.0
7.776,-0.534,-0.936,0.0
9.746,-0.668,-0.897,0.0
9.3,-0.639,-0.906,0.0
8.891,-0.613,-0.915,0.0
0.0,0.0,0.0,0.0
8.177,-0.566,-0.932,0.0
7.851,-0.545,-0.938,0.0
9.818,-0.681,-0.895,0.0
9.391,-0.653,-0.907,0.0
8.948,-0.623,-0.913,0.0
8.562,-0.598,-0.921,0.0
8.18,-0.573,-0.925,0.0
7.888,-0.554,-0.935,0.0
9.917,-0.695,-0.895,0.0
9.489,-0.666,-0.908,0.0
9.03,-0.636,-0.913,0.0
8.651,-0.61,-0.923,0.0
8.284,-0.586,-0.929,0.0
7.94,-0.563,-0.934,0.0
9.982,-0.706,-0.891,0.0
9.565,-0.678,-0.906,0.0
9.06,-0.644,-0.907,0.0
8.689,-0.619,-0.918,0.0
8.369,-0.598,-0.93,0.0
8.04,-0.576,-0.938,0.0
10.08,-0.72,-0.89,0.0
9.621,-0.689,-0.902,0.0
9.101,-0.653,-0.903,0.0
0.0,0.0,0.0,0.0
8.376,-0.604,-0.923,0.0
8.075,-0.583,-0.933,0.0
10.188,-0.734,-0.89,0.0
9.705,-0.701,-0.9,0.0
9.23,-0.668,-0.906,0.0
8.859,-0.643,-0.918,0.0
0.0,0.0,0.0,0.0
8.129,-0.592,-0.931,0.0
10.276,-0.747,-0.887,0.0
9.765,-0.711,-0.895,0.0
9.321,-0.68,-0.905,0.0
8.956,-0.655,-0.919,0.0
8.564,-0.627,-0.925,0.0
8.183,-0.601,-0.929,0.0
10.395,-0.761,-0.886,0.0
9.88,-0.725,-0.895,0.0
9.436,-0.694,-0.906,0.0
8.967,-0.661,-0.91,0.0
8.645,-0.638,-0.924,0.0
8.28,-0.612,-0.93,0.0
10.507,-0.775,-0.884,0.0
9.995,-0.739,-0.895,0.0
9.478,-0.702,-0.9,0.0
9.093,-0.675,-0.913,0.0
8.707,-0.647,-0.921,0.0
8.315,-0.619,-0.925,0.0
10.621,-0.789,-0.881,0.0
10.111,-0.752,-0.894,0.0
9.665,-0.721,-0.906,0.0
9.191,-0.686,-0.912,0.0
8.82,-0.66,-0.923,0.0
8.389,-0.629,-0.923,0.0
10.756,-0.804,-0.88,0.0
10.218,-0.765,-0.891,0.0
9.752,-0.731,-0.903,0.0
9.289,-0.698,-0.911,0.0
8.924,-0.672,-0.923,0.0
8.488,-0.64,-0.924,0.0
10.919,-0.821,-0.881,0.0
10.328,-0.778,-0.888,0.0
9.835,-0.742,-0.899,0.0
9.374,-0.708,-0.908,0.0
8.947,-0.677,-0.915,0.0
8.56,-0.649,-0.921,0.0
11.017,-0.833,-0.875,0.0
10.441,-0.79,-0.885,0.0
9.93,-0.753,-0.895,0.0
9.463,-0.718,-0.905,0.0
9.046,-0.688,-0.914,0.0
8.69,-0.662,-0.924,0.0
11.154,-0.847,-0.872,0.0
10.586,-0.805,-0.884,0.0
10.066,-0.767,-0.895,0.0
9.589,-0.731,-0.905,0.0
9.133,-0.697,-0.911,0.0
8.779,-0.671,-0.923,0.0
11.299,-0.862,-0.869,0.0
10.739,-0.82,-0.883,0.0
10.2,-0.78,-0.894,0.0
9.733,-0.745,-0.906,0.0
9.252,-0.709,-0.911,0.0
8.852,-0.679,-0.919,0.0
11.494,-0.88,-0.869,0.0
10.897,-0.835,-0.882,0.0
10.324,-0.792,-0.891,0.0
9.822,-0.754,-0.901,0.0
9.387,-0.722,-0.911,0.0
8.958,-0.69,-0.918,0.0
11.642,-0.894,-0.865,0.0
11.021,-0.847,-0.878,0.0
10.428,-0.803,-0.886,0.0
9.901,-0.763,-0.895,0.0
9.476,-0.731,-0.908,0.0
9.061,-0.7,-0.916,0.0
11.83,-0.911,-0.863,0.0
11.17,-0.861,-0.874,0.0
10.571,-0.815,-0.884,0.0
10.071,-0.778,-0.897,0.0
9.628,-0.744,-0.909,0.0
9.182,-0.71,-0.916,0.0
12.009,-0.927,-0.86,0.0
11.326,-0.875,-0.871,0.0
10.75,-0.831,-0.884,0.0
10.211,-0.79,-0.895,0.0
9.721,-0.753,-0.904,0.0
9.273,-0.719,-0.912,0.0
12.206,-0.944,-0.857,0.0
11.479,-0.888,-0.867,0.0
10.906,-0.844,-0.882,0.0
10.323,-0.8,-0.891,0.0
9.828,-0.762,-0.9,0.0
9.402,-0.729,-0.912,0.0
12.388,-0.959,-0.853,0.0
11.701,-0.906,-0.868,0.0
11.049,-0.856,-0.878,0.0
10.479,-0.812,-0.89,0.0
9.974,-0.774,-0.9,0.0
9.512,-0.738,-0.909,0.0
12.689,-0.982,-0.856,0.0
11.901,-0.922,-0.866,0.0
11.212,-0.869,-0.875,0.0
10.619,-0.823,-0.886,0.0
10.129,-0.786,-0.899,0.0
9.658,-0.75,-0.909,0.0
12.935,-1.001,-0.854,0.0
12.084,-0.936,-0.862,0.0
11.403,-0.883,-0.874,0.0
10.799,-0.837,-0.886,0.0
10.234,-0.794,-0.894,0.0
9.747,-0.756,-0.903,0.0
13.167,-1.019,-0.851,0.0
12.283,-0.951,-0.858,0.0
11.544,-0.894,-0.868,0.0
10.948,-0.848,-0.882,0.0
10.407,-0.806,-0.894,0.0
9.874,-0.765,-0.9,0.0
13.449,-1.04,-0.849,0.0
12.489,-0.965,-0.854,0.0
11.768,-0.91,-0.867,0.0
11.097,-0.858,-0.878,0.0
10.502,-0.812,-0.886,0.0
10.01,-0.774,-0.898,0.0
13.681,-1.056,-0.844,0.0
12.772,-0.986,-0.855,0.0
11.955,-0.923,-0.863,0.0
11.266,-0.869,-0.874,0.0
10.724,-0.828,-0.889,0.0
10.169,-0.785,-0.897,0.0
13.854,-1.067,-0.833,0.0
13.064,-1.006,-0.855,0.0
12.164,-0.936,-0.86,0.0
11.454,-0.882,-0.872,0.0
10.888,-0.838,-0.886,0.0
10.335,-0.796,-0.896,0.0
14.208,-1.091,-0.833,0.0
13.361,-1.026,-0.854,0.0
12.389,-0.951,-0.857,0.0
11.667,-0.895,-0.87,0.0
11.013,-0.845,-0.879,0.0
10.463,-0.803,-0.891,0.0
14.505,-1.11,-0.829,0.0
13.567,-1.038,-0.847,0.0
12.587,-0.963,-0.852,0.0
11.865,-0.907,-0.867,0.0
11.194,-0.856,-0.877,0.0
10.66,-0.815,-0.891,0.0
14.801,-1.128,-0.823,0.0
13.783,-1.05,-0.839,0.0
12.997,-0.99,-0.86,0.0
12.065,-0.918,-0.863,0.0
11.413,-0.869,-0.877,0.0
10.82,-0.823,-0.888,0.0
15.082,-1.145,-0.816,0.0
14.054,-1.066,-0.834,0.0
13.198,-1.001,-0.853,0.0
12.279,-0.93,-0.859,0.0
11.574,-0.877,-0.871,0.0
10.962,-0.83,-0.883,0.0
15.415,-1.164,-0.81,0.0
14.428,-1.089,-0.834,0.0
13.442,-1.014,-0.848,0.0
12.464,-0.939,-0.853,0.0
11.796,-0.888,-0.87,0.0
11.13,-0.838,-0.879,0.0
15.759,-1.183,-0.804,0.0
14.667,-1.1,-0.825,0.0
13.654,-1.024,-0.84,0.0
12.788,-0.958,-0.855,0.0
12.009,-0.899,-0.867,0.0
11.288,-0.844,-0.874,0.0
16.295,-1.216,-0.806,0.0
15.044,-1.121,-0.823,0.0
13.897,-1.035,-0.834,0.0
13.052,-0.971,-0.853,0.0
12.206,-0.908,-0.862,0.0
11.526,-0.856,-0.875,0.0
16.709,-1.238,-0.801,0.0
15.311,-1.133,-0.814,0.0
14.305,-1.058,-0.836,0.0
13.365,-0.987,-0.853,0.0
12.438,-0.918,-0.859,0.0
11.711,-0.863,-0.87,0.0
17.071,-1.256,-0.792,0.0
15.716,-1.155,-0.811,0.0
14.601,-1.071,-0.83,0.0
13.57,-0.995,-0.844,0.0
12.727,-0.932,-0.859,0.0
11.959,-0.875,-0.87,0.0
17.425,-1.271,-0.781,0.0
16.144,-1.176,-0.808,0.0
14.935,-1.087,-0.826,0.0
13.792,-1.002,-0.836,0.0
13.052,-0.947,-0.86,0.0
12.138,-0.88,-0.864,0.0
17.826,-1.289,-0.771,0.0
16.568,-1.196,-0.803,0.0
15.141,-1.092,-0.813,0.0
14.225,-1.024,-0.84,0.0
13.197,-0.949,-0.849,0.0
12.328,-0.885,-0.858,0.0
18.325,-1.312,-0.764,0.0
16.865,-1.206,-0.791,0.0
15.597,-1.113,-0.813,0.0
14.419,-1.028,-0.829,0.0
13.536,-0.963,-0.849,0.0
12.578,-0.894,-0.855,0.0
18.966,-1.344,-0.761,0.0
17.312,-1.225,-0.785,0.0
16.032,-1.133,-0.811,0.0
14.782,-1.042,-0.827,0.0
13.766,-0.969,-0.842,0.0
12.852,-0.903,-0.854,0.0
19.707,-1.382,-0.76,1.0
17.8,-1.246,-0.78,0.0
16.434,-1.148,-0.806,0.0
15.18,-1.058,-0.826,0.0
14.037,-0.977,-0.837,0.0
13.185,-0.916,-0.856,0.0
19.842,-1.375,-0.735,2.0
18.099,-1.252,-0.765,0.0
16.808,-1.16,-0.798,0.0
15.475,-1.066,-0.818,0.0
14.309,-0.984,-0.831,0.0
13.477,-0.925,-0.854,0.0
20.112,-1.377,-0.713,2.0
18.61,-1.271,-0.757,0.0
17.175,-1.171,-0.789,0.0
16.02,-1.089,-0.822,0.0
14.601,-0.991,-0.825,0.0
13.641,-0.924,-0.843,0.0
20.785,-1.404,-0.705,0.0
19.659,-1.325,-0.77,0.0
20.077,-1.35,-0.892,0.0
20.106,-1.349,-1.0,0.0
14.979,-1.003,-0.824,0.0
13.953,-0.932,-0.841,0.0
20.133,-1.342,-0.652,10.0
19.808,-1.317,-0.746,2.0
20.177,-1.338,-0.865,0.0
20.104,-1.33,-0.969,0.0
15.279,-1.008,-0.817,0.0
14.261,-0.939,-0.837,0.0
20.121,-1.321,-0.621,27.0
20.059,-1.314,-0.725,5.0
0.0,0.0,0.0,0.0
20.091,-1.309,-0.938,0.0
20.078,-1.305,-1.043,0.0
14.543,-0.942,-0.832,0.0
20.122,-1.301,-0.591,31.0
20.083,-1.295,-0.695,11.0
19.94,-1.282,-0.795,1.0
20.094,-1.288,-0.908,0.0
20.104,-1.285,-1.014,0.0
14.873,-0.948,-0.828,0.0
20.122,-1.28,-0.561,28.0
20.098,-1.274,-0.665,15.0
19.868,-1.256,-0.762,2.0
20.117,-1.268,-0.879,0.0
16.321,-1.026,-0.799,0.0
15.179,-0.951,-0.823,0.0
20.122,-1.258,-0.531,14.0
20.135,-1.255,-0.637,2.0
19.943,-1.239,-0.735,3.0
18.21,-1.128,-0.769,0.0
16.866,-1.041,-0.8,0.0
15.598,-0.96,-0.822,0.0
19.98,-1.226,-0.497,1.0
19.981,-1.222,-0.602,3.0
19.957,-1.216,-0.706,7.0
19.869,-1.207,-0.809,0.0
17.308,-1.048,-0.796,0.0
20.139,-1.216,-1.032,0.0
19.977,-1.202,-0.468,150.0
19.985,-1.199,-0.573,150.0
19.979,-1.194,-0.677,66.0
19.903,-1.185,-0.781,3.0
17.566,-1.043,-0.782,0.0
16.357,-0.967,-0.814,0.0
19.994,-1.179,-0.439,86.0
19.995,-1.175,-0.544,65.0
19.974,-1.169,-0.648,10.0
19.925,-1.162,-0.753,2.0
18.098,-1.052,-0.779,0.0
16.575,-0.96,-0.801,0.0
20.01,-1.155,-0.41,0.0
20.002,-1.15,-0.515,0.0
23.422,-1.342,-0.726,0.0
19.942,-1.138,-0.725,2.0
18.588,-1.057,-0.774,0.0
17.011,-0.963,-0.797,0.0
0.0,0.0,0.0,0.0
27.026,-1.519,-0.658,0.0
23.611,-1.322,-0.698,1.0
20.418,-1.138,-0.713,0.0
18.958,-1.052,-0.762,0.0
17.376,-0.961,-0.79,0.0
0.0,0.0,0.0,0.0
0.0,0.0,0.0,0.0
23.77,-1.299,-0.669,0.0
20.141,-1.095,-0.675,0.0
19.787,-1.072,-0.767,0.0
17.741,-0.957,-0.781,0.0
0.0,0.0,0.0,0.0
29.263,-1.566,-0.63,0.0
20.06,-1.068,-0.537,13.0
20.063,-1.064,-0.644,17.0
19.881,-1.049,-0.743,3.0
20.104,-1.056,-0.858,0.0
20.056,-1.05,-0.298,6.0
20.031,-1.043,-0.403,20.0
20.057,-1.04,-0.509,28.0
20.072,-1.036,-0.617,28.0
19.993,-1.026,-0.72,7.0
19.968,-1.02,-0.825,0.0
20.023,-1.02,-0.271,27.0
20.013,-1.014,-0.376,28.0
20.048,-1.011,-0.482,30.0
20.069,-1.006,-0.59,23.0
20.004,-0.998,-0.694,6.0
19.51,-0.969,-0.779,0.0
19.994,-0.989,-0.243,33.0
20.016,-0.985,-0.349,28.0
20.05,-0.981,-0.455,26.0
20.063,-0.976,-0.563,10.0
21.749,-1.053,-0.725,0.0
19.755,-0.951,-0.763,1.0
19.997,-0.959,-0.217,30.0
20.005,-0.953,-0.322,24.0
20.05,-0.95,-0.429,18.0
20.139,-0.949,-0.539,0.0
0.0,0.0,0.0,0.0
19.853,-0.925,-0.741,1.0
20.01,-0.929,-0.191,18.0
20.027,-0.924,-0.297,9.0
20.026,-0.918,-0.402,0.0
26.148,-1.192,-0.666,0.0
23.018,-1.043,-0.708,0.0
20.682,-0.931,-0.745,0.0
47.919,-2.15,-0.397,0.0
38.323,-1.708,-0.519,0.0
0.0,0.0,0.0,0.0
27.064,-1.191,-0.655,0.0
23.689,-1.036,-0.698,0.0
21.091,-0.916,-0.733,0.0
0.0,0.0,0.0,0.0
38.448,-1.652,-0.473,0.0
0.0,0.0,0.0,0.0
28.548,-1.21,-0.655,0.0
24.452,-1.029,-0.69,0.0
21.596,-0.903,-0.724,0.0
0.0,0.0,0.0,0.0
0.0,0.0,0.0,0.0
0.0,0.0,0.0,0.0
29.172,-1.188,-0.634,0.0
25.297,-1.023,-0.684,0.0
22.26,-0.894,-0.72,0.0
0.0,0.0,0.0,0.0
0.0,0.0,0.0,0.0
0.0,0.0,0.0,0.0
30.019,-1.173,-0.617,0.0
26.044,-1.01,-0.673,0.0
22.825,-0.879,-0.711,0.0
0.0,0.0,0.0,0.0
45.425,-1.726,-0.395,0.0
0.0,0.0,0.0,0.0
30.636,-1.145,-0.594,0.0
26.723,-0.991,-0.66,0.0
23.43,-0.862,-0.703,0.0
0.0,0.0,0.0,0.0
0.0,0.0,0.0,0.0
38.305,-1.377,-0.492,0.0
0.0,0.0,0.0,0.0
27.324,-0.965,-0.643,0.0
23.856,-0.836,-0.688,0.0
0.0,0.0,0.0,0.0
0.0,0.0,0.0,0.0
41.443,-1.417,-0.486,1.0
0.0,0.0,0.0,0.0
28.615,-0.961,-0.642,0.0
24.739,-0.823,-0.686,0.0
0.0,0.0,0.0,0.0
0.0,0.0,0.0,0.0
44.07,-1.428,-0.468,0.0
0.0,0.0,0.0,0.0
29.536,-0.939,-0.631,0.0
21.958,-0.691,-0.586,0.0
0.0,0.0,0.0,0.0
0.0,0.0,0.0,0.0
44.68,-1.367,-0.428,1.0
37.751,-1.143,-0.566,0.0
30.292,-0.908,-0.615,0.0
21.9,-0.649,-0.561,151.0
0.0,0.0,0.0,0.0
0.0,0.0,0.0,0.0
47.96,-1.38,-0.41,0.0
37.887,-1.078,-0.529,0.0
21.91,-0.616,-0.423,0.0
21.87,-0.608,-0.538,204.0
0.0,0.0,0.0,0.0
0.0,0.0,0.0,0.0
48.186,-1.297,-0.363,0.0
38.296,-1.018,-0.496,0.0
0.0,0.0,0.0,0.0
21.912,-0.568,-0.517,151.0
0.0,0.0,0.0,0.0
0.0,0.0,0.0,0.0
0.0,0.0,0.0,0.0
0.0,0.0,0.0,0.0
0.0,0.0,0.0,0.0
28.398,-0.682,-0.643,0.0
138.844,-3.302,0.701,3.0
0.0,0.0,0.0,0.0
54.558,-1.261,-0.306,0.0
0.0,0.0,0.0,0.0
0.0,0.0,0.0,0.0
29.233,-0.647,-0.635,0.0
138.883,-3.038,0.828,11.0
0.0,0.0,0.0,0.0
0.0,0.0,0.0,0.0
44.848,-0.936,-0.455,1.0
0.0,0.0,0.0,0.0
29.669,-0.599,-0.618,0.0
138.993,-2.77,0.953,21.0
0.0,0.0,0.0,0.0
0.0,0.0,0.0,0.0
45.291,-0.856,-0.42,2.0
37.505,-0.696,-0.549,0.0
30.544,-0.557,-0.61,0.0
139.057,-2.498,1.073,22.0
0.0,0.0,0.0,0.0
0.0,0.0,0.0,0.0
47.342,-0.802,-0.399,1.0
0.0,0.0,0.0,0.0
0.0,0.0,0.0,0.0
138.857,-2.221,1.185,15.0
0.0,0.0,0.0,0.0
0.0,0.0,0.0,0.0
0.0,0.0,0.0,0.0
0.0,0.0,0.0,0.0
32.256,-0.461,-0.592,0.0
138.999,-1.946,1.296,17.0
127.451,-1.741,0.504,4.0
0.0,0.0,0.0,0.0
0.0,0.0,0.0,0.0
0.0,0.0,0.0,0.0
32.288,-0.396,-0.568,0.0
139.324,-1.672,1.404,12.0
0.0,0.0,0.0,0.0
0.0,0.0,0.0,0.0
0.0,0.0,0.0,0.0
41.077,-0.436,-0.473,0.0
33.243,-0.342,-0.561,0.0
119.744,-1.194,1.293,150.0
119.852,-1.153,0.65,4.0
79.048,-0.734,0.003,1.0
0.0,0.0,0.0,0.0
0.0,0.0,0.0,0.0
35.162,-0.289,-0.569,0.0
119.698,-0.948,1.375,18.0
113.944,-0.862,0.696,6.0
82.927,-0.599,0.059,2.0
0.0,0.0,0.0,0.0
0.0,0.0,0.0,0.0
0.0,0.0,0.0,0.0
119.711,-0.703,1.453,15.0
114.269,-0.632,0.771,8.0
95.393,-0.495,0.129,1.0
0.0,0.0,0.0,0.0
45.215,-0.203,-0.431,1.0
36.773,-0.152,-0.549,0.0
119.658,-0.458,1.525,7.0
114.45,-0.397,0.841,11.0
0.0,0.0,0.0,0.0
0.0,0.0,0.0,0.0
45.429,-0.11,-0.406,1.0
37.624,-0.078,-0.54,0.0
112.708,-0.196,1.503,7.0
117.27,-0.162,0.93,8.0
95.382,-0.1,0.24,1.0
0.0,0.0,0.0,0.0
45.762,-0.017,-0.384,1.0
0.0,0.0,0.0,0.0
111.107,0.037,1.541,13.0
111.196,0.074,0.94,10.0
0.0,0.0,0.0,0.0
0.0,0.0,0.0,0.0
49.738,0.085,-0.392,0.0
38.291,0.078,-0.509,0.0
119.912,0.289,1.724,13.0
119.796,0.331,1.073,8.0
94.659,0.293,0.334,3.0
0.0,0.0,0.0,0.0
50.067,0.19,-0.37,0.0
38.981,0.161,-0.5,0.0
111.118,0.5,1.649,18.0
110.993,0.539,1.045,13.0
92.333,0.479,0.368,2.0
0.0,0.0,0.0,0.0
0.0,0.0,0.0,0.0
40.621,0.254,-0.503,0.0
100.464,0.665,1.535,2.0
104.855,0.73,1.032,13.0
97.745,0.715,0.431,3.0
0.0,0.0,0.0,0.0
52.939,0.423,-0.347,0.0
0.0,0.0,0.0,0.0
104.741,0.915,1.642,39.0
98.699,0.896,1.01,19.0
97.947,0.924,0.469,5.0
70.702,0.692,-0.052,0.0
0.0,0.0,0.0,0.0
41.102,0.43,-0.478,1.0
98.573,1.071,1.58,31.0
98.542,1.105,1.043,32.0
85.466,0.988,0.439,7.0
78.881,0.939,-0.032,2.0
0.0,0.0,0.0,0.0
41.102,0.518,-0.464,0.0
98.525,1.282,1.612,30.0
98.605,1.315,1.075,29.0
85.38,1.169,0.465,6.0
0.0,0.0,0.0,0.0
0.0,0.0,0.0,0.0
41.571,0.612,-0.458,0.0
92.001,1.392,1.531,23.0
91.937,1.423,1.028,39.0
91.773,1.451,0.524,10.0
74.138,1.198,0.011,4.0
0.0,0.0,0.0,0.0
41.705,0.703,-0.449,0.0
91.881,1.587,1.551,38.0
91.897,1.617,1.049,34.0
85.301,1.531,0.507,7.0
72.228,1.322,0.027,3.0
57.813,1.077,-0.294,0.0
44.283,0.84,-0.467,0.0
87.343,1.695,1.493,32.0
85.453,1.688,0.993,11.0
85.122,1.71,0.523,13.0
70.86,1.447,0.04,7.0
0.0,0.0,0.0,0.0
0.0,0.0,0.0,0.0
85.258,1.835,1.472,33.0
85.25,1.864,1.004,39.0
85.07,1.889,0.535,14.0
71.519,1.613,0.051,3.0
0.0,0.0,0.0,0.0
42.935,0.997,-0.44,0.0
85.273,2.019,1.483,31.0
85.284,2.047,1.015,31.0
79.056,1.923,0.507,9.0
71.263,1.758,0.059,3.0
55.541,1.389,-0.258,0.0
44.245,1.121,-0.449,0.0
78.94,2.036,1.38,29.0
78.883,2.061,0.946,32.0
78.815,2.085,0.512,18.0
65.972,1.767,0.059,6.0
57.128,1.549,-0.262,5.0
0.0,0.0,0.0,0.0
77.031,2.15,1.351,3.0
76.733,2.166,0.924,8.0
78.81,2.251,0.515,13.0
70.149,2.027,0.065,6.0
55.45,1.621,-0.253,0.0
45.591,1.347,-0.459,0.0
74.464,2.235,1.307,3.0
119.886,3.638,1.445,8.0
72.46,2.223,0.474,24.0
65.425,2.028,0.061,7.0
55.147,1.728,-0.252,0.0
45.579,1.444,-0.459,0.0
72.43,2.328,1.27,31.0
72.384,2.35,0.87,37.0
72.286,2.37,0.47,30.0
65.228,2.161,0.058,12.0
59.624,1.994,-0.275,2.0
45.402,1.533,-0.46,0.0
72.363,2.478,1.265,35.0
72.346,2.501,0.865,36.0
72.283,2.523,0.465,19.0
65.281,2.298,0.053,12.0
54.183,1.925,-0.254,1.0
0.0,0.0,0.0,0.0
72.447,2.634,1.259,20.0
72.484,2.657,0.859,18.0
72.21,2.67,0.457,14.0
65.115,2.429,0.045,12.0
56.824,2.138,-0.274,1.0
44.764,1.699,-0.463,1.0
120.092,4.616,2.072,8.0
119.965,4.648,1.406,17.0
72.263,2.822,0.446,7.0
65.082,2.563,0.035,8.0
55.609,2.208,-0.277,2.0
44.767,1.791,-0.471,0.0
120.115,4.864,2.052,15.0
66.134,2.699,0.763,33.0
66.062,2.716,0.396,23.0
58.982,2.443,0.021,9.0
54.513,2.276,-0.282,3.0
0.0,0.0,0.0,0.0
62.815,2.673,1.06,9.0
61.369,2.631,0.695,7.0
66.042,2.852,0.381,24.0
58.97,2.564,0.007,6.0
53.126,2.327,-0.287,6.0
43.838,1.934,-0.48,0.0
66.086,2.948,1.099,20.0
66.091,2.968,0.732,21.0
66.11,2.989,0.365,13.0
58.787,2.677,-0.007,11.0
52.326,2.399,-0.297,12.0
41.678,1.923,-0.468,0.0
127.876,5.964,2.091,2.0
120.063,5.634,1.295,17.0
120.101,5.673,0.628,8.0
58.647,2.788,-0.025,17.0
51.247,2.452,-0.306,1.0
40.35,1.943,-0.466,1.0
120.136,5.845,1.926,7.0
120.048,5.875,1.257,16.0
83.359,4.105,0.408,2.0
58.707,2.908,-0.044,8.0
50.294,2.507,-0.318,19.0
40.24,2.018,-0.478,1.0
124.828,6.322,1.958,100.0
59.467,3.03,0.601,24.0
59.388,3.042,0.269,26.0
52.295,2.695,-0.059,26.0
49.298,2.555,-0.33,2.0
39.329,2.051,-0.483,0.0
59.367,3.125,0.908,36.0
59.334,3.14,0.576,32.0
59.296,3.156,0.245,24.0
51.908,2.778,-0.079,21.0
48.468,2.608,-0.345,1.0
39.348,2.129,-0.499,0.0
59.369,3.242,0.883,28.0
59.354,3.258,0.551,27.0
59.283,3.271,0.219,18.0
51.493,2.857,-0.102,19.0
47.491,2.648,-0.359,2.0
38.127,2.138,-0.501,0.0
59.461,3.363,0.856,5.0
116.239,6.608,1.026,7.0
59.358,3.39,0.192,11.0
51.301,2.944,-0.125,20.0
46.343,2.674,-0.372,9.0
37.797,2.192,-0.515,0.0
114.779,6.712,1.598,8.0
114.345,6.72,0.952,7.0
52.428,3.096,0.143,10.0
51.061,3.029,-0.151,25.0
45.764,2.728,-0.391,4.0
37.632,2.254,-0.532,0.0
50.777,3.067,0.68,1.0
50.412,3.059,0.392,5.0
52.284,3.187,0.114,25.0
50.973,3.121,-0.178,13.0
45.207,2.781,-0.411,5.0
35.571,2.197,-0.523,0.0
50.099,3.12,0.643,8.0
49.61,3.103,0.359,2.0
52.017,3.268,0.084,15.0
45.688,2.882,-0.186,20.0
44.481,2.819,-0.431,6.0
35.475,2.258,-0.542,0.0
49.145,3.152,0.601,3.0
49.012,3.157,0.325,4.0
51.829,3.352,0.052,15.0
45.323,2.943,-0.212,20.0
43.763,2.854,-0.45,0.0
35.097,2.298,-0.558,0.0
48.579,3.205,0.564,6.0
48.571,3.217,0.291,4.0
51.696,3.438,0.02,18.0
44.814,2.991,-0.238,19.0
41.285,2.767,-0.451,1.0
0.0,0.0,0.0,0.0
48.187,3.266,0.528,8.0
48.152,3.276,0.257,4.0
51.601,3.524,-0.014,14.0
44.25,3.033,-0.265,19.0
41.152,2.831,-0.478,0.0
32.371,2.236,-0.558,0.0
47.896,3.332,0.492,15.0
52.152,3.641,0.242,12.0
46.037,3.226,-0.044,20.0
43.179,3.037,-0.289,14.0
38.394,2.71,-0.473,0.0
31.754,2.249,-0.57,0.0
52.271,3.729,0.499,11.0
52.172,3.735,0.205,14.0
45.814,3.29,-0.077,19.0
42.171,3.04,-0.313,8.0
37.573,2.718,-0.491,0.0
31.169,2.263,-0.583,0.0
101.769,7.438,0.897,7.0
52.186,3.826,0.165,14.0
45.426,3.342,-0.111,19.0
41.231,3.043,-0.338,7.0
36.614,2.712,-0.506,1.0
30.547,2.27,-0.595,1.0
100.675,7.53,0.808,11.0
52.159,3.914,0.124,10.0
45.166,3.4,-0.147,19.0
40.739,3.076,-0.366,5.0
35.859,2.717,-0.525,1.0
29.793,2.264,-0.604,0.0
99.679,7.624,0.719,8.0
45.995,3.529,0.072,12.0
44.908,3.455,-0.182,19.0
40.557,3.13,-0.398,5.0
34.531,2.673,-0.534,0.0
29.045,2.255,-0.613,0.0
45.965,3.591,0.293,5.0
45.65,3.577,0.033,26.0
44.23,3.476,-0.217,19.0
40.405,3.184,-0.431,5.0
33.727,2.666,-0.55,0.0
28.289,2.243,-0.622,0.0
45.82,3.653,0.252,38.0
45.505,3.638,-0.005,27.0
0.0,0.0,0.0,0.0
40.118,3.226,-0.463,6.0
32.657,2.633,-0.561,0.0
27.777,2.246,-0.635,0.0
45.765,3.722,0.212,28.0
45.326,3.695,-0.046,19.0
40.658,3.324,-0.272,15.0
0.0,0.0,0.0,0.0
31.859,2.619,-0.577,0.0
27.057,2.23,-0.643,0.0
45.718,3.789,0.169,17.0
45.183,3.754,-0.088,27.0
40.547,3.377,-0.308,15.0
37.282,3.114,-0.498,1.0
30.846,2.583,-0.587,0.0
26.427,2.219,-0.653,0.0
45.681,3.855,0.126,17.0
44.994,3.806,-0.13,19.0
40.278,3.415,-0.344,15.0
36.845,3.132,-0.528,1.0
30.062,2.562,-0.601,0.0
25.878,2.211,-0.664,0.0
45.664,3.921,0.082,18.0
44.505,3.83,-0.171,19.0
39.942,3.446,-0.38,7.0
33.928,2.934,-0.519,0.0
29.204,2.531,-0.612,0.0
25.233,2.192,-0.672,0.0
45.652,3.985,0.038,17.0
43.638,3.818,-0.211,19.0
39.777,3.488,-0.418,6.0
33.161,2.914,-0.54,1.0
28.279,2.491,-0.621,0.0
24.619,2.174,-0.681,0.0
45.565,4.042,-0.007,19.0
0.0,0.0,0.0,0.0
39.671,3.534,-0.457,7.0
32.179,2.873,-0.557,0.0
27.441,2.455,-0.631,0.0
23.979,2.15,-0.688,0.0
45.452,4.094,-0.054,20.0
40.857,3.688,-0.281,16.0
39.57,3.579,-0.497,5.0
31.492,2.854,-0.578,1.0
26.611,2.417,-0.64,0.0
23.333,2.124,-0.694,0.0
45.21,4.133,-0.102,18.0
40.305,3.691,-0.32,16.0
39.556,3.63,-0.539,0.0
30.561,2.81,-0.593,0.0
26.136,2.408,-0.656,0.0
22.758,2.101,-0.701,0.0
44.523,4.127,-0.148,20.0
39.767,3.693,-0.358,15.0
35.36,3.29,-0.519,2.0
29.362,2.737,-0.602,0.0
25.533,2.385,-0.669,0.0
22.322,2.089,-0.712,0.0
43.476,4.084,-0.191,18.0
39.436,3.711,-0.398,8.0
34.787,3.28,-0.549,1.0
28.664,2.708,-0.619,0.0
24.771,2.345,-0.676,0.0
21.74,2.062,-0.717,0.0
42.273,4.024,-0.234,17.0
39.382,3.755,-0.442,9.0
31.932,3.05,-0.54,0.0
27.535,2.634,-0.625,0.0
24.077,2.308,-0.684,0.0
21.299,2.045,-0.727,0.0
40.821,3.933,-0.271,16.0
39.322,3.795,-0.486,8.0
31.321,3.028,-0.565,0.0
26.919,2.607,-0.642,0.0
23.471,2.277,-0.694,0.0
20.666,2.008,-0.729,0.0
39.961,3.896,-0.312,20.0
39.229,3.831,-0.53,3.0
30.667,2.999,-0.589,0.0
26.072,2.554,-0.652,0.0
22.809,2.238,-0.701,0.0
20.306,1.996,-0.74,0.0
39.595,3.904,-0.355,15.0
34.174,3.375,-0.501,0.0
29.386,2.906,-0.599,0.0
25.436,2.52,-0.666,0.0
22.274,2.21,-0.711,0.0
19.827,1.97,-0.746,0.0
39.231,3.91,-0.398,8.0
33.886,3.382,-0.537,1.0
28.475,2.846,-0.614,0.0
24.726,2.475,-0.677,0.0
21.674,2.173,-0.717,0.0
19.415,1.949,-0.754,0.0
39.143,3.941,-0.444,7.0
33.509,3.378,-0.571,1.0
27.352,2.761,-0.622,0.0
23.87,2.413,-0.682,0.0
21.053,2.131,-0.722,0.0
18.959,1.922,-0.758,0.0
39.126,3.977,-0.49,9.0
31.0,3.155,-0.565,1.0
26.691,2.72,-0.639,0.0
23.257,2.373,-0.692,0.0
20.55,2.1,-0.729,0.0
18.378,1.88,-0.757,0.0
39.088,4.009,-0.537,3.0
30.178,3.099,-0.587,0.0
25.95,2.668,-0.653,0.0
22.78,2.345,-0.706,0.0
20.141,2.076,-0.739,0.0
18.087,1.867,-0.768,0.0
34.199,3.538,-0.511,0.0
29.165,3.021,-0.603,0.0
25.127,2.606,-0.663,0.0
21.989,2.283,-0.708,0.0
19.617,2.039,-0.744,0.0
17.759,1.849,-0.776,0.0
32.969,3.439,-0.534,1.0
28.147,2.939,-0.617,0.0
24.61,2.573,-0.68,0.0
21.488,2.249,-0.719,0.0
19.116,2.003,-0.749,0.0
17.283,1.813,-0.776,0.0
32.31,3.396,-0.563,1.0
27.167,2.858,-0.629,0.0
23.664,2.492,-0.683,0.0
20.898,2.203,-0.725,0.0
18.493,1.952,-0.748,0.0
17.001,1.797,-0.785,0.0
30.734,3.253,-0.574,1.0
26.304,2.787,-0.642,0.0
22.978,2.437,-0.692,0.0
20.222,2.147,-0.727,0.0
18.24,1.939,-0.76,0.0
16.659,1.773,-0.79,0.0
29.665,3.161,-0.591,0.0
25.598,2.73,-0.657,0.0
22.559,2.409,-0.708,0.0
19.886,2.125,-0.74,0.0
17.84,1.909,-0.767,0.0
16.392,1.756,-0.798,0.0
28.562,3.063,-0.606,0.0
24.853,2.668,-0.669,0.0
21.719,2.333,-0.709,0.0
19.504,2.097,-0.751,0.0
17.605,1.895,-0.779,0.0
15.975,1.721,-0.798,0.0
27.534,2.97,-0.618,0.0
24.112,2.603,-0.679,0.0
21.156,2.285,-0.718,0.0
18.883,2.042,-0.751,0.0
17.133,1.854,-0.779,0.0
15.851,1.717,-0.812,0.0
26.632,2.888,-0.632,0.0
23.349,2.534,-0.687,0.0
20.628,2.24,-0.726,0.0
18.474,2.008,-0.758,0.0
16.885,1.837,-0.789,0.0
15.416,1.679,-0.809,0.0
25.877,2.82,-0.647,0.0
22.686,2.474,-0.697,0.0
20.12,2.195,-0.733,0.0
18.041,1.97,-0.763,0.0
16.54,1.808,-0.794,0.0
15.126,1.655,-0.814,0.0
25.171,2.755,-0.661,0.0
22.07,2.417,-0.706,0.0
19.688,2.158,-0.743,0.0
17.654,1.936,-0.769,0.0
16.255,1.784,-0.801,0.0
14.854,1.632,-0.818,0.0
24.428,2.684,-0.672,0.0
21.547,2.369,-0.717,0.0
19.165,2.109,-0.747,0.0
17.269,1.901,-0.774,0.0
15.871,1.749,-0.803,0.0
14.613,1.611,-0.823,0.0
23.747,2.619,-0.684,0.0
20.817,2.297,-0.718,0.0
18.781,2.073,-0.756,0.0
16.96,1.874,-0.782,0.0
15.521,1.716,-0.804,0.0
14.355,1.588,-0.827,0.0
22.885,2.532,-0.687,0.0
20.337,2.251,-0.728,0.0
18.124,2.007,-0.753,0.0
16.641,1.844,-0.788,0.0
15.248,1.691,-0.81,0.0
14.087,1.563,-0.829,0.0
22.363,2.481,-0.7,0.0
19.865,2.204,-0.736,0.0
17.818,1.978,-0.763,0.0
16.311,1.812,-0.793,0.0
14.992,1.666,-0.815,0.0
13.9,1.546,-0.836,0.0
21.69,2.412,-0.707,0.0
19.394,2.157,-0.743,0.0
17.506,1.948,-0.771,0.0
16.094,1.792,-0.803,0.0
14.751,1.643,-0.821,0.0
13.71,1.528,-0.842,0.0
15.388,1.674,-0.805,0.0
14.183,1.542,-0.823,0.0
13.298,1.445,-0.848,0.0
12.235,1.329,-0.852,0.0
11.466,1.245,-0.864,0.0
10.781,1.171,-0.875,0.0
15.199,1.645,-0.81,0.0
14.037,1.519,-0.829,0.0
13.091,1.416,-0.848,0.0
12.094,1.307,-0.854,0.0
11.306,1.222,-0.863,0.0
10.687,1.155,-0.877,0.0
14.962,1.611,-0.812,0.0
13.867,1.493,-0.832,0.0
12.938,1.392,-0.851,0.0
11.857,1.275,-0.849,0.0
11.201,1.204,-0.866,0.0
10.576,1.136,-0.879,0.0
14.757,1.58,-0.815,0.0
13.707,1.467,-0.836,0.0
12.791,1.368,-0.853,0.0
11.712,1.252,-0.85,0.0
11.094,1.185,-0.869,0.0
10.399,1.111,-0.874,0.0
14.551,1.549,-0.818,0.0
13.545,1.441,-0.839,0.0
12.653,1.345,-0.856,0.0
11.638,1.236,-0.855,0.0
10.947,1.162,-0.867,0.0
10.294,1.092,-0.875,0.0
14.34,1.516,-0.819,0.0
13.328,1.408,-0.837,0.0
12.524,1.322,-0.859,0.0
11.568,1.221,-0.861,0.0
10.848,1.144,-0.869,0.0
10.221,1.077,-0.878,0.0
14.231,1.494,-0.825,0.0
13.219,1.387,-0.842,0.0
12.298,1.289,-0.854,0.0
11.406,1.195,-0.858,0.0
10.763,1.127,-0.872,0.0
10.179,1.065,-0.883,0.0
14.054,1.465,-0.827,0.0
13.097,1.364,-0.846,0.0
12.074,1.257,-0.849,0.0
11.304,1.176,-0.86,0.0
10.686,1.111,-0.875,0.0
10.094,1.048,-0.884,0.0
13.925,1.44,-0.831,0.0
12.958,1.339,-0.847,0.0
11.945,1.234,-0.849,0.0
11.226,1.158,-0.864,0.0
10.559,1.089,-0.873,0.0
10.003,1.031,-0.884,0.0
13.834,1.419,-0.837,0.0
12.849,1.317,-0.85,0.0
11.839,1.213,-0.851,0.0
11.105,1.136,-0.863,0.0
10.484,1.072,-0.875,0.0
9.967,1.018,-0.889,0.0
13.654,1.389,-0.836,0.0
12.628,1.284,-0.845,0.0
11.783,1.196,-0.856,0.0
10.996,1.116,-0.863,0.0
10.436,1.058,-0.879,0.0
9.931,1.006,-0.893,0.0
13.547,1.366,-0.839,0.0
12.534,1.263,-0.848,0.0
11.699,1.177,-0.858,0.0
10.902,1.096,-0.863,0.0
10.325,1.037,-0.877,0.0
9.865,0.99,-0.894,0.0
13.387,1.337,-0.839,0.0
12.336,1.231,-0.843,0.0
11.582,1.155,-0.858,0.0
10.827,1.078,-0.865,0.0
10.286,1.023,-0.88,0.0
9.754,0.97,-0.891,0.0
13.193,1.305,-0.835,0.0
12.356,1.221,-0.853,0.0
11.497,1.135,-0.859,0.0
10.791,1.064,-0.869,0.0
10.266,1.011,-0.885,0.0
9.746,0.959,-0.896,0.0
13.105,1.283,-0.838,0.0
12.207,1.194,-0.85,0.0
11.394,1.113,-0.858,0.0
10.728,1.047,-0.87,0.0
10.136,0.988,-0.88,0.0
9.658,0.94,-0.894,0.0
12.989,1.259,-0.839,0.0
12.123,1.173,-0.851,0.0
11.32,1.094,-0.859,0.0
10.627,1.026,-0.868,0.0
10.099,0.974,-0.883,0.0
9.617,0.926,-0.896,0.0
12.896,1.236,-0.84,0.0
11.936,1.142,-0.845,0.0
11.24,1.074,-0.86,0.0
10.613,1.013,-0.873,0.0
10.134,0.966,-0.892,0.0
9.605,0.915,-0.9,0.0
12.962,1.228,-0.851,0.0
11.902,1.126,-0.849,0.0
11.182,1.056,-0.861,0.0
10.519,0.992,-0.871,0.0
10.042,0.946,-0.889,0.0
9.504,0.894,-0.895,0.0
12.892,1.207,-0.853,0.0
11.858,1.109,-0.852,0.0
11.124,1.038,-0.862,0.0
10.475,0.976,-0.872,0.0
10.003,0.931,-0.89,0.0
9.453,0.879,-0.895,0.0
12.843,1.188,-0.855,0.0
11.793,1.089,-0.852,0.0
11.048,1.019,-0.861,0.0
10.469,0.964,-0.876,0.0
9.919,0.912,-0.887,0.0
9.455,0.868,-0.899,0.0
12.665,1.156,-0.849,0.0
11.775,1.073,-0.856,0.0
10.991,1.0,-0.861,0.0
10.395,0.945,-0.874,0.0
9.916,0.9,-0.89,0.0
9.498,0.861,-0.907,0.0
12.476,1.124,-0.841,0.0
11.734,1.055,-0.857,0.0
10.981,0.986,-0.864,0.0
10.396,0.932,-0.878,0.0
9.945,0.89,-0.897,0.0
9.445,0.844,-0.905,0.0
12.486,1.11,-0.846,0.0
11.663,1.035,-0.856,0.0
10.9,0.965,-0.861,0.0
10.309,0.912,-0.874,0.0
9.881,0.872,-0.894,0.0
9.449,0.833,-0.908,0.0
12.449,1.091,-0.847,0.0
11.617,1.016,-0.856,0.0
10.913,0.953,-0.866,0.0
10.316,0.899,-0.878,0.0
9.838,0.856,-0.893,0.0
9.373,0.814,-0.904,0.0
12.438,1.074,-0.849,0.0
11.481,0.99,-0.849,0.0
10.875,0.936,-0.865,0.0
10.269,0.882,-0.876,0.0
9.858,0.845,-0.897,0.0
9.365,0.801,-0.905,0.0
12.401,1.055,-0.85,0.0
11.528,0.979,-0.855,0.0
10.838,0.919,-0.865,0.0
10.313,0.872,-0.882,0.0
9.827,0.83,-0.896,0.0
9.382,0.791,-0.909,0.0
12.433,1.042,-0.854,0.0
11.482,0.96,-0.853,0.0
10.813,0.902,-0.864,0.0
10.272,0.855,-0.88,0.0
9.753,0.811,-0.891,0.0
9.426,0.782,-0.914,0.0
12.361,1.019,-0.851,0.0
11.434,0.941,-0.851,0.0
10.827,0.889,-0.867,0.0
10.254,0.84,-0.88,0.0
9.816,0.803,-0.898,0.0
9.333,0.762,-0.906,0.0
12.267,0.995,-0.846,0.0
11.421,0.924,-0.852,0.0
10.782,0.871,-0.864,0.0
10.257,0.826,-0.881,0.0
9.763,0.785,-0.894,0.0
9.338,0.749,-0.907,0.0
12.289,0.98,-0.848,0.0
11.437,0.91,-0.853,0.0
10.815,0.858,-0.867,0.0
10.25,0.812,-0.881,0.0
9.739,0.77,-0.892,0.0
9.273,0.731,-0.901,0.0
12.244,0.959,-0.845,0.0
11.416,0.892,-0.852,0.0
10.841,0.845,-0.87,0.0
10.273,0.799,-0.883,0.0
9.781,0.759,-0.895,0.0
9.33,0.722,-0.907,0.0
12.261,0.943,-0.846,0.0
11.464,0.88,-0.855,0.0
10.81,0.828,-0.867,0.0
10.258,0.783,-0.881,0.0
9.776,0.745,-0.895,0.0
9.347,0.71,-0.908,0.0
12.279,0.927,-0.846,0.0
11.481,0.865,-0.856,0.0
10.795,0.811,-0.865,0.0
10.259,0.769,-0.88,0.0
9.728,0.727,-0.889,0.0
9.341,0.696,-0.906,0.0
12.316,0.912,-0.848,0.0
11.497,0.85,-0.855,0.0
10.84,0.799,-0.867,0.0
10.261,0.754,-0.879,0.0
9.808,0.719,-0.895,0.0
9.336,0.683,-0.904,0.0
12.363,0.898,-0.849,0.0
11.492,0.832,-0.853,0.0
10.845,0.783,-0.866,0.0
10.289,0.741,-0.88,0.0
9.863,0.708,-0.898,0.0
9.397,0.673,-0.909,0.0
12.362,0.88,-0.847,0.0
11.559,0.82,-0.856,0.0
10.871,0.769,-0.865,0.0
10.325,0.729,-0.881,0.0
9.84,0.692,-0.894,0.0
9.405,0.66,-0.907,0.0
12.406,0.865,-0.847,0.0
11.566,0.804,-0.853,0.0
10.898,0.755,-0.865,0.0
10.313,0.712,-0.877,0.0
9.886,0.681,-0.896,0.0
9.451,0.649,-0.909,0.0
12.493,0.852,-0.849,0.0
11.619,0.79,-0.854,0.0
10.954,0.743,-0.866,0.0
10.349,0.7,-0.877,0.0
9.907,0.668,-0.894,0.0
9.431,0.634,-0.904,0.0
12.468,0.832,-0.843,0.0
11.647,0.775,-0.852,0.0
10.972,0.728,-0.864,0.0
10.39,0.687,-0.877,0.0
9.951,0.656,-0.895,0.0
9.453,0.621,-0.903,0.0
12.509,0.816,-0.842,0.0
11.714,0.762,-0.853,0.0
11.027,0.715,-0.864,0.0
10.397,0.672,-0.873,0.0
9.954,0.641,-0.891,0.0
9.531,0.612,-0.906,0.0
12.717,0.811,-0.85,0.0
11.754,0.747,-0.851,0.0
11.055,0.7,-0.861,0.0
10.496,0.662,-0.877,0.0
10.022,0.63,-0.893,0.0
9.591,0.601,-0.908,0.0
12.779,0.796,-0.849,0.0
11.789,0.731,-0.848,0.0
11.106,0.686,-0.86,0.0
10.541,0.649,-0.876,0.0
10.039,0.616,-0.889,0.0
9.616,0.588,-0.905,0.0
12.822,0.779,-0.845,0.0
11.885,0.719,-0.849,0.0
11.166,0.673,-0.859,0.0
10.62,0.638,-0.877,0.0
10.099,0.604,-0.889,0.0
9.638,0.575,-0.902,0.0
12.932,0.766,-0.845,0.0
11.954,0.705,-0.847,0.0
11.242,0.661,-0.859,0.0
10.65,0.624,-0.873,0.0
10.152,0.592,-0.888,0.0
9.68,0.563,-0.9,0.0
13.133,0.758,-0.851,0.0
12.062,0.694,-0.848,0.0
11.347,0.65,-0.86,0.0
10.69,0.61,-0.87,0.0
10.19,0.579,-0.885,0.0
9.733,0.551,-0.899,0.0
13.158,0.74,-0.844,0.0
12.206,0.683,-0.85,0.0
11.451,0.639,-0.86,0.0
10.749,0.597,-0.868,0.0
10.259,0.567,-0.885,0.0
9.769,0.538,-0.896,0.0
13.282,0.727,-0.844,0.0
12.291,0.67,-0.848,0.0
11.523,0.625,-0.858,0.0
10.854,0.586,-0.869,0.0
10.316,0.555,-0.882,0.0
9.865,0.529,-0.898,0.0
13.444,0.715,-0.844,0.0
12.394,0.657,-0.846,0.0
11.608,0.612,-0.856,0.0
10.973,0.576,-0.87,0.0
10.393,0.543,-0.881,0.0
9.914,0.516,-0.895,0.0
13.518,0.699,-0.839,0.0
12.522,0.644,-0.845,0.0
11.667,0.598,-0.851,0.0
11.053,0.564,-0.868,0.0
10.472,0.532,-0.88,0.0
9.983,0.504,-0.893,0.0
13.673,0.686,-0.838,0.0
12.788,0.639,-0.853,0.0
11.797,0.586,-0.851,0.0
11.178,0.553,-0.869,0.0
10.518,0.518,-0.875,0.0
10.075,0.494,-0.893,0.0
13.776,0.671,-0.832,0.0
12.84,0.622,-0.846,0.0
11.899,0.574,-0.848,0.0
11.241,0.539,-0.864,0.0
10.6,0.506,-0.872,0.0
10.144,0.482,-0.89,0.0
13.903,0.656,-0.828,0.0
13.034,0.612,-0.847,0.0
12.049,0.563,-0.848,0.0
11.305,0.525,-0.858,0.0
10.709,0.495,-0.872,0.0
10.196,0.469,-0.885,0.0
14.212,0.65,-0.833,0.0
13.17,0.599,-0.843,0.0
12.22,0.553,-0.849,0.0
11.383,0.512,-0.854,0.0
10.869,0.487,-0.874,0.0
10.324,0.46,-0.887,0.0
14.326,0.634,-0.826,0.0
13.342,0.587,-0.842,0.0
12.358,0.541,-0.846,0.0
11.559,0.503,-0.855,0.0
11.002,0.476,-0.874,0.0
10.399,0.448,-0.883,0.0
14.457,0.618,-0.819,0.0
13.522,0.575,-0.839,0.0
12.515,0.529,-0.844,0.0
11.672,0.491,-0.852,0.0
11.111,0.464,-0.871,0.0
10.485,0.436,-0.879,0.0
14.709,0.607,-0.818,0.0
13.72,0.563,-0.837,0.0
12.833,0.524,-0.852,0.0
11.822,0.48,-0.85,0.0
11.204,0.452,-0.866,0.0
10.61,0.425,-0.878,0.0
14.936,0.595,-0.814,0.0
13.853,0.548,-0.83,0.0
12.978,0.511,-0.847,0.0
12.024,0.47,-0.851,0.0
11.32,0.44,-0.863,0.0
10.782,0.417,-0.88,0.0
15.229,0.585,-0.813,0.0
14.108,0.538,-0.829,0.0
13.244,0.502,-0.85,0.0
12.188,0.459,-0.849,0.0
11.428,0.428,-0.858,0.0
10.905,0.406,-0.877,0.0
15.351,0.567,-0.802,0.0
14.3,0.525,-0.824,0.0
13.384,0.488,-0.843,0.0
12.391,0.449,-0.848,0.0
11.604,0.418,-0.857,0.0
11.021,0.394,-0.873,0.0
15.672,0.557,-0.8,0.0
14.562,0.514,-0.821,0.0
13.566,0.476,-0.838,0.0
12.759,0.444,-0.858,0.0
11.751,0.407,-0.853,0.0
11.157,0.384,-0.87,1.0
16.026,0.547,-0.798,0.0
14.815,0.502,-0.817,0.0
13.779,0.464,-0.834,0.0
12.922,0.432,-0.852,0.0
11.931,0.396,-0.851,0.0
11.308,0.373,-0.867,0.0
16.329,0.535,-0.792,0.0
15.141,0.492,-0.816,0.0
14.081,0.455,-0.834,0.0
13.173,0.422,-0.852,0.0
12.212,0.389,-0.855,0.0
11.406,0.36,-0.86,0.0
16.655,0.523,-0.786,0.0
15.519,0.483,-0.816,0.0
14.287,0.442,-0.827,0.0
13.389,0.411,-0.848,0.0
12.367,0.377,-0.849,0.0
11.594,0.351,-0.858,0.0
17.059,0.512,-0.783,0.0
15.752,0.469,-0.807,0.0
14.564,0.431,-0.823,0.0
13.605,0.399,-0.843,0.0
12.598,0.367,-0.848,0.0
11.764,0.34,-0.854,0.0
17.49,0.502,-0.778,0.0
16.033,0.457,-0.799,0.0
14.829,0.419,-0.817,0.0
13.834,0.388,-0.838,0.0
12.944,0.36,-0.853,0.0
11.988,0.331,-0.854,0.0
17.824,0.488,-0.768,0.0
16.465,0.447,-0.796,0.0
15.177,0.409,-0.815,0.0
14.123,0.377,-0.834,0.0
13.155,0.348,-0.847,0.0
12.23,0.321,-0.853,0.0
18.356,0.479,-0.764,0.0
16.784,0.434,-0.787,0.0
15.49,0.397,-0.809,0.0
14.353,0.365,-0.827,0.0
13.336,0.336,-0.839,0.0
12.494,0.312,-0.853,0.0
18.749,0.465,-0.753,0.0
17.203,0.423,-0.782,0.0
15.827,0.386,-0.803,0.0
14.651,0.354,-0.822,0.0
13.754,0.329,-0.845,0.0
12.845,0.305,-0.857,0.0
19.377,0.457,-0.748,0.0
17.619,0.411,-0.774,0.0
16.235,0.376,-0.798,0.0
14.979,0.343,-0.817,0.0
14.027,0.319,-0.84,0.0
13.065,0.294,-0.851,0.0
20.001,0.447,-0.741,0.0
18.016,0.398,-0.763,0.0
16.659,0.365,-0.793,0.0
15.297,0.332,-0.81,0.0
14.317,0.308,-0.834,0.0
13.389,0.285,-0.851,0.0
20.483,0.432,-0.726,0.0
18.723,0.391,-0.763,0.0
17.054,0.353,-0.784,0.0
15.83,0.324,-0.813,0.0
14.602,0.296,-0.827,0.0
13.658,0.274,-0.846,0.0
21.102,0.42,-0.714,0.0
19.27,0.38,-0.753,0.0
17.556,0.343,-0.779,0.0
16.102,0.311,-0.801,0.0
14.948,0.286,-0.822,0.0
13.929,0.263,-0.84,0.0
22.217,0.417,-0.716,0.0
19.906,0.369,-0.745,0.0
17.787,0.327,-0.76,0.0
16.595,0.301,-0.797,0.0
15.265,0.274,-0.814,0.0
14.275,0.253,-0.836,0.0
22.901,0.403,-0.699,0.0
20.632,0.359,-0.738,0.0
18.59,0.32,-0.762,0.0
17.064,0.291,-0.791,0.0
15.697,0.264,-0.81,0.0
14.616,0.243,-0.831,0.0
23.655,0.391,-0.682,0.0
21.302,0.348,-0.725,0.0
19.213,0.31,-0.755,0.0
17.591,0.28,-0.785,2.0
16.166,0.255,-0.806,0.0
14.885,0.232,-0.82,0.0
24.982,0.386,-0.676,0.0
22.112,0.337,-0.714,0.0
19.765,0.298,-0.742,0.0
18.127,0.27,-0.777,1.0
16.571,0.243,-0.797,0.0
15.286,0.222,-0.815,0.0
26.05,0.375,-0.66,0.0
22.895,0.325,-0.699,0.0
20.391,0.286,-0.729,0.0
18.348,0.254,-0.754,0.0
17.077,0.233,-0.791,0.0
15.783,0.213,-0.814,0.0
0.0,0.0,0.0,0.0
23.717,0.312,-0.682,0.0
21.466,0.279,-0.729,0.0
19.224,0.246,-0.755,0.0
17.666,0.223,-0.786,0.0
16.245,0.203,-0.808,0.0
0.0,0.0,0.0,0.0
25.358,0.309,-0.682,0.0
22.34,0.268,-0.718,0.0
20.089,0.238,-0.752,0.0
18.122,0.211,-0.773,0.0
16.703,0.192,-0.8,0.0
30.33,0.345,-0.603,0.0
26.356,0.296,-0.661,0.0
22.941,0.254,-0.695,0.0
20.524,0.223,-0.731,0.0
18.611,0.199,-0.759,0.0
17.196,0.181,-0.792,0.0
32.223,0.337,-0.58,0.0
27.41,0.282,-0.636,0.0
0.0,0.0,0.0,0.0
21.44,0.213,-0.723,0.0
19.281,0.189,-0.75,0.0
17.786,0.171,-0.785,0.0
33.903,0.324,-0.547,0.0
29.23,0.274,-0.623,0.0
25.225,0.233,-0.669,0.0
22.398,0.203,-0.712,0.0
20.111,0.179,-0.745,0.0
18.361,0.161,-0.775,0.0
0.0,0.0,0.0,0.0
30.606,0.261,-0.594,0.0
26.476,0.221,-0.651,0.0
0.0,0.0,0.0,0.0
21.111,0.17,-0.741,0.0
18.924,0.15,-0.762,0.0
0.0,0.0,0.0,0.0
33.16,0.254,-0.579,0.0
0.0,0.0,0.0,0.0
24.581,0.181,-0.687,0.0
21.687,0.157,-0.718,0.0
19.648,0.139,-0.753,0.0
42.826,0.3,-0.443,1.0
35.002,0.24,-0.543,0.0
29.667,0.199,-0.614,0.0
26.065,0.172,-0.677,0.0
22.783,0.147,-0.71,0.0
20.417,0.129,-0.742,0.0
46.031,0.287,-0.386,0.0
0.0,0.0,0.0,0.0
30.846,0.184,-0.577,0.0
0.0,0.0,0.0,0.0
23.872,0.136,-0.696,0.0
21.359,0.119,-0.734,0.0
0.0,0.0,0.0,0.0
42.954,0.23,-0.497,0.0
33.718,0.176,-0.564,0.0
0.0,0.0,0.0,0.0
24.918,0.124,-0.677,0.0
22.306,0.108,-0.721,0.0
0.0,0.0,0.0,0.0
43.021,0.2,-0.41,0.0
36.397,0.164,-0.536,0.0
30.343,0.133,-0.606,0.0
26.268,0.112,-0.661,0.0
23.072,0.096,-0.7,0.0
0.0,0.0,0.0,0.0
49.96,0.199,-0.377,1.0
0.0,0.0,0.0,0.0
32.032,0.12,-0.575,0.0
27.966,0.101,-0.647,0.0
24.517,0.086,-0.694,0.0
0.0,0.0,0.0,0.0
52.94,0.176,-0.29,0.0
42.864,0.138,-0.457,0.0
34.296,0.107,-0.546,0.0
29.409,0.088,-0.62,0.0
25.727,0.074,-0.675,0.0
90.151,0.255,0.156,1.0
0.0,0.0,0.0,0.0
0.0,0.0,0.0,0.0
37.566,0.095,-0.52,0.0
31.596,0.076,-0.601,0.0
27.138,0.063,-0.656,0.0
93.628,0.211,0.354,1.0
0.0,0.0,0.0,0.0
50.34,0.104,-0.328,0.0
42.784,0.084,-0.504,0.0
0.0,0.0,0.0,0.0
29.436,0.052,-0.65,0.0
104.507,0.18,0.611,2.0
0.0,0.0,0.0,0.0
0.0,0.0,0.0,0.0
45.534,0.066,-0.442,1.0
35.491,0.048,-0.527,0.0
30.681,0.039,-0.613,0.0
111.113,0.135,0.883,8.0
95.416,0.108,0.268,2.0
0.0,0.0,0.0,0.0
49.758,0.048,-0.377,0.0
0.0,0.0,0.0,0.0
32.007,0.026,-0.572,0.0
111.146,0.083,1.117,11.0
104.152,0.07,0.51,2.0
0.0,0.0,0.0,0.0
0.0,0.0,0.0,0.0
44.803,0.02,-0.476,1.0
35.601,0.013,-0.562,0.0
111.099,0.035,1.351,15.0
110.855,0.027,0.778,14.0
95.853,0.017,0.178,1.0
0.0,0.0,0.0,0.0
45.451,0.002,-0.387,1.0
0.0,0.0,0.0,0.0
111.098,-0.008,1.585,13.0
117.281,-0.016,1.071,11.0
97.663,-0.019,0.39,1.0
0.0,0.0,0.0,0.0
51.952,-0.016,-0.332,0.0
0.0,0.0,0.0,0.0
112.775,-0.048,1.847,16.0
117.388,-0.057,1.319,13.0
110.978,-0.059,0.674,10.0
0.0,0.0,0.0,0.0
0.0,0.0,0.0,0.0
44.986,-0.031,-0.424,2.0
113.192,-0.085,2.097,10.0
111.168,-0.088,1.486,8.0
117.327,-0.099,0.965,13.0
98.948,-0.088,0.294,4.0
0.0,0.0,0.0,0.0
48.678,-0.047,-0.355,0.0
114.179,-0.118,2.355,17.0
112.884,-0.121,1.747,12.0
117.465,-0.13,1.212,12.0
110.4,-0.126,0.56,4.0
0.0,0.0,0.0,0.0
0.0,0.0,0.0,0.0
114.985,-0.146,2.615,7.0
113.528,-0.148,1.999,8.0
119.72,-0.161,1.493,4.0
111.177,-0.153,0.804,13.0
0.0,0.0,0.0,0.0
0.0,0.0,0.0,0.0
119.817,-0.178,2.984,17.0
114.257,-0.173,2.257,16.0
112.957,-0.173,1.65,13.0
119.73,-0.187,1.122,14.0
110.518,-0.175,0.467,2.0
0.0,0.0,0.0,0.0
119.789,-0.198,3.237,17.0
114.937,-0.192,2.516,8.0
113.352,-0.192,1.897,7.0
119.69,-0.204,1.376,12.0
111.007,-0.191,0.704,16.0
0.0,0.0,0.0,0.0
70.109,-0.125,2.045,17.0
119.812,-0.216,2.88,20.0
114.183,-0.207,2.157,13.0
112.992,-0.206,1.543,14.0
114.444,-0.209,0.975,81.0
100.382,-0.184,0.338,1.0
117.491,-0.221,3.681,22.0
119.852,-0.226,3.138,24.0
114.84,-0.217,2.414,9.0
113.254,-0.214,1.787,7.0
119.757,-0.227,1.275,17.0
110.732,-0.209,0.61,10.0
117.424,-0.228,3.929,33.0
70.115,-0.136,1.985,7.0
119.79,-0.232,2.777,6.0
114.083,-0.22,2.044,11.0
113.015,-0.217,1.443,9.0
114.45,-0.219,0.874,86.0
117.39,-0.23,4.178,35.0
70.134,-0.137,2.135,15.0
119.784,-0.232,3.031,21.0
114.567,-0.22,2.296,13.0
113.103,-0.216,1.685,7.0
119.718,-0.227,1.167,15.0
117.36,-0.228,4.428,29.0
117.433,-0.226,3.824,29.0
119.813,-0.229,3.284,8.0
0.0,0.0,0.0,0.0
113.897,-0.212,1.936,8.0
