X,Y,Z,Reflectivity
33.002,-3.422,-0.309,52.0
28.798,-2.993,-0.425,8.0
23.243,-2.422,-0.468,8.0
33.144,-3.454,0.256,24.0
33.123,-3.46,0.078,72.0
33.107,-3.467,-0.1,77.0
33.082,-3.473,-0.281,80.0
28.929,-3.044,-0.402,24.0
23.408,-2.47,-0.451,3.0
33.131,-3.495,0.285,79.0
33.109,-3.5,0.106,90.0
33.097,-3.507,-0.071,82.0
33.082,-3.514,-0.253,81.0
29.7,-3.162,-0.387,28.0
23.771,-2.537,-0.437,16.0
33.114,-3.534,0.314,79.0
33.113,-3.542,0.136,79.0
33.116,-3.55,-0.041,62.0
33.114,-3.558,-0.223,38.0
30.254,-3.258,-0.366,26.0
24.3,-2.623,-0.425,30.0
33.127,-3.575,0.344,74.0
33.122,-3.582,0.166,45.0
46.758,-5.068,-0.015,20.0
38.429,-4.174,-0.223,16.0
0.0,0.0,0.0,0.0
24.654,-2.69,-0.408,18.0
33.165,-3.618,0.376,19.0
33.08,-3.616,0.197,0.0
0.0,0.0,0.0,0.0
38.834,-4.262,-0.189,14.0
31.98,-3.518,-0.328,11.0
25.407,-2.8,-0.397,15.0
112.552,-12.405,1.383,5.0
85.208,-9.41,0.589,15.0
48.426,-5.358,0.075,14.0
0.0,0.0,0.0,0.0
35.558,-3.95,-0.33,18.0
0.0,0.0,0.0,0.0
112.91,-12.567,1.498,19.0
85.558,-9.541,0.676,5.0
50.468,-5.638,0.127,7.0
42.155,-4.718,-0.124,18.0
35.843,-4.019,-0.297,17.0
0.0,0.0,0.0,0.0
75.348,-8.465,1.074,14.0
90.161,-10.147,0.802,8.0
75.344,-8.495,0.266,5.0
45.658,-5.157,-0.088,9.0
36.736,-4.157,-0.268,14.0
29.304,-3.322,-0.371,31.0
75.226,-8.527,1.148,24.0
75.267,-8.546,0.745,25.0
75.156,-8.548,0.342,9.0
46.04,-5.245,-0.042,21.0
37.668,-4.299,-0.236,21.0
30.146,-3.446,-0.35,26.0
75.204,-8.597,1.226,33.0
75.209,-8.611,0.822,33.0
75.198,-8.624,0.419,19.0
46.878,-5.385,0.005,21.0
38.557,-4.436,-0.201,17.0
30.935,-3.565,-0.327,20.0
75.049,-8.649,1.302,41.0
75.21,-8.68,0.902,33.0
75.211,-8.693,0.499,25.0
0.0,0.0,0.0,0.0
39.146,-4.538,-0.163,14.0
35.342,-4.104,-0.337,6.0
73.218,-8.502,1.348,13.0
75.239,-8.748,0.982,26.0
75.211,-8.757,0.579,29.0
51.024,-5.95,0.113,25.0
0.0,0.0,0.0,0.0
35.691,-4.174,-0.302,18.0
73.297,-8.572,1.427,10.0
113.874,-13.335,1.607,13.0
75.263,-8.825,0.66,4.0
51.617,-6.06,0.17,7.0
45.882,-5.394,-0.093,3.0
36.156,-4.257,-0.267,13.0
73.452,-8.649,1.511,9.0
118.654,-13.988,1.807,9.0
91.417,-10.79,0.902,12.0
75.4,-8.91,0.332,3.0
45.952,-5.437,-0.042,20.0
37.368,-4.427,-0.235,18.0
73.497,-8.708,1.592,6.0
73.133,-8.675,1.193,25.0
91.67,-10.887,1.005,7.0
83.55,-9.933,0.461,9.0
46.653,-5.553,0.007,20.0
38.268,-4.561,-0.198,25.0
73.267,-8.733,1.669,14.0
73.197,-8.733,1.276,5.0
107.648,-12.858,1.301,8.0
84.236,-10.073,0.559,15.0
46.918,-5.616,0.06,6.0
38.825,-4.653,-0.157,14.0
72.843,-8.731,1.742,27.0
73.21,-8.783,1.359,16.0
73.148,-8.784,0.966,4.0
84.912,-10.207,0.66,13.0
51.155,-6.155,0.123,25.0
40.92,-4.929,-0.119,16.0
72.928,-8.785,1.826,15.0
73.186,-8.824,1.442,22.0
73.245,-8.839,1.051,21.0
90.056,-10.878,0.801,6.0
52.384,-6.333,0.186,6.0
45.47,-5.503,-0.081,9.0
73.207,-8.861,1.916,8.0
73.387,-8.889,1.529,11.0
73.42,-8.9,1.137,10.0
90.716,-11.007,0.911,8.0
63.204,-7.675,0.297,5.0
45.594,-5.541,-0.029,22.0
92.902,-11.294,2.539,5.0
73.561,-8.948,1.617,11.0
73.576,-8.956,1.224,19.0
107.622,-13.111,1.205,6.0
81.235,-9.904,0.475,1.0
46.468,-5.67,0.023,21.0
72.888,-8.896,2.077,8.0
73.44,-8.968,1.7,5.0
73.618,-8.996,1.31,4.0
107.663,-13.164,1.33,14.0
84.233,-10.306,0.589,9.0
47.593,-5.827,0.079,5.0
72.896,-8.928,2.161,7.0
72.997,-8.945,1.773,16.0
76.768,-9.412,1.454,9.0
73.265,-8.987,0.989,12.0
88.354,-10.845,0.72,2.0
52.073,-6.395,0.146,22.0
76.704,-9.424,2.363,17.0
72.926,-8.963,1.857,10.0
76.661,-9.427,1.541,8.0
73.473,-9.039,1.077,34.0
90.781,-11.174,0.846,8.0
52.642,-6.483,0.209,3.0
76.398,-9.412,2.442,18.0
75.257,-9.275,2.004,9.0
73.297,-9.036,1.56,11.0
73.609,-9.079,1.165,20.0
94.029,-11.602,0.987,15.0
66.886,-8.257,0.344,4.0
75.259,-9.294,2.494,29.0
75.226,-9.292,2.091,8.0
73.2,-9.045,1.643,10.0
76.672,-9.477,1.303,17.0
73.233,-9.055,0.853,19.0
83.836,-10.37,0.529,10.0
75.173,-9.302,2.58,37.0
0.0,0.0,0.0,0.0
72.976,-9.034,1.723,12.0
76.644,-9.49,1.392,21.0
73.286,-9.076,0.941,23.0
85.141,-10.548,0.637,4.0
75.146,-9.314,2.667,34.0
76.321,-9.46,2.3,10.0
72.974,-9.046,1.809,14.0
76.665,-9.506,1.482,24.0
73.372,-9.099,1.026,9.0
87.649,-10.872,0.758,3.0
75.287,-9.343,2.76,30.0
78.865,-9.787,2.469,6.0
75.247,-9.338,1.953,8.0
76.66,-9.514,1.573,23.0
76.66,-9.515,1.162,16.0
76.677,-9.519,0.752,4.0
0.0,0.0,0.0,0.0
78.781,-9.784,2.558,9.0
75.261,-9.347,2.041,17.0
76.649,-9.519,1.661,17.0
76.654,-9.52,1.25,23.0
76.709,-9.527,0.841,6.0
73.784,-9.169,2.877,10.0
75.188,-9.342,2.529,23.0
75.215,-9.344,2.128,11.0
76.691,-9.526,1.751,8.0
76.651,-9.521,1.34,25.0
73.279,-9.102,0.889,14.0
75.497,-9.383,3.031,8.0
75.119,-9.334,2.614,33.0
78.951,-9.808,2.323,5.0
72.983,-9.065,1.75,18.0
76.654,-9.519,1.428,22.0
73.279,-9.099,0.973,10.0
75.434,-9.373,3.115,17.0
75.195,-9.34,2.702,35.0
78.86,-9.792,2.412,8.0
72.99,-9.061,1.833,15.0
76.657,-9.514,1.515,23.0
76.64,-9.51,1.105,10.0
75.393,-9.362,3.2,20.0
75.331,-9.35,2.793,26.0
78.842,-9.782,2.501,4.0
75.191,-9.326,1.973,11.0
76.659,-9.505,1.602,21.0
76.676,-9.505,1.192,11.0
73.927,-9.171,3.221,9.0
0.0,0.0,0.0,0.0
75.322,-9.335,2.473,26.0
75.191,-9.315,2.058,15.0
76.671,-9.494,1.688,10.0
76.692,-9.493,1.279,17.0
73.936,-9.159,3.305,11.0
73.764,-9.133,2.902,17.0
75.145,-9.298,2.553,43.0
0.0,0.0,0.0,0.0
73.059,-9.031,1.691,22.0
76.692,-9.477,1.363,17.0
0.0,0.0,0.0,0.0
0.0,0.0,0.0,0.0
75.165,-9.283,2.637,37.0
76.667,-9.463,2.271,17.0
72.932,-8.997,1.77,24.0
76.692,-9.456,1.449,13.0
73.921,-9.122,3.47,15.0
75.522,-9.313,3.139,19.0
75.348,-9.285,2.727,29.0
76.615,-9.434,2.354,20.0
72.961,-8.978,1.85,8.0
76.748,-9.439,1.535,8.0
73.738,-9.076,3.543,23.0
75.973,-9.344,3.243,8.0
75.429,-9.27,2.813,30.0
0.0,0.0,0.0,0.0
76.701,-9.412,2.029,11.0
76.77,-9.414,1.619,7.0
72.305,-8.874,3.553,13.0
73.98,-9.072,3.237,8.0
73.79,-9.041,2.832,16.0
75.097,-9.193,2.47,17.0
76.76,-9.39,2.112,5.0
73.542,-8.989,1.628,9.0
72.248,-8.839,3.627,16.0
73.974,-9.041,3.314,11.0
73.811,-9.013,2.91,12.0
75.261,-9.181,2.555,26.0
72.92,-8.888,2.083,12.0
73.411,-8.94,1.703,4.0
72.147,-8.795,3.698,10.0
73.79,-8.986,3.384,24.0
75.585,-9.195,3.059,21.0
75.375,-9.16,2.638,26.0
72.96,-8.858,2.16,7.0
94.084,-11.412,2.279,6.0
72.379,-8.788,3.785,9.0
73.441,-8.907,3.444,33.0
0.0,0.0,0.0,0.0
75.614,-9.15,2.723,17.0
75.038,-9.071,2.299,11.0
72.976,-8.813,1.842,10.0
73.173,-8.846,3.901,19.0
73.34,-8.855,3.514,34.0
73.959,-8.919,3.144,19.0
0.0,0.0,0.0,0.0
74.98,-9.022,2.371,12.0
73.083,-8.784,1.918,12.0
73.303,-8.82,3.982,25.0
73.006,-8.772,3.571,28.0
73.909,-8.87,3.215,28.0
73.427,-8.801,2.791,18.0
75.065,-8.987,2.448,11.0
78.738,-9.415,2.143,4.0
70.067,-8.387,3.875,9.0
72.466,-8.662,3.615,22.0
74.001,-8.834,3.291,30.0
73.324,-8.742,2.858,35.0
74.993,-8.93,2.518,12.0
78.697,-9.359,2.217,9.0
70.04,-8.339,3.94,11.0
72.383,-8.605,3.679,27.0
73.215,-8.692,3.325,39.0
73.16,-8.673,2.92,15.0
74.907,-8.868,2.585,10.0
78.634,-9.297,2.288,15.0
70.062,-8.292,4.007,19.0
70.246,-8.302,3.636,7.0
73.059,-8.621,3.386,24.0
73.182,-8.623,2.989,16.0
74.802,-8.801,2.65,3.0
78.62,-9.238,2.36,11.0
70.281,-8.267,4.084,12.0
70.288,-8.255,3.702,7.0
73.518,-8.62,3.474,31.0
73.036,-8.55,3.049,15.0
72.653,-8.492,2.64,8.0
74.658,-8.713,2.309,19.0
0.0,0.0,0.0,0.0
72.247,-8.427,3.871,9.0
73.484,-8.557,3.539,36.0
73.224,-8.513,3.121,36.0
72.586,-8.425,2.701,20.0
74.32,-8.613,2.363,12.0
71.736,-8.323,4.296,23.0
70.086,-8.116,3.817,16.0
72.945,-8.433,3.576,32.0
73.197,-8.448,3.184,33.0
72.595,-8.364,2.763,15.0
74.647,-8.587,2.437,9.0
72.535,-8.353,4.406,12.0
72.19,-8.298,3.992,6.0
73.085,-8.386,3.643,41.0
73.378,-8.404,3.253,28.0
73.219,-8.371,2.848,50.0
75.12,-8.574,2.514,48.0
72.572,-8.293,4.468,22.0
0.0,0.0,0.0,0.0
72.3,-8.23,3.662,32.0
73.068,-8.302,3.297,26.0
0.0,0.0,0.0,0.0
75.089,-8.5,2.572,32.0
72.759,-8.246,4.537,12.0
72.111,-8.156,4.103,20.0
70.862,-7.999,3.645,12.0
69.574,-7.838,3.194,16.0
72.213,-8.12,2.922,20.0
74.039,-8.31,2.593,28.0
33.215,-3.732,2.096,70.0
33.195,-3.722,1.914,52.0
33.195,-3.714,1.733,42.0
33.186,-3.706,1.548,39.0
33.178,-3.697,1.367,33.0
33.18,-3.69,1.186,20.0
33.205,-3.697,2.12,81.0
33.196,-3.688,1.938,80.0
33.188,-3.68,1.756,79.0
33.183,-3.671,1.572,79.0
33.171,-3.662,1.39,76.0
33.153,-3.653,1.209,76.0
33.221,-3.664,2.145,68.0
33.206,-3.654,1.962,73.0
33.192,-3.645,1.78,73.0
33.182,-3.635,1.595,79.0
33.162,-3.625,1.413,83.0
33.156,-3.617,1.232,81.0
33.267,-3.633,2.171,3.0
33.214,-3.619,1.985,7.0
33.198,-3.609,1.802,28.0
33.204,-3.601,1.618,59.0
33.2,-3.593,1.437,69.0
33.183,-3.583,1.255,68.0
33.309,-3.601,2.196,47.0
70.021,-7.552,4.231,9.0
70.114,-7.544,3.852,28.0
72.518,-7.784,3.581,10.0
72.103,-7.722,3.165,21.0
74.416,-7.951,2.86,3.0
33.301,-3.562,2.215,51.0
70.309,-7.502,4.292,16.0
70.137,-7.464,3.897,39.0
69.551,-7.384,3.476,11.0
71.767,-7.601,3.194,29.0
74.62,-7.885,2.912,13.0
33.294,-3.522,2.234,50.0
69.137,-7.295,4.261,20.0
70.179,-7.386,3.939,24.0
69.538,-7.3,3.515,24.0
72.019,-7.542,3.245,24.0
74.756,-7.81,2.959,35.0
33.279,-3.48,2.252,54.0
69.18,-7.215,4.302,32.0
68.842,-7.161,3.902,27.0
71.329,-7.401,3.643,15.0
72.011,-7.452,3.284,29.0
74.774,-7.718,2.999,29.0
33.27,-3.437,2.269,55.0
69.728,-7.185,4.371,29.0
68.965,-7.087,3.945,21.0
71.192,-7.296,3.673,17.0
72.037,-7.363,3.32,19.0
72.751,-7.416,2.954,7.0
33.264,-3.394,2.285,54.0
69.285,-7.05,4.377,34.0
69.032,-7.005,3.981,12.0
71.63,-7.249,3.729,22.0
74.557,-7.525,3.471,43.0
72.606,-7.308,2.982,17.0
33.258,-3.35,2.299,55.0
69.395,-6.971,4.415,39.0
68.967,-6.908,4.007,19.0
72.55,-7.246,3.809,27.0
74.504,-7.42,3.501,7.0
78.035,-7.751,3.237,16.0
33.246,-3.305,2.313,54.0
69.581,-6.897,4.456,26.0
69.159,-6.835,4.046,8.0
73.071,-7.2,3.865,11.0
73.928,-7.264,3.503,7.0
78.255,-7.667,3.276,15.0
33.245,-3.259,2.325,55.0
69.869,-6.83,4.501,22.0
70.049,-6.826,4.125,15.0
73.811,-7.171,3.931,8.0
71.246,-6.901,3.401,10.0
77.762,-7.51,3.284,32.0
33.231,-3.212,2.336,56.0
33.241,-3.203,2.153,6.0
73.65,-7.074,4.362,14.0
74.103,-7.096,3.971,5.0
71.107,-6.788,3.418,8.0
77.649,-7.39,3.303,35.0
33.239,-3.165,2.347,64.0
69.931,-6.638,4.55,22.0
70.37,-6.659,4.188,16.0
73.442,-6.928,3.957,15.0
71.186,-6.694,3.441,8.0
71.018,-6.658,3.041,13.0
69.876,-6.555,4.953,33.0
69.978,-6.542,4.572,31.0
69.808,-6.505,4.173,32.0
70.363,-6.535,3.809,7.0
71.282,-6.599,3.464,16.0
71.245,-6.575,3.067,12.0
70.264,-6.488,4.998,27.0
71.064,-6.539,4.66,22.0
70.262,-6.444,4.216,12.0
70.967,-6.486,3.857,32.0
71.331,-6.498,3.482,13.0
71.2,-6.464,3.081,17.0
69.981,-6.357,4.991,35.0
33.199,-3.005,2.183,2.0
0.0,0.0,0.0,0.0
70.845,-6.368,3.864,35.0
71.409,-6.397,3.498,22.0
0.0,0.0,0.0,0.0
70.22,-6.273,5.02,27.0
70.727,-6.295,4.662,12.0
71.208,-6.315,4.297,26.0
70.932,-6.268,3.878,34.0
67.959,-5.985,3.338,51.0
67.984,-5.967,2.961,52.0
70.045,-6.15,5.016,29.0
70.529,-6.17,4.656,28.0
71.599,-6.24,4.328,13.0
71.169,-6.181,3.898,37.0
67.964,-5.881,3.344,56.0
67.971,-5.861,2.966,45.0
70.044,-6.042,5.022,35.0
70.241,-6.036,4.643,31.0
71.59,-6.129,4.332,16.0
71.261,-6.078,3.908,18.0
67.957,-5.775,3.348,56.0
67.959,-5.754,2.969,50.0
75.084,-6.359,5.385,10.0
70.209,-5.923,4.643,43.0
71.657,-6.022,4.338,10.0
71.405,-5.978,3.917,12.0
67.956,-5.666,3.348,60.0
67.959,-5.646,2.969,56.0
70.804,-5.883,5.079,11.0
70.026,-5.795,4.63,6.0
71.71,-5.911,4.34,26.0
71.473,-5.869,3.919,24.0
67.937,-5.557,3.346,40.0
67.961,-5.538,2.967,27.0
76.784,-6.257,5.504,7.0
70.82,-5.748,4.68,8.0
71.684,-5.794,4.335,12.0
71.563,-5.761,3.92,19.0
71.108,-5.702,3.497,34.0
71.295,-5.695,3.108,30.0
70.5,-5.631,5.049,31.0
76.085,-6.052,5.021,9.0
71.713,-5.681,4.33,25.0
71.179,-5.615,3.892,6.0
67.954,-5.34,3.335,38.0
67.916,-5.315,2.953,74.0
67.983,-5.319,4.859,37.0
67.97,-5.295,4.476,78.0
67.95,-5.271,4.094,87.0
67.954,-5.249,3.706,70.0
67.943,-5.227,3.324,24.0
72.001,-5.516,3.12,11.0
70.973,-5.435,5.062,15.0
71.152,-5.426,4.674,40.0
72.491,-5.504,4.355,5.0
73.087,-5.525,3.972,9.0
67.921,-5.113,3.31,56.0
67.927,-5.092,2.93,62.0
75.978,-5.693,5.403,8.0
71.971,-5.369,4.713,7.0
0.0,0.0,0.0,0.0
71.288,-5.271,3.859,30.0
67.911,-5.0,3.294,64.0
67.925,-4.979,2.913,65.0
75.932,-5.563,5.382,5.0
76.245,-5.561,4.973,8.0
71.3,-5.177,4.249,31.0
71.393,-5.16,3.846,27.0
67.897,-4.885,3.275,63.0
67.911,-4.865,2.894,64.0
71.733,-5.134,5.063,11.0
76.332,-5.439,4.957,7.0
71.327,-5.058,4.229,18.0
71.643,-5.057,3.837,19.0
67.887,-4.77,3.254,48.0
67.912,-4.751,2.873,59.0
76.14,-5.321,5.349,9.0
71.678,-4.985,4.63,17.0
71.656,-4.96,4.224,21.0
70.49,-4.857,3.751,27.0
70.983,-4.868,3.377,13.0
72.594,-4.956,3.045,19.0
71.906,-4.904,5.025,11.0
71.696,-4.866,4.604,29.0
71.054,-4.798,4.162,44.0
70.632,-4.746,3.731,26.0
70.829,-4.737,3.341,19.0
72.133,-4.802,2.997,18.0
71.929,-4.783,4.997,18.0
71.788,-4.75,4.58,19.0
70.877,-4.666,4.121,20.0
70.592,-4.624,3.698,14.0
70.824,-4.616,3.31,8.0
20.03,-1.299,0.823,2.0
71.54,-4.634,4.937,24.0
71.359,-4.599,4.52,28.0
71.15,-4.562,4.104,23.0
70.879,-4.521,3.679,37.0
73.258,-4.649,3.388,32.0
20.029,-1.264,0.813,7.0
72.025,-4.542,4.935,16.0
71.312,-4.473,4.481,20.0
70.932,-4.425,4.055,33.0
20.029,-1.243,1.029,9.0
20.031,-1.236,0.916,9.0
20.023,-1.23,0.802,12.0
58.864,-3.609,4.001,29.0
58.885,-3.591,3.668,31.0
71.071,-4.311,4.023,28.0
19.952,-1.204,1.014,19.0
19.982,-1.199,0.902,21.0
19.988,-1.193,0.789,18.0
59.014,-3.516,3.977,29.0
58.798,-3.485,3.628,26.0
19.993,-1.178,1.12,2.0
19.96,-1.17,1.002,26.0
19.981,-1.165,0.89,24.0
20.018,-1.161,0.779,20.0
59.147,-3.423,3.949,14.0
58.866,-3.387,3.595,25.0
19.978,-1.143,1.106,5.0
19.956,-1.135,0.99,22.0
19.97,-1.13,0.877,18.0
20.016,-1.126,0.765,22.0
58.678,-3.294,3.879,33.0
58.744,-3.279,3.548,32.0
19.989,-1.109,1.093,8.0
19.945,-1.1,0.975,19.0
20.031,-1.099,0.866,12.0
20.005,-1.091,0.751,14.0
58.276,-3.172,3.811,26.0
58.687,-3.176,3.503,32.0
19.996,-1.075,1.08,8.0
19.98,-1.068,0.963,14.0
83.842,-4.457,3.565,20.0
20.005,-1.057,0.737,14.0
58.306,-3.073,3.77,31.0
58.407,-3.06,3.443,32.0
73.395,-3.821,3.908,16.0
71.048,-3.677,3.37,33.0
83.62,-4.302,3.492,39.0
20.016,-1.023,0.722,12.0
58.615,-2.988,3.743,20.0
58.459,-2.961,3.399,32.0
73.445,-3.698,3.852,11.0
83.421,-4.175,3.891,18.0
73.379,-3.649,3.004,25.0
20.074,-0.992,0.707,17.0
58.605,-2.887,3.694,33.0
58.317,-2.854,3.342,25.0
79.978,-3.89,4.127,14.0
83.403,-4.03,3.82,28.0
85.102,-4.086,3.412,19.0
20.095,-0.958,0.691,21.0
58.275,-2.77,3.622,25.0
58.18,-2.748,3.284,19.0
80.352,-3.77,4.076,27.0
85.753,-3.997,3.851,7.0
95.115,-4.405,3.729,30.0
20.097,-0.924,0.673,17.0
58.409,-2.677,3.577,28.0
79.095,-3.601,4.392,30.0
80.756,-3.651,4.022,36.0
94.498,-4.244,4.157,19.0
115.687,-5.162,4.429,8.0
117.183,-5.193,3.817,16.0
58.24,-2.57,3.512,26.0
67.201,-2.945,3.667,31.0
80.825,-3.518,3.947,37.0
94.72,-4.095,4.075,9.0
104.249,-4.475,3.889,25.0
205.274,-8.752,6.486,4.0
60.056,-2.55,3.562,35.0
59.818,-2.521,3.205,26.0
80.922,-3.387,3.873,30.0
100.162,-4.163,4.21,11.0
104.176,-4.298,3.782,37.0
193.803,-7.939,5.928,20.0
0.0,0.0,0.0,0.0
59.85,-2.421,3.145,12.0
81.235,-3.263,3.803,13.0
103.983,-4.146,4.261,14.0
207.376,-8.207,7.312,5.0
193.802,-7.613,5.724,20.0
59.719,-2.333,3.417,29.0
81.204,-3.149,4.179,18.0
94.433,-3.634,4.318,14.0
103.786,-3.964,4.141,27.0
0.0,0.0,0.0,0.0
193.266,-7.27,5.496,18.0
59.66,-2.232,3.348,20.0
81.258,-3.016,4.092,14.0
94.194,-3.47,4.203,16.0
103.944,-3.799,4.031,16.0
194.391,-7.048,6.424,22.0
192.977,-6.943,5.271,23.0
66.477,-2.377,3.653,33.0
81.139,-2.878,3.992,35.0
94.397,-3.322,4.103,11.0
101.102,-3.528,3.803,31.0
193.631,-6.704,6.173,21.0
187.457,-6.438,4.902,37.0
66.478,-2.268,3.575,30.0
94.442,-3.195,4.535,17.0
97.851,-3.283,4.136,5.0
119.337,-3.97,4.346,17.0
194.656,-6.421,5.972,20.0
193.926,-6.343,4.836,22.0
80.301,-2.609,4.22,17.0
81.355,-2.62,3.806,14.0
101.277,-3.234,4.157,22.0
106.045,-3.356,3.731,16.0
193.878,-6.085,5.708,17.0
194.368,-6.047,4.607,20.0
80.505,-2.487,4.13,23.0
81.227,-2.486,3.699,33.0
101.277,-3.073,4.029,15.0
120.338,-3.619,4.083,13.0
194.173,-5.786,5.471,16.0
194.741,-5.752,4.37,17.0
81.231,-2.381,4.063,15.0
81.431,-2.365,3.604,9.0
106.169,-3.055,4.088,15.0
120.464,-3.434,3.932,13.0
0.0,0.0,0.0,0.0
195.02,-5.455,4.122,12.0
81.016,-2.248,3.946,36.0
101.713,-2.794,4.367,6.0
117.135,-3.186,4.354,14.0
120.766,-3.254,3.781,22.0
0.0,0.0,0.0,0.0
0.0,0.0,0.0,0.0
81.461,-2.133,3.857,14.0
101.861,-2.641,4.235,8.0
106.26,-2.728,3.806,8.0
120.771,-3.068,3.616,8.0
117.745,-2.961,2.847,16.0
193.057,-4.805,3.556,16.0
81.271,-2.004,3.735,12.0
96.623,-2.357,3.883,19.0
113.292,-2.734,3.898,20.0
117.789,-2.812,3.362,6.0
117.798,-2.783,2.683,4.0
193.021,-4.51,3.283,15.0
96.04,-2.222,4.276,18.0
96.591,-2.211,3.744,11.0
112.676,-2.55,3.716,21.0
209.487,-4.69,5.681,6.0
193.764,-4.29,4.137,11.0
138.932,-3.04,2.164,4.0
106.457,-2.306,4.587,14.0
113.337,-2.426,4.228,15.0
112.705,-2.383,3.553,28.0
206.305,-4.311,5.29,11.0
193.363,-3.994,3.844,23.0
138.918,-2.835,1.959,5.0
106.643,-2.151,4.435,6.0
112.7,-2.245,4.035,16.0
113.069,-2.225,3.395,23.0
205.908,-4.002,4.972,9.0
193.369,-3.713,3.555,21.0
0.0,0.0,0.0,0.0
106.695,-1.998,4.276,17.0
112.673,-2.084,3.865,25.0
112.89,-2.06,3.218,23.0
206.464,-3.719,4.672,19.0
193.564,-3.439,3.261,17.0
139.147,-2.441,1.542,7.0
106.312,-1.839,4.096,11.0
112.803,-1.925,3.693,6.0
112.694,-1.898,3.039,20.0
0.0,0.0,0.0,0.0
139.064,-2.275,2.126,8.0
138.973,-2.242,1.321,14.0
190.599,-3.031,7.044,17.0
209.627,-3.285,6.533,7.0
0.0,0.0,0.0,0.0
194.711,-2.962,3.795,12.0
138.878,-2.08,1.903,10.0
138.842,-2.049,1.1,21.0
190.564,-2.768,6.736,12.0
0.0,0.0,0.0,0.0
206.803,-2.909,4.913,10.0
204.221,-2.829,3.652,5.0
0.0,0.0,0.0,0.0
139.189,-1.865,0.877,9.0
210.381,-2.773,7.095,18.0
209.069,-2.708,5.838,9.0
210.389,-2.678,4.654,13.0
204.389,-2.558,3.319,7.0
139.33,-1.712,1.455,12.0
0.0,0.0,0.0,0.0
0.0,0.0,0.0,0.0
209.058,-2.432,5.49,12.0
119.715,-1.366,2.449,6.0
119.729,-1.341,1.743,31.0
119.755,-1.315,1.05,87.0
0.0,0.0,0.0,0.0
211.151,-2.227,6.411,6.0
119.728,-1.237,2.941,150.0
119.722,-1.212,2.247,150.0
119.737,-1.187,1.541,150.0
119.737,-1.162,0.847,14.0
0.0,0.0,0.0,0.0
119.702,-1.11,3.429,36.0
119.73,-1.085,2.734,71.0
119.739,-1.061,2.041,83.0
119.673,-1.035,1.333,17.0
114.193,-0.965,0.61,2.0
0.0,0.0,0.0,0.0
119.729,-0.962,3.222,36.0
194.367,-1.523,4.103,22.0
119.775,-0.914,1.833,20.0
119.698,-0.889,1.126,18.0
0.0,0.0,0.0,0.0
0.0,0.0,0.0,0.0
119.796,-0.817,3.013,26.0
119.818,-0.794,2.318,8.0
119.666,-0.77,1.622,13.0
114.21,-0.712,0.873,8.0
0.0,0.0,0.0,0.0
54.635,-0.319,-0.216,0.0
119.779,-0.675,2.799,57.0
193.867,-1.055,3.403,21.0
119.689,-0.628,1.406,13.0
110.941,-0.56,0.647,4.0
0.0,0.0,0.0,0.0
51.207,-0.239,-0.295,0.0
119.859,-0.536,2.582,12.0
114.412,-0.49,1.799,2.0
119.729,-0.489,1.186,17.0
103.015,-0.402,0.412,3.0
0.0,0.0,0.0,0.0
47.742,-0.168,-0.363,0.0
119.817,-0.399,2.359,58.0
112.816,-0.356,1.567,4.0
114.495,-0.34,0.924,150.0
0.0,0.0,0.0,0.0
0.0,0.0,0.0,0.0
45.483,-0.11,-0.43,1.0
113.069,-0.253,2.016,1.0
119.757,-0.246,1.438,11.0
110.688,-0.208,0.686,10.0
0.0,0.0,0.0,0.0
0.0,0.0,0.0,0.0
0.0,0.0,0.0,0.0
117.314,-0.138,1.873,15.0
117.31,-0.118,1.189,15.0
97.493,-0.081,0.422,2.0
0.0,0.0,0.0,0.0
45.878,-0.022,-0.339,0.0
37.6,-0.012,-0.496,0.0
111.121,-0.016,1.562,11.0
110.945,0.001,0.916,9.0
95.502,0.017,0.232,1.0
0.0,0.0,0.0,0.0
45.484,0.023,-0.422,2.0
0.0,0.0,0.0,0.0
111.134,0.093,1.351,22.0
110.631,0.111,0.7,4.0
0.0,0.0,0.0,0.0
0.0,0.0,0.0,0.0
42.862,0.064,-0.481,0.0
32.69,0.054,-0.557,0.0
111.107,0.2,1.136,15.0
94.563,0.185,0.417,2.0
0.0,0.0,0.0,0.0
46.963,0.106,-0.343,0.0
0.0,0.0,0.0,0.0
0.0,0.0,0.0,0.0
110.875,0.302,0.92,13.0
0.0,0.0,0.0,0.0
0.0,0.0,0.0,0.0
42.844,0.136,-0.396,0.0
35.437,0.118,-0.534,0.0
29.091,0.101,-0.608,0.0
104.081,0.377,0.659,6.0
0.0,0.0,0.0,0.0
0.0,0.0,0.0,0.0
42.702,0.173,-0.478,0.0
32.629,0.137,-0.555,0.0
27.648,0.12,-0.632,0.0
90.797,0.406,0.397,3.0
0.0,0.0,0.0,0.0
45.902,0.218,-0.333,0.0
37.606,0.184,-0.496,0.0
0.0,0.0,0.0,0.0
26.396,0.136,-0.656,0.0
87.492,0.463,0.209,4.0
0.0,0.0,0.0,0.0
42.84,0.238,-0.396,0.0
0.0,0.0,0.0,0.0
29.243,0.17,-0.614,0.0
24.67,0.147,-0.661,0.0
0.0,0.0,0.0,0.0
0.0,0.0,0.0,0.0
42.845,0.272,-0.482,0.0
32.173,0.208,-0.553,0.0
27.084,0.179,-0.623,0.0
23.555,0.158,-0.679,0.0
0.0,0.0,0.0,0.0
48.553,0.338,-0.361,0.0
37.366,0.264,-0.495,0.0
30.552,0.22,-0.586,0.0
26.333,0.193,-0.659,0.0
22.527,0.168,-0.695,0.0
0.0,0.0,0.0,0.0
42.799,0.328,-0.404,0.0
0.0,0.0,0.0,0.0
29.033,0.229,-0.615,0.0
24.635,0.197,-0.666,0.0
21.757,0.177,-0.714,0.0
48.332,0.397,-0.272,0.0
0.0,0.0,0.0,0.0
32.459,0.274,-0.56,0.0
27.224,0.233,-0.631,0.0
23.619,0.205,-0.686,0.0
20.725,0.182,-0.723,0.0
46.723,0.413,-0.357,0.0
0.0,0.0,0.0,0.0
30.499,0.276,-0.588,0.0
25.938,0.238,-0.654,0.0
22.6,0.209,-0.702,0.0
19.957,0.187,-0.736,0.0
42.934,0.406,-0.415,0.0
34.857,0.333,-0.539,0.0
29.012,0.28,-0.618,0.0
24.628,0.24,-0.671,0.0
21.486,0.212,-0.71,0.0
19.216,0.191,-0.748,0.0
40.784,0.408,-0.477,0.0
32.056,0.324,-0.562,0.0
26.958,0.275,-0.629,0.0
23.354,0.24,-0.684,0.0
20.522,0.213,-0.721,0.0
18.52,0.194,-0.758,0.0
0.0,0.0,0.0,0.0
30.372,0.323,-0.594,0.0
25.864,0.277,-0.656,0.0
22.465,0.243,-0.703,0.0
20.037,0.218,-0.744,0.0
17.89,0.196,-0.769,0.0
33.468,0.369,-0.527,0.0
28.245,0.314,-0.61,0.0
0.0,0.0,0.0,0.0
21.075,0.238,-0.703,0.0
19.122,0.217,-0.75,0.0
17.331,0.198,-0.781,0.0
31.635,0.363,-0.563,0.0
26.735,0.309,-0.632,0.0
23.426,0.272,-0.69,0.0
20.376,0.239,-0.721,0.0
18.392,0.217,-0.759,0.0
16.72,0.198,-0.787,0.0
29.549,0.351,-0.587,0.0
25.492,0.305,-0.655,0.0
22.311,0.268,-0.703,0.0
19.489,0.236,-0.73,0.0
17.838,0.217,-0.773,0.0
16.267,0.199,-0.8,0.0
28.171,0.345,-0.617,0.0
23.864,0.294,-0.662,0.0
21.163,0.262,-0.711,0.0
19.012,0.237,-0.752,0.0
17.169,0.215,-0.779,0.0
15.734,0.198,-0.806,0.0
26.504,0.334,-0.635,0.0
23.102,0.292,-0.688,0.0
20.299,0.258,-0.724,0.0
18.298,0.234,-0.761,0.0
16.622,0.214,-0.789,0.0
15.199,0.196,-0.81,0.0
24.953,0.322,-0.65,0.0
22.025,0.285,-0.702,0.0
19.544,0.254,-0.737,0.0
17.659,0.231,-0.771,0.0
16.085,0.211,-0.796,0.0
14.754,0.195,-0.817,0.0
23.792,0.313,-0.668,0.0
21.165,0.279,-0.718,0.0
18.891,0.25,-0.751,0.0
17.053,0.227,-0.779,0.0
15.585,0.208,-0.803,0.0
14.403,0.193,-0.827,0.0
22.72,0.304,-0.684,0.0
20.151,0.27,-0.724,0.0
18.247,0.246,-0.762,1.0
16.584,0.224,-0.792,0.0
15.07,0.204,-0.807,0.0
14.036,0.191,-0.834,0.0
21.72,0.294,-0.698,0.0
19.376,0.263,-0.736,0.0
17.557,0.239,-0.769,0.0
15.972,0.218,-0.795,0.0
14.732,0.202,-0.819,0.0
13.604,0.187,-0.836,0.0
21.051,0.288,-0.719,0.0
18.535,0.254,-0.741,0.0
16.97,0.234,-0.778,0.0
15.507,0.214,-0.803,0.0
14.33,0.198,-0.826,0.0
13.299,0.185,-0.844,0.0
20.135,0.278,-0.729,0.0
18.22,0.252,-0.766,1.0
16.513,0.229,-0.79,0.0
15.011,0.208,-0.808,0.0
13.889,0.193,-0.828,0.0
12.876,0.18,-0.844,0.0
19.314,0.268,-0.738,0.0
17.535,0.243,-0.772,0.0
16.039,0.223,-0.8,0.0
14.722,0.205,-0.821,0.0
13.585,0.19,-0.837,0.0
12.569,0.176,-0.848,0.0
18.372,0.255,-0.738,0.0
17.002,0.236,-0.782,0.0
15.591,0.217,-0.808,0.0
14.28,0.199,-0.825,0.0
13.247,0.185,-0.843,0.0
12.215,0.171,-0.849,0.0
18.207,0.253,-0.767,1.0
16.488,0.229,-0.791,0.0
15.009,0.209,-0.808,0.0
13.916,0.194,-0.832,0.0
12.913,0.18,-0.848,0.0
11.846,0.165,-0.847,0.0
17.472,0.241,-0.771,0.0
15.811,0.219,-0.79,0.0
14.669,0.203,-0.819,0.0
13.541,0.188,-0.836,0.0
12.512,0.173,-0.846,0.0
11.575,0.161,-0.851,0.0
16.9,0.232,-0.779,0.0
15.476,0.213,-0.803,0.0
14.289,0.196,-0.825,0.0
13.275,0.183,-0.846,0.0
12.182,0.168,-0.847,0.0
11.383,0.157,-0.858,0.0
16.465,0.224,-0.79,0.0
14.958,0.204,-0.805,0.0
13.858,0.189,-0.827,0.0
12.864,0.175,-0.844,0.0
11.83,0.161,-0.846,0.0
11.205,0.153,-0.867,0.0
15.963,0.215,-0.797,0.0
14.68,0.197,-0.819,0.0
13.578,0.183,-0.837,0.0
12.484,0.168,-0.844,0.0
11.593,0.156,-0.851,0.0
10.997,0.148,-0.872,0.0
15.39,0.204,-0.798,0.0
14.299,0.189,-0.825,0.0
13.206,0.175,-0.839,0.0
12.195,0.161,-0.848,0.0
11.392,0.15,-0.858,0.0
10.707,0.141,-0.87,0.0
14.993,0.195,-0.806,0.0
13.842,0.18,-0.825,0.0
12.927,0.168,-0.846,0.0
11.824,0.153,-0.844,0.0
11.231,0.145,-0.868,0.0
10.521,0.136,-0.874,0.0
14.667,0.187,-0.816,0.0
13.585,0.173,-0.835,0.0
12.511,0.159,-0.842,0.0
11.57,0.147,-0.847,0.0
10.993,0.139,-0.87,0.0
10.359,0.131,-0.88,0.0
14.301,0.178,-0.822,0.0
13.336,0.166,-0.845,0.0
12.223,0.152,-0.845,0.0
11.395,0.141,-0.856,0.0
10.757,0.133,-0.871,0.0
10.222,0.126,-0.888,0.0
13.967,0.169,-0.828,0.0
12.936,0.156,-0.843,0.0
11.882,0.143,-0.843,0.0
11.229,0.135,-0.864,0.0
10.556,0.127,-0.874,0.0
10.031,0.12,-0.889,0.0
13.619,0.16,-0.832,0.0
12.543,0.147,-0.84,0.0
11.617,0.136,-0.846,0.0
11.031,0.128,-0.869,0.0
10.364,0.12,-0.877,0.0
9.882,0.114,-0.894,0.0
13.335,0.151,-0.839,0.0
12.312,0.139,-0.846,0.0
11.418,0.128,-0.852,0.0
10.754,0.12,-0.866,0.0
10.238,0.114,-0.884,0.0
9.733,0.108,-0.898,0.0
13.046,0.142,-0.844,0.0
11.967,0.13,-0.844,0.0
11.295,0.122,-0.862,0.0
10.587,0.114,-0.871,0.0
10.054,0.107,-0.886,0.0
9.589,0.102,-0.902,0.0
12.634,0.131,-0.839,0.0
11.693,0.121,-0.845,0.0
11.098,0.114,-0.867,0.0
10.376,0.106,-0.872,0.0
9.926,0.101,-0.892,0.0
9.485,0.096,-0.908,0.0
12.395,0.123,-0.845,0.0
11.503,0.113,-0.851,0.0
10.814,0.106,-0.863,0.0
10.273,0.1,-0.881,0.0
9.751,0.094,-0.893,0.0
9.302,0.089,-0.907,0.0
12.072,0.113,-0.843,0.0
11.347,0.105,-0.859,0.0
10.678,0.099,-0.871,0.0
10.138,0.093,-0.887,0.0
9.627,0.088,-0.898,0.0
9.241,0.083,-0.917,0.0
11.756,0.103,-0.841,0.0
11.176,0.097,-0.865,0.0
10.493,0.091,-0.873,0.0
9.973,0.086,-0.889,0.0
9.468,0.081,-0.899,0.0
9.004,0.076,-0.908,0.0
11.573,0.095,-0.847,0.0
10.949,0.089,-0.865,0.0
10.32,0.083,-0.875,0.0
9.833,0.078,-0.892,0.0
9.439,0.074,-0.912,0.0
8.885,0.069,-0.911,0.0
11.397,0.086,-0.852,0.0
10.726,0.08,-0.865,0.0
10.212,0.075,-0.883,0.0
9.687,0.071,-0.895,0.0
9.25,0.067,-0.909,0.0
8.822,0.063,-0.918,0.0
11.269,0.078,-0.861,0.0
10.581,0.072,-0.87,0.0
10.082,0.068,-0.887,0.0
9.641,0.064,-0.906,0.0
9.158,0.06,-0.914,0.0
8.697,0.056,-0.919,0.0
11.086,0.069,-0.864,0.0
10.416,0.064,-0.872,0.0
9.931,0.06,-0.889,0.0
9.479,0.056,-0.905,0.0
9.06,0.053,-0.918,0.0
8.622,0.049,-0.924,0.0
10.863,0.059,-0.863,0.0
10.329,0.055,-0.881,0.0
9.786,0.052,-0.891,0.0
9.33,0.048,-0.905,0.0
8.894,0.045,-0.915,0.0
8.464,0.042,-0.92,0.0
10.706,0.05,-0.866,0.0
10.153,0.047,-0.881,0.0
9.704,0.044,-0.898,0.0
9.157,0.04,-0.902,0.0
8.751,0.038,-0.913,0.0
8.336,0.035,-0.918,0.0
10.54,0.041,-0.868,0.0
10.058,0.039,-0.887,0.0
9.552,0.036,-0.898,0.0
9.098,0.033,-0.909,0.0
8.625,0.03,-0.912,0.0
8.305,0.028,-0.927,0.0
10.429,0.033,-0.874,0.0
9.927,0.03,-0.889,0.0
9.439,0.028,-0.901,0.0
9.024,0.025,-0.915,0.0
0.0,0.0,0.0,0.0
8.228,0.021,-0.93,0.0
10.298,0.024,-0.877,0.0
9.8,0.021,-0.892,0.0
9.326,0.019,-0.903,0.0
8.879,0.017,-0.912,0.0
8.435,0.016,-0.916,0.0
8.139,0.014,-0.931,0.0
10.18,0.015,-0.881,0.0
9.696,0.013,-0.895,0.0
9.192,0.011,-0.902,0.0
0.0,0.0,0.0,0.0
8.394,0.008,-0.922,0.0
8.07,0.007,-0.934,0.0
10.102,0.006,-0.887,0.0
9.61,0.004,-0.9,0.0
9.137,0.003,-0.909,0.0
0.0,0.0,0.0,0.0
8.295,0.001,-0.922,0.0
7.915,0.0,-0.926,0.0
9.949,-0.002,-0.887,0.0
9.472,-0.003,-0.899,0.0
9.041,-0.004,-0.911,0.0
0.0,0.0,0.0,0.0
8.254,-0.006,-0.928,0.0
7.887,-0.007,-0.933,0.0
9.852,-0.012,-0.89,0.0
9.351,-0.012,-0.899,0.0
9.004,-0.013,-0.918,0.0
8.51,-0.013,-0.918,0.0
8.175,-0.014,-0.929,0.0
7.814,-0.014,-0.934,0.0
9.751,-0.021,-0.893,0.0
9.26,-0.021,-0.902,0.0
8.88,-0.021,-0.916,0.0
8.439,-0.021,-0.921,0.0
8.088,-0.021,-0.929,0.0
7.751,-0.022,-0.936,0.0
9.666,-0.03,-0.896,0.0
9.201,-0.03,-0.906,0.0
8.703,-0.029,-0.908,0.0
8.367,-0.029,-0.922,0.0
8.018,-0.029,-0.93,0.0
7.666,-0.029,-0.934,0.0
9.567,-0.039,-0.898,0.0
9.108,-0.038,-0.907,0.0
8.704,-0.038,-0.918,0.0
8.304,-0.037,-0.925,0.0
7.98,-0.037,-0.935,0.0
7.606,-0.036,-0.935,0.0
9.473,-0.048,-0.899,0.0
9.02,-0.047,-0.908,0.0
8.679,-0.046,-0.924,0.0
0.0,0.0,0.0,0.0
7.879,-0.045,-0.932,0.0
7.557,-0.044,-0.937,0.0
9.383,-0.057,-0.901,0.0
8.991,-0.056,-0.915,0.0
8.506,-0.054,-0.915,0.0
8.122,-0.053,-0.921,0.0
7.831,-0.053,-0.934,0.0
7.477,-0.051,-0.935,0.0
9.332,-0.067,-0.905,0.0
8.837,-0.064,-0.908,0.0
8.46,-0.063,-0.918,0.0
8.097,-0.062,-0.927,0.0
7.754,-0.06,-0.932,0.0
7.445,-0.059,-0.939,0.0
9.224,-0.076,-0.904,0.0
8.806,-0.073,-0.913,0.0
8.437,-0.072,-0.924,0.0
8.058,-0.07,-0.93,0.0
7.712,-0.068,-0.934,0.0
7.381,-0.066,-0.937,0.0
9.113,-0.084,-0.901,0.0
8.765,-0.083,-0.917,0.0
8.4,-0.08,-0.927,0.0
7.975,-0.078,-0.927,0.0
0.0,0.0,0.0,0.0
7.369,-0.074,-0.942,0.0
9.076,-0.094,-0.905,0.0
0.0,0.0,0.0,0.0
8.293,-0.089,-0.923,0.0
0.0,0.0,0.0,0.0
7.644,-0.084,-0.94,0.0
7.336,-0.082,-0.944,0.0
9.045,-0.103,-0.91,0.0
8.617,-0.1,-0.916,0.0
8.238,-0.097,-0.923,0.0
0.0,0.0,0.0,0.0
7.543,-0.092,-0.934,0.0
7.243,-0.089,-0.938,0.0
8.974,-0.113,-0.91,0.0
8.539,-0.109,-0.915,0.0
8.169,-0.105,-0.922,0.0
7.861,-0.103,-0.934,0.0
7.537,-0.1,-0.939,0.0
7.258,-0.098,-0.946,0.0
8.922,-0.122,-0.911,0.0
8.525,-0.118,-0.92,0.0
8.141,-0.114,-0.925,0.0
7.718,-0.11,-0.922,0.0
7.524,-0.108,-0.942,0.0
7.237,-0.106,-0.948,0.0
8.877,-0.132,-0.913,0.0
8.47,-0.127,-0.92,0.0
8.103,-0.123,-0.926,0.0
0.0,0.0,0.0,0.0
7.432,-0.116,-0.936,0.0
7.172,-0.113,-0.945,0.0
8.808,-0.141,-0.912,0.0
8.435,-0.136,-0.921,0.0
8.067,-0.132,-0.927,0.0
0.0,0.0,0.0,0.0
7.392,-0.124,-0.936,0.0
7.151,-0.121,-0.947,0.0
8.807,-0.151,-0.917,0.0
8.377,-0.145,-0.92,0.0
8.028,-0.14,-0.928,0.0
0.0,0.0,0.0,0.0
0.0,0.0,0.0,0.0
7.186,-0.13,-0.955,0.0
8.755,-0.16,-0.917,0.0
8.328,-0.154,-0.919,0.0
8.043,-0.15,-0.934,0.0
0.0,0.0,0.0,0.0
0.0,0.0,0.0,0.0
7.125,-0.137,-0.951,0.0
8.676,-0.169,-0.913,0.0
8.292,-0.163,-0.92,0.0
7.983,-0.158,-0.931,0.0
0.0,0.0,0.0,0.0
7.38,-0.149,-0.946,0.0
7.099,-0.145,-0.951,0.0
8.658,-0.179,-0.915,0.0
8.292,-0.173,-0.924,0.0
7.878,-0.165,-0.923,0.0
0.0,0.0,0.0,0.0
0.0,0.0,0.0,0.0
7.018,-0.152,-0.943,0.0
8.616,-0.188,-0.914,0.0
8.28,-0.182,-0.926,0.0
7.921,-0.176,-0.931,0.0
0.0,0.0,0.0,0.0
7.317,-0.165,-0.944,0.0
7.09,-0.162,-0.956,0.0
8.587,-0.197,-0.915,0.0
8.273,-0.192,-0.928,0.0
7.894,-0.184,-0.931,0.0
0.0,0.0,0.0,0.0
7.31,-0.174,-0.946,0.0
7.032,-0.169,-0.951,0.0
8.603,-0.208,-0.919,0.0
8.225,-0.2,-0.926,0.0
7.899,-0.194,-0.934,0.0
0.0,0.0,0.0,0.0
0.0,0.0,0.0,0.0
7.019,-0.177,-0.951,0.0
8.55,-0.216,-0.916,0.0
8.189,-0.209,-0.924,0.0
7.833,-0.201,-0.928,0.0
0.0,0.0,0.0,0.0
0.0,0.0,0.0,0.0
7.004,-0.184,-0.951,0.0
8.546,-0.226,-0.918,0.0
8.132,-0.217,-0.919,0.0
7.863,-0.212,-0.934,0.0
0.0,0.0,0.0,0.0
0.0,0.0,0.0,0.0
7.021,-0.193,-0.955,0.0
8.485,-0.235,-0.913,0.0
8.111,-0.226,-0.919,0.0
7.894,-0.222,-0.939,0.0
0.0,0.0,0.0,0.0
0.0,0.0,0.0,0.0
6.974,-0.2,-0.949,0.0
8.52,-0.246,-0.918,0.0
8.197,-0.238,-0.93,0.0
7.877,-0.231,-0.938,0.0
0.0,0.0,0.0,0.0
0.0,0.0,0.0,0.0
6.931,-0.207,-0.945,0.0
8.518,-0.256,-0.919,0.0
8.15,-0.246,-0.925,0.0
0.0,0.0,0.0,0.0
0.0,0.0,0.0,0.0
0.0,0.0,0.0,0.0
7.001,-0.218,-0.955,0.0
8.496,-0.265,-0.917,0.0
8.134,-0.256,-0.924,0.0
7.822,-0.247,-0.933,0.0
0.0,0.0,0.0,0.0
0.0,0.0,0.0,0.0
6.989,-0.226,-0.953,0.0
8.483,-0.275,-0.916,0.0
8.152,-0.266,-0.926,0.0
7.831,-0.257,-0.934,0.0
0.0,0.0,0.0,0.0
0.0,0.0,0.0,0.0
6.943,-0.232,-0.947,0.0
8.512,-0.285,-0.919,0.0
8.165,-0.275,-0.927,0.0
7.866,-0.267,-0.938,0.0
0.0,0.0,0.0,0.0
0.0,0.0,0.0,0.0
6.957,-0.241,-0.948,0.0
8.487,-0.294,-0.916,0.0
8.187,-0.286,-0.929,0.0
7.902,-0.277,-0.941,0.0
0.0,0.0,0.0,0.0
0.0,0.0,0.0,0.0
6.987,-0.25,-0.952,0.0
8.49,-0.304,-0.915,0.0
8.184,-0.295,-0.928,0.0
7.844,-0.284,-0.933,0.0
7.507,-0.274,-0.936,0.0
7.233,-0.265,-0.943,0.0
6.992,-0.258,-0.951,0.0
8.53,-0.315,-0.918,0.0
8.177,-0.304,-0.926,0.0
7.849,-0.293,-0.933,0.0
7.554,-0.284,-0.941,0.0
7.262,-0.274,-0.945,0.0
0.0,0.0,0.0,0.0
8.544,-0.325,-0.918,0.0
8.186,-0.313,-0.925,0.0
7.849,-0.302,-0.931,0.0
0.0,0.0,0.0,0.0
7.278,-0.283,-0.946,0.0
6.996,-0.274,-0.949,0.0
8.598,-0.337,-0.921,0.0
8.193,-0.323,-0.924,0.0
7.909,-0.313,-0.936,0.0
0.0,0.0,0.0,0.0
7.305,-0.292,-0.947,0.0
7.032,-0.283,-0.951,0.0
8.619,-0.347,-0.921,0.0
8.255,-0.334,-0.928,0.0
7.93,-0.323,-0.936,0.0
0.0,0.0,0.0,0.0
7.297,-0.3,-0.944,0.0
7.061,-0.292,-0.953,0.0
8.601,-0.356,-0.916,0.0
8.289,-0.344,-0.929,0.0
7.913,-0.33,-0.931,0.0
7.619,-0.32,-0.94,0.0
7.356,-0.31,-0.949,0.0
7.034,-0.298,-0.946,0.0
8.674,-0.368,-0.921,0.0
8.257,-0.352,-0.922,0.0
7.949,-0.34,-0.932,0.0
0.0,0.0,0.0,0.0
7.318,-0.317,-0.941,0.0
7.06,-0.307,-0.947,0.0
8.662,-0.376,-0.916,0.0
8.32,-0.363,-0.926,0.0
7.974,-0.35,-0.932,0.0
0.0,0.0,0.0,0.0
7.435,-0.329,-0.952,0.0
7.063,-0.314,-0.944,0.0
8.764,-0.39,-0.922,0.0
8.346,-0.373,-0.925,0.0
8.026,-0.36,-0.934,0.0
0.0,0.0,0.0,0.0
7.404,-0.336,-0.945,0.0
7.073,-0.322,-0.942,0.0
8.79,-0.4,-0.921,0.0
8.366,-0.382,-0.923,0.0
8.042,-0.369,-0.931,0.0
0.0,0.0,0.0,0.0
7.387,-0.342,-0.938,0.0
7.149,-0.333,-0.948,0.0
8.789,-0.409,-0.916,0.0
8.396,-0.392,-0.921,0.0
8.073,-0.379,-0.93,0.0
0.0,0.0,0.0,0.0
7.47,-0.353,-0.944,0.0
7.113,-0.338,-0.939,0.0
8.796,-0.418,-0.911,0.0
8.45,-0.403,-0.922,0.0
8.136,-0.39,-0.933,0.0
0.0,0.0,0.0,0.0
7.482,-0.361,-0.941,0.0
7.187,-0.349,-0.944,0.0
8.871,-0.43,-0.913,0.0
8.503,-0.414,-0.922,0.0
8.153,-0.398,-0.929,0.0
0.0,0.0,0.0,0.0
7.496,-0.369,-0.938,0.0
7.237,-0.358,-0.946,0.0
8.904,-0.44,-0.911,0.0
8.548,-0.424,-0.921,0.0
8.192,-0.408,-0.928,0.0
0.0,0.0,0.0,0.0
7.542,-0.378,-0.938,0.0
7.262,-0.366,-0.944,0.0
9.007,-0.453,-0.915,0.0
8.625,-0.435,-0.923,0.0
8.24,-0.418,-0.927,0.0
7.954,-0.405,-0.94,0.0
7.584,-0.387,-0.938,0.0
7.336,-0.376,-0.948,0.0
9.034,-0.462,-0.911,0.0
8.691,-0.446,-0.924,0.0
8.288,-0.427,-0.926,0.0
7.937,-0.411,-0.931,0.0
7.617,-0.396,-0.936,0.0
7.383,-0.385,-0.948,0.0
9.086,-0.473,-0.909,0.0
8.752,-0.457,-0.923,0.0
8.351,-0.438,-0.926,0.0
8.034,-0.423,-0.936,0.0
7.679,-0.405,-0.937,0.0
7.396,-0.392,-0.943,0.0
9.133,-0.483,-0.906,0.0
8.844,-0.469,-0.925,0.0
8.427,-0.449,-0.928,0.0
8.04,-0.43,-0.93,0.0
0.0,0.0,0.0,0.0
7.514,-0.404,-0.952,0.0
9.217,-0.495,-0.906,0.0
8.837,-0.476,-0.917,0.0
8.466,-0.457,-0.925,0.0
8.078,-0.438,-0.927,0.0
7.812,-0.425,-0.939,0.0
7.502,-0.41,-0.943,0.0
9.305,-0.507,-0.906,0.0
8.848,-0.483,-0.91,0.0
8.573,-0.47,-0.928,0.0
8.17,-0.449,-0.93,0.0
7.882,-0.435,-0.94,0.0
7.562,-0.419,-0.944,0.0
9.425,-0.521,-0.909,0.0
8.958,-0.496,-0.913,0.0
0.0,0.0,0.0,0.0
8.241,-0.459,-0.93,0.0
7.939,-0.444,-0.939,0.0
7.55,-0.423,-0.935,0.0
9.472,-0.53,-0.904,0.0
9.095,-0.51,-0.918,0.0
0.0,0.0,0.0,0.0
8.278,-0.467,-0.926,0.0
7.944,-0.45,-0.932,0.0
7.683,-0.436,-0.943,0.0
9.556,-0.541,-0.902,0.0
9.096,-0.517,-0.908,0.0
0.0,0.0,0.0,0.0
8.395,-0.48,-0.93,0.0
8.015,-0.459,-0.932,0.0
7.716,-0.443,-0.939,0.0
9.649,-0.553,-0.901,0.0
9.204,-0.529,-0.909,0.0
8.752,-0.504,-0.912,0.0
0.0,0.0,0.0,0.0
8.086,-0.469,-0.931,0.0
7.792,-0.453,-0.94,0.0
9.736,-0.564,-0.899,0.0
9.291,-0.54,-0.908,0.0
8.865,-0.517,-0.914,0.0
0.0,0.0,0.0,0.0
8.192,-0.48,-0.934,0.0
7.85,-0.461,-0.938,0.0
9.787,-0.573,-0.892,0.0
9.397,-0.552,-0.907,0.0
8.997,-0.529,-0.917,0.0
8.531,-0.503,-0.917,0.0
8.25,-0.488,-0.931,0.0
7.908,-0.469,-0.936,0.0
9.91,-0.586,-0.892,0.0
9.507,-0.564,-0.907,0.0
9.065,-0.539,-0.914,0.0
0.0,0.0,0.0,0.0
8.316,-0.496,-0.929,0.0
7.974,-0.477,-0.934,0.0
10.023,-0.598,-0.89,0.0
9.597,-0.574,-0.904,0.0
9.151,-0.549,-0.911,0.0
0.0,0.0,0.0,0.0
8.369,-0.504,-0.925,0.0
8.029,-0.485,-0.93,0.0
10.18,-0.613,-0.892,0.0
9.697,-0.585,-0.902,0.0
9.218,-0.557,-0.907,0.0
0.0,0.0,0.0,0.0
8.133,-0.495,-0.932,0.0
10.277,-0.623,-0.888,0.0
9.785,-0.595,-0.898,0.0
9.334,-0.568,-0.906,0.0
8.954,-0.546,-0.918,0.0
8.579,-0.525,-0.926,0.0
8.236,-0.505,-0.933,0.0
10.392,-0.635,-0.884,0.0
9.892,-0.605,-0.895,0.0
9.455,-0.58,-0.906,0.0
9.061,-0.557,-0.918,0.0
8.671,-0.534,-0.925,0.0
8.296,-0.512,-0.929,0.0
10.555,-0.649,-0.885,0.0
10.022,-0.617,-0.893,0.0
9.561,-0.59,-0.903,0.0
9.095,-0.562,-0.909,0.0
0.0,0.0,0.0,0.0
8.393,-0.521,-0.929,0.0
10.682,-0.661,-0.881,0.0
10.157,-0.629,-0.892,0.0
9.649,-0.599,-0.899,0.0
9.181,-0.571,-0.905,0.0
8.866,-0.552,-0.922,0.0
8.439,-0.526,-0.923,0.0
10.831,-0.673,-0.879,0.0
10.266,-0.639,-0.887,0.0
9.788,-0.611,-0.898,0.0
9.343,-0.584,-0.908,0.0
8.979,-0.562,-0.921,0.0
8.566,-0.537,-0.925,0.0
10.971,-0.685,-0.875,0.0
10.411,-0.651,-0.886,0.0
9.901,-0.62,-0.895,0.0
9.439,-0.592,-0.904,0.0
9.063,-0.569,-0.917,0.0
8.69,-0.547,-0.926,0.0
11.113,-0.697,-0.871,0.0
10.58,-0.664,-0.885,0.0
10.07,-0.633,-0.896,0.0
9.584,-0.603,-0.905,0.0
9.176,-0.579,-0.915,0.0
8.786,-0.555,-0.923,0.0
11.271,-0.709,-0.867,0.0
10.757,-0.678,-0.885,0.0
10.176,-0.642,-0.891,0.0
9.681,-0.611,-0.9,0.0
9.274,-0.586,-0.912,0.0
8.928,-0.565,-0.925,0.0
11.458,-0.723,-0.865,0.0
10.907,-0.689,-0.881,0.0
10.306,-0.652,-0.887,0.0
9.826,-0.622,-0.899,0.0
9.444,-0.599,-0.914,0.0
9.015,-0.572,-0.921,0.0
11.677,-0.739,-0.864,0.0
11.026,-0.698,-0.874,0.0
10.491,-0.665,-0.887,0.0
9.967,-0.632,-0.897,0.0
9.531,-0.605,-0.908,0.0
9.08,-0.577,-0.914,0.0
11.869,-0.752,-0.861,0.0
11.178,-0.709,-0.87,0.0
10.655,-0.676,-0.885,0.0
10.104,-0.642,-0.894,0.0
9.648,-0.613,-0.905,0.0
9.197,-0.585,-0.912,0.0
12.082,-0.766,-0.858,0.0
11.376,-0.722,-0.868,0.0
10.822,-0.687,-0.883,0.0
10.257,-0.652,-0.892,0.0
9.779,-0.622,-0.902,0.0
9.395,-0.598,-0.917,0.0
12.305,-0.78,-0.855,0.0
11.562,-0.734,-0.864,0.0
10.96,-0.696,-0.877,0.0
10.397,-0.66,-0.888,0.0
9.9,-0.629,-0.898,0.0
9.494,-0.604,-0.912,0.0
12.523,-0.794,-0.851,0.0
11.805,-0.749,-0.864,0.0
11.113,-0.705,-0.872,0.0
10.568,-0.671,-0.886,0.0
10.089,-0.641,-0.899,0.0
9.604,-0.61,-0.907,0.0
20.057,-1.271,-1.331,0.0
12.025,-0.762,-0.861,0.0
11.305,-0.716,-0.869,0.0
10.742,-0.681,-0.884,0.0
10.212,-0.648,-0.894,0.0
9.737,-0.618,-0.904,0.0
20.018,-1.266,-1.297,0.0
12.251,-0.775,-0.858,0.0
11.495,-0.727,-0.866,0.0
10.933,-0.692,-0.882,0.0
10.355,-0.655,-0.89,0.0
9.859,-0.624,-0.9,0.0
13.35,-0.842,-0.844,0.0
12.485,-0.788,-0.855,0.0
11.714,-0.739,-0.864,0.0
11.063,-0.698,-0.875,0.0
10.508,-0.663,-0.886,0.0
10.034,-0.633,-0.899,0.0
13.627,-0.857,-0.84,0.0
20.009,-1.259,-1.338,0.0
11.942,-0.751,-0.861,0.0
11.256,-0.708,-0.872,0.0
10.748,-0.676,-0.889,0.0
10.184,-0.64,-0.896,0.0
13.929,-0.873,-0.836,0.0
20.099,-1.259,-1.311,0.0
12.205,-0.764,-0.86,0.0
11.45,-0.717,-0.868,0.0
10.891,-0.682,-0.883,0.0
10.314,-0.646,-0.891,0.0
14.287,-0.891,-0.834,0.0
13.242,-0.826,-0.842,0.0
12.42,-0.774,-0.855,0.0
11.668,-0.727,-0.866,0.0
11.052,-0.688,-0.878,0.0
10.507,-0.654,-0.89,0.0
14.626,-0.908,-0.83,0.0
13.579,-0.842,-0.842,0.0
12.673,-0.786,-0.852,0.0
11.911,-0.738,-0.864,0.0
11.212,-0.694,-0.872,0.0
10.7,-0.663,-0.889,0.0
14.871,-0.918,-0.819,0.0
13.838,-0.853,-0.835,0.0
13.073,-0.806,-0.857,0.0
12.145,-0.748,-0.861,0.0
11.431,-0.704,-0.871,0.0
10.862,-0.668,-0.884,0.0
15.238,-0.935,-0.815,0.0
14.197,-0.87,-0.833,0.0
13.251,-0.811,-0.847,0.0
12.375,-0.757,-0.857,0.0
11.651,-0.712,-0.868,0.0
11.022,-0.673,-0.879,0.0
15.634,-0.952,-0.81,0.0
14.531,-0.884,-0.828,0.0
13.49,-0.82,-0.84,0.0
12.675,-0.769,-0.857,0.0
11.888,-0.721,-0.866,0.0
11.197,-0.678,-0.874,0.0
19.994,-1.208,-1.003,0.0
14.821,-0.894,-0.821,0.0
13.852,-0.835,-0.839,0.0
19.935,-1.2,-1.315,0.0
12.126,-0.729,-0.863,0.0
11.395,-0.684,-0.871,0.0
16.513,-0.989,-0.801,0.0
15.219,-0.91,-0.817,0.0
14.196,-0.848,-0.837,0.0
13.287,-0.793,-0.854,0.0
12.332,-0.735,-0.857,0.0
11.627,-0.692,-0.869,0.0
16.913,-1.003,-0.792,0.0
15.62,-0.925,-0.813,0.0
14.504,-0.858,-0.831,0.0
13.492,-0.797,-0.845,0.0
19.982,-1.179,-1.356,0.0
11.829,-0.697,-0.864,0.0
17.353,-1.019,-0.784,0.0
15.917,-0.933,-0.802,0.0
14.806,-0.866,-0.823,0.0
13.761,-0.804,-0.838,0.0
13.02,-0.759,-0.861,0.0
12.112,-0.705,-0.865,0.0
17.847,-1.036,-0.776,0.0
16.413,-0.951,-0.799,0.0
15.167,-0.877,-0.818,0.0
14.149,-0.817,-0.838,0.0
13.246,-0.764,-0.854,0.0
12.342,-0.71,-0.86,0.0
18.39,-1.055,-0.769,0.0
16.827,-0.964,-0.792,0.0
15.537,-0.888,-0.812,0.0
14.483,-0.826,-0.834,0.0
13.54,-0.771,-0.85,0.0
12.608,-0.716,-0.858,0.0
18.91,-1.071,-0.759,0.0
17.373,-0.982,-0.788,0.0
15.921,-0.898,-0.805,0.0
14.762,-0.831,-0.825,0.0
13.783,-0.774,-0.843,0.0
12.947,-0.726,-0.859,0.0
19.806,-1.106,-0.762,1.0
17.684,-0.986,-0.773,0.0
16.462,-0.915,-0.805,0.0
15.077,-0.836,-0.817,0.0
14.097,-0.78,-0.838,0.0
13.21,-0.729,-0.854,0.0
19.901,-1.095,-0.733,2.0
18.426,-1.012,-0.775,0.0
16.795,-0.92,-0.793,0.0
15.547,-0.85,-0.817,0.0
14.451,-0.788,-0.835,0.0
13.474,-0.733,-0.849,0.0
20.133,-1.091,-0.708,2.0
18.996,-1.027,-0.767,0.0
17.343,-0.935,-0.791,0.0
15.873,-0.853,-0.808,0.0
14.757,-0.791,-0.829,0.0
13.774,-0.737,-0.845,0.0
20.088,-1.071,-0.673,10.0
19.656,-1.045,-0.761,0.0
17.592,-0.932,-0.773,0.0
16.305,-0.862,-0.803,0.0
15.145,-0.798,-0.825,0.0
14.042,-0.738,-0.838,0.0
20.092,-1.052,-0.64,26.0
19.888,-1.038,-0.737,3.0
20.063,-1.044,-0.848,0.0
16.749,-0.869,-0.797,0.0
15.45,-0.799,-0.816,0.0
14.388,-0.742,-0.835,0.0
20.074,-1.031,-0.607,30.0
20.011,-1.025,-0.709,9.0
19.915,-1.017,-0.81,0.0
20.048,-1.02,-0.922,0.0
20.096,-1.019,-1.029,0.0
14.696,-0.743,-0.829,0.0
20.07,-1.011,-0.574,27.0
20.045,-1.006,-0.678,10.0
19.744,-0.988,-0.771,0.0
17.666,-0.881,-0.783,0.0
20.089,-0.998,-0.996,0.0
14.982,-0.741,-0.821,0.0
20.069,-0.989,-0.541,25.0
20.091,-0.987,-0.647,1.0
19.838,-0.971,-0.742,3.0
18.012,-0.878,-0.769,0.0
20.081,-0.976,-0.963,0.0
15.291,-0.74,-0.813,0.0
20.069,-0.967,-0.509,18.0
23.037,-1.106,-0.704,0.0
19.938,-0.954,-0.714,3.0
18.538,-0.883,-0.762,0.0
17.197,-0.816,-0.797,0.0
20.086,-0.949,-1.036,0.0
20.085,-0.945,-0.477,5.0
24.375,-1.143,-0.706,0.0
21.234,-0.991,-0.726,0.0
19.425,-0.903,-0.767,0.0
17.629,-0.816,-0.789,0.0
16.338,-0.753,-0.816,0.0
28.563,-1.311,-0.633,0.0
0.0,0.0,0.0,0.0
22.24,-1.012,-0.725,0.0
19.623,-0.888,-0.744,0.0
17.958,-0.81,-0.775,0.0
16.691,-0.749,-0.807,0.0
0.0,0.0,0.0,0.0
25.293,-1.125,-0.653,0.0
22.856,-1.012,-0.709,0.0
20.363,-0.897,-0.74,0.0
18.477,-0.81,-0.768,0.0
17.081,-0.745,-0.8,0.0
31.053,-1.349,-0.591,0.0
26.892,-1.162,-0.652,0.0
23.52,-1.011,-0.693,0.0
20.948,-0.896,-0.729,0.0
19.125,-0.814,-0.766,0.0
17.53,-0.742,-0.793,0.0
32.754,-1.381,-0.572,0.0
28.323,-1.188,-0.643,0.0
24.648,-1.028,-0.688,0.0
21.608,-0.896,-0.719,0.0
19.636,-0.81,-0.756,0.0
17.798,-0.73,-0.778,0.0
0.0,0.0,0.0,0.0
29.432,-1.195,-0.623,0.0
0.0,0.0,0.0,0.0
22.694,-0.911,-0.72,0.0
20.211,-0.807,-0.747,0.0
18.38,-0.729,-0.776,0.0
37.658,-1.487,-0.543,0.0
30.74,-1.206,-0.604,0.0
26.451,-1.031,-0.658,0.0
23.37,-0.906,-0.706,0.0
20.764,-0.8,-0.736,0.0
18.843,-0.721,-0.767,0.0
38.055,-1.449,-0.492,0.0
33.612,-1.272,-0.61,0.0
0.0,0.0,0.0,0.0
24.196,-0.903,-0.695,0.0
21.413,-0.794,-0.727,0.0
19.423,-0.716,-0.762,0.0
0.0,0.0,0.0,0.0
0.0,0.0,0.0,0.0
28.877,-1.044,-0.633,0.0
24.894,-0.894,-0.679,0.0
22.184,-0.791,-0.721,0.0
19.958,-0.707,-0.754,0.0
44.339,-1.561,-0.443,0.0
35.39,-1.237,-0.539,0.0
30.107,-1.045,-0.617,0.0
26.147,-0.9,-0.675,0.0
22.948,-0.784,-0.713,0.0
20.541,-0.696,-0.746,0.0
46.754,-1.576,-0.4,0.0
38.019,-1.272,-0.525,0.0
31.47,-1.044,-0.599,0.0
26.848,-0.884,-0.655,0.0
23.64,-0.772,-0.701,0.0
21.724,-0.704,-0.758,1.0
47.594,-1.532,-0.34,0.0
41.41,-1.322,-0.513,0.0
0.0,0.0,0.0,0.0
0.0,0.0,0.0,0.0
21.926,-0.682,-0.619,0.0
21.862,-0.675,-0.733,11.0
0.0,0.0,0.0,0.0
41.23,-1.252,-0.454,1.0
34.626,-1.042,-0.563,0.0
29.275,-0.873,-0.633,0.0
21.91,-0.647,-0.589,152.0
21.865,-0.64,-0.703,38.0
55.109,-1.602,-0.242,0.0
44.43,-1.278,-0.429,2.0
36.73,-1.046,-0.547,0.0
21.905,-0.618,-0.444,5.0
21.869,-0.611,-0.558,214.0
21.866,-0.605,-0.674,94.0
0.0,0.0,0.0,0.0
48.017,-1.304,-0.399,1.0
38.055,-1.023,-0.517,0.0
0.0,0.0,0.0,0.0
21.858,-0.575,-0.529,161.0
21.874,-0.569,-0.645,71.0
0.0,0.0,0.0,0.0
0.0,0.0,0.0,0.0
0.0,0.0,0.0,0.0
33.583,-0.837,-0.592,0.0
21.901,-0.539,-0.502,0.0
18.171,-0.442,-0.512,20.0
0.0,0.0,0.0,0.0
49.879,-1.189,-0.285,0.0
0.0,0.0,0.0,0.0
34.26,-0.797,-0.561,0.0
0.0,0.0,0.0,0.0
18.167,-0.412,-0.489,1.0
0.0,0.0,0.0,0.0
0.0,0.0,0.0,0.0
44.791,-0.979,-0.437,0.0
35.845,-0.773,-0.542,0.0
0.0,0.0,0.0,0.0
26.321,-0.552,-0.676,0.0
0.0,0.0,0.0,0.0
0.0,0.0,0.0,0.0
46.016,-0.927,-0.393,1.0
0.0,0.0,0.0,0.0
31.249,-0.611,-0.6,0.0
26.835,-0.516,-0.658,0.0
0.0,0.0,0.0,0.0
0.0,0.0,0.0,0.0
0.0,0.0,0.0,0.0
0.0,0.0,0.0,0.0
32.356,-0.575,-0.583,0.0
27.801,-0.485,-0.648,0.0
113.517,-1.954,0.502,2.0
0.0,0.0,0.0,0.0
50.173,-0.832,-0.309,0.0
0.0,0.0,0.0,0.0
0.0,0.0,0.0,0.0
0.0,0.0,0.0,0.0
138.819,-2.138,0.775,12.0
0.0,0.0,0.0,0.0
0.0,0.0,0.0,0.0
0.0,0.0,0.0,0.0
0.0,0.0,0.0,0.0
0.0,0.0,0.0,0.0
139.093,-1.887,0.934,11.0
0.0,0.0,0.0,0.0
0.0,0.0,0.0,0.0
47.134,-0.595,-0.438,0.0
0.0,0.0,0.0,0.0
30.791,-0.369,-0.614,0.0
139.248,-1.631,1.087,22.0
0.0,0.0,0.0,0.0
0.0,0.0,0.0,0.0
46.261,-0.498,-0.381,0.0
38.287,-0.4,-0.519,0.0
31.443,-0.318,-0.593,0.0
119.744,-1.18,1.061,74.0
0.0,0.0,0.0,0.0
0.0,0.0,0.0,0.0
0.0,0.0,0.0,0.0
40.078,-0.344,-0.502,0.0
32.594,-0.269,-0.582,0.0
119.695,-0.954,1.184,16.0
111.309,-0.851,0.508,7.0
0.0,0.0,0.0,0.0
0.0,0.0,0.0,0.0
0.0,0.0,0.0,0.0
34.049,-0.217,-0.574,0.0
119.706,-0.727,1.303,15.0
111.003,-0.639,0.616,5.0
0.0,0.0,0.0,0.0
0.0,0.0,0.0,0.0
43.052,-0.206,-0.454,0.0
35.25,-0.157,-0.56,0.0
119.75,-0.498,1.418,11.0
111.158,-0.426,0.723,8.0
0.0,0.0,0.0,0.0
55.169,-0.176,-0.236,0.0
45.021,-0.128,-0.433,1.0
0.0,0.0,0.0,0.0
119.733,-0.267,1.529,7.0
111.273,-0.211,0.826,11.0
0.0,0.0,0.0,0.0
0.0,0.0,0.0,0.0
45.15,-0.041,-0.393,1.0
37.664,-0.022,-0.53,0.0
117.344,-0.03,1.604,16.0
111.18,0.007,0.924,5.0
95.485,0.037,0.282,4.0
0.0,0.0,0.0,0.0
49.821,0.051,-0.391,0.0
0.0,0.0,0.0,0.0
111.162,0.19,1.616,11.0
111.136,0.227,1.019,15.0
94.664,0.224,0.361,2.0
0.0,0.0,0.0,0.0
50.051,0.151,-0.35,0.0
40.402,0.135,-0.5,0.0
119.856,0.443,1.841,24.0
111.097,0.447,1.11,20.0
91.037,0.396,0.421,2.0
0.0,0.0,0.0,0.0
0.0,0.0,0.0,0.0
42.826,0.229,-0.496,1.0
111.062,0.632,1.794,32.0
111.092,0.669,1.197,21.0
97.894,0.623,0.529,6.0
0.0,0.0,0.0,0.0
55.149,0.387,-0.3,0.0
42.81,0.315,-0.463,1.0
0.0,0.0,0.0,0.0
100.714,0.809,1.161,3.0
98.259,0.822,0.604,14.0
0.0,0.0,0.0,0.0
0.0,0.0,0.0,0.0
42.769,0.4,-0.432,0.0
98.743,0.959,1.74,18.0
98.627,0.99,1.206,27.0
98.34,1.019,0.673,11.0
80.53,0.861,0.108,4.0
0.0,0.0,0.0,0.0
46.214,0.524,-0.436,0.0
98.545,1.156,1.803,33.0
98.552,1.188,1.272,32.0
98.48,1.22,0.739,17.0
80.906,1.029,0.163,4.0
0.0,0.0,0.0,0.0
46.824,0.627,-0.411,0.0
98.619,1.359,1.869,29.0
98.634,1.392,1.336,22.0
92.114,1.331,0.751,10.0
80.846,1.196,0.214,6.0
0.0,0.0,0.0,0.0
47.061,0.727,-0.384,0.0
91.936,1.457,1.799,29.0
91.902,1.485,1.301,41.0
91.854,1.516,0.803,32.0
78.263,1.317,0.253,11.0
0.0,0.0,0.0,0.0
0.0,0.0,0.0,0.0
91.833,1.644,1.85,9.0
87.632,1.598,1.29,9.0
91.943,1.708,0.856,20.0
84.519,1.597,0.32,4.0
70.094,1.348,-0.113,3.0
0.0,0.0,0.0,0.0
87.113,1.739,1.801,11.0
85.381,1.732,1.302,24.0
85.316,1.759,0.838,34.0
84.724,1.774,0.364,4.0
69.324,1.475,-0.077,1.0
0.0,0.0,0.0,0.0
85.246,1.878,1.805,33.0
85.224,1.906,1.342,36.0
85.248,1.934,0.879,34.0
78.737,1.813,0.377,8.0
67.422,1.574,-0.043,6.0
0.0,0.0,0.0,0.0
85.303,2.058,1.846,26.0
85.338,2.086,1.382,24.0
85.363,2.115,0.919,12.0
78.791,1.978,0.411,14.0
66.031,1.68,-0.013,5.0
0.0,0.0,0.0,0.0
78.903,2.067,1.741,34.0
78.855,2.092,1.311,26.0
77.035,2.069,0.861,3.0
78.726,2.14,0.443,12.0
65.35,1.798,0.012,7.0
57.2,1.593,-0.3,6.0
76.453,2.164,1.717,7.0
74.817,2.142,1.272,5.0
74.169,2.147,0.856,5.0
78.724,2.305,0.472,10.0
65.172,1.929,0.035,6.0
0.0,0.0,0.0,0.0
74.057,2.25,1.689,2.0
119.984,3.686,2.081,12.0
72.483,2.25,0.861,7.0
72.39,2.27,0.457,26.0
65.354,2.071,0.056,6.0
60.55,1.938,-0.278,0.0
72.448,2.351,1.674,30.0
72.388,2.372,1.277,34.0
72.356,2.394,0.881,35.0
72.295,2.415,0.477,30.0
65.389,2.206,0.074,11.0
59.278,2.02,-0.256,2.0
41.454,2.78,5.004,40.0
41.666,2.797,4.788,39.0
42.152,2.833,4.6,32.0
46.486,3.127,4.801,4.0
41.908,2.822,4.086,9.0
41.959,2.829,3.85,34.0
41.49,2.814,4.97,49.0
41.632,2.825,4.746,38.0
42.202,2.867,4.567,13.0
41.96,2.853,4.294,21.0
41.941,2.854,4.051,26.0
42.137,2.871,3.827,33.0
41.488,2.843,4.93,40.0
41.663,2.857,4.709,16.0
53.089,3.644,5.694,7.0
41.962,2.882,4.254,41.0
41.964,2.885,4.012,26.0
41.877,2.882,3.763,40.0
41.555,2.876,4.897,30.0
41.854,2.898,4.689,27.0
53.051,3.677,5.637,8.0
41.916,2.907,4.207,34.0
41.994,2.914,3.973,32.0
41.446,2.879,3.683,25.0
45.143,3.153,5.274,5.0
41.911,2.929,4.653,36.0
53.065,3.711,5.584,7.0
41.9,2.932,4.162,17.0
45.053,3.155,4.216,4.0
41.539,2.911,3.648,30.0
41.583,2.93,4.813,38.0
41.858,2.951,4.602,23.0
46.889,3.307,4.884,5.0
41.374,2.92,4.066,38.0
41.854,2.955,3.872,17.0
41.429,2.928,3.594,35.0
41.676,2.961,4.779,38.0
53.146,3.777,5.786,5.0
41.903,2.98,4.319,4.0
41.406,2.945,4.024,30.0
41.503,2.954,3.794,26.0
41.552,2.959,3.559,31.0
41.597,2.978,4.723,40.0
53.12,3.804,5.723,6.0
41.828,2.996,4.264,16.0
41.34,2.963,3.971,16.0
41.465,2.973,3.743,28.0
41.44,2.973,3.502,32.0
41.607,3.0,4.676,43.0
46.067,3.322,4.91,11.0
41.883,3.021,4.221,21.0
41.333,2.982,3.922,15.0
41.288,2.981,3.679,32.0
41.42,2.991,3.452,37.0
46.06,3.343,5.122,3.0
46.041,3.342,4.852,13.0
