X,Y,Z,Reflectivity
103.406,-0.111,0.53,1.0
0.0,0.0,0.0,0.0
0.0,0.0,0.0,0.0
0.0,0.0,0.0,0.0
111.087,-0.052,1.646,10.0
111.239,-0.036,1.001,7.0
95.74,-0.016,0.303,5.0
0.0,0.0,0.0,0.0
45.524,0.005,-0.39,3.0
36.033,0.009,-0.519,0.0
111.139,0.045,1.428,19.0
110.706,0.061,0.776,8.0
0.0,0.0,0.0,0.0
0.0,0.0,0.0,0.0
42.827,0.041,-0.451,1.0
33.618,0.037,-0.55,0.0
111.125,0.138,1.209,17.0
103.407,0.143,0.522,1.0
0.0,0.0,0.0,0.0
49.735,0.082,-0.333,0.0
0.0,0.0,0.0,0.0
31.297,0.06,-0.575,0.0
111.042,0.228,0.984,14.0
0.0,0.0,0.0,0.0
0.0,0.0,0.0,0.0
44.78,0.109,-0.39,0.0
35.49,0.091,-0.515,0.0
29.32,0.079,-0.597,0.0
104.149,0.294,0.716,9.0
0.0,0.0,0.0,0.0
0.0,0.0,0.0,0.0
42.678,0.136,-0.458,0.0
33.484,0.111,-0.555,0.0
27.851,0.096,-0.623,0.0
94.69,0.337,0.459,2.0
0.0,0.0,0.0,0.0
0.0,0.0,0.0,0.0
0.0,0.0,0.0,0.0
31.355,0.126,-0.582,0.0
26.436,0.11,-0.645,0.0
87.914,0.374,0.248,2.0
0.0,0.0,0.0,0.0
45.769,0.205,-0.404,1.0
35.658,0.164,-0.526,0.0
29.942,0.141,-0.617,0.0
25.063,0.121,-0.662,0.0
0.0,0.0,0.0,0.0
0.0,0.0,0.0,0.0
42.717,0.219,-0.464,0.0
0.0,0.0,0.0,0.0
27.259,0.146,-0.617,0.0
23.734,0.129,-0.676,0.0
0.0,0.0,0.0,0.0
0.0,0.0,0.0,0.0
37.656,0.216,-0.486,0.0
30.769,0.18,-0.58,0.0
26.33,0.157,-0.65,0.0
22.867,0.138,-0.698,0.0
0.0,0.0,0.0,0.0
42.863,0.267,-0.392,0.0
35.114,0.222,-0.525,0.0
29.186,0.187,-0.611,0.0
24.815,0.162,-0.664,0.0
21.669,0.143,-0.706,0.0
0.0,0.0,0.0,0.0
0.0,0.0,0.0,0.0
32.241,0.221,-0.549,0.0
0.0,0.0,0.0,0.0
23.665,0.167,-0.682,0.0
20.875,0.149,-0.723,0.0
46.337,0.333,-0.343,1.0
0.0,0.0,0.0,0.0
0.0,0.0,0.0,0.0
0.0,0.0,0.0,0.0
22.422,0.169,-0.692,0.0
20.052,0.153,-0.736,0.0
42.781,0.328,-0.406,0.0
0.0,0.0,0.0,0.0
0.0,0.0,0.0,0.0
24.622,0.195,-0.667,0.0
21.768,0.174,-0.717,0.0
19.157,0.155,-0.743,0.0
40.034,0.324,-0.463,0.0
32.218,0.263,-0.56,0.0
27.206,0.225,-0.632,0.0
23.379,0.195,-0.682,0.0
20.739,0.174,-0.726,0.0
18.538,0.157,-0.757,0.0
36.113,0.307,-0.492,0.0
0.0,0.0,0.0,0.0
26.06,0.225,-0.659,0.0
22.342,0.195,-0.698,0.0
19.77,0.174,-0.733,0.0
17.86,0.158,-0.767,0.0
33.838,0.3,-0.531,0.0
28.69,0.256,-0.618,0.0
0.0,0.0,0.0,0.0
21.406,0.194,-0.713,0.0
19.128,0.175,-0.749,0.0
17.274,0.159,-0.777,0.0
31.53,0.29,-0.56,0.0
26.798,0.248,-0.632,0.0
23.486,0.219,-0.691,0.0
20.479,0.192,-0.725,0.0
18.387,0.173,-0.758,0.0
16.743,0.159,-0.788,0.0
0.0,0.0,0.0,0.0
25.605,0.244,-0.657,0.0
22.294,0.214,-0.702,0.0
19.707,0.19,-0.738,0.0
17.817,0.173,-0.771,0.0
16.239,0.158,-0.798,0.0
27.995,0.272,-0.613,0.0
24.122,0.235,-0.669,0.0
21.153,0.208,-0.71,0.0
18.843,0.186,-0.745,0.0
17.205,0.171,-0.781,0.0
15.682,0.156,-0.803,0.0
26.626,0.264,-0.638,0.0
23.036,0.23,-0.686,0.0
20.434,0.205,-0.728,0.0
18.195,0.183,-0.757,0.0
16.604,0.168,-0.788,0.0
15.18,0.154,-0.809,0.0
0.0,0.0,0.0,0.0
22.024,0.223,-0.702,0.0
19.489,0.198,-0.735,0.0
17.594,0.18,-0.768,0.0
16.033,0.164,-0.794,0.0
14.841,0.153,-0.822,0.0
23.541,0.241,-0.661,0.0
21.015,0.216,-0.713,0.0
18.901,0.195,-0.752,0.0
16.895,0.174,-0.772,0.0
15.551,0.161,-0.802,0.0
14.324,0.149,-0.822,0.0
22.941,0.237,-0.691,0.0
20.165,0.209,-0.725,0.0
18.027,0.187,-0.754,0.0
16.525,0.172,-0.789,0.0
15.104,0.158,-0.81,0.0
13.936,0.146,-0.829,0.0
21.867,0.227,-0.703,0.0
19.48,0.203,-0.741,0.0
17.582,0.183,-0.771,0.0
15.854,0.166,-0.79,0.0
14.689,0.154,-0.818,0.0
13.685,0.144,-0.842,0.0
20.917,0.217,-0.715,0.0
18.716,0.195,-0.749,0.0
16.901,0.176,-0.775,0.0
15.492,0.162,-0.803,0.0
14.301,0.15,-0.825,0.0
13.247,0.139,-0.842,0.0
20.161,0.209,-0.73,0.0
18.081,0.188,-0.76,0.0
16.532,0.172,-0.792,0.0
15.062,0.157,-0.811,0.0
13.851,0.144,-0.827,0.0
12.956,0.135,-0.849,0.0
19.276,0.199,-0.737,0.0
17.465,0.18,-0.77,0.0
15.835,0.164,-0.79,0.0
14.587,0.151,-0.815,0.0
13.642,0.141,-0.842,0.0
12.526,0.13,-0.846,0.0
18.571,0.19,-0.747,0.0
16.933,0.173,-0.78,0.0
15.41,0.158,-0.8,0.0
14.248,0.146,-0.824,0.0
13.205,0.135,-0.841,0.0
12.207,0.125,-0.849,0.0
17.963,0.181,-0.758,0.0
16.417,0.166,-0.789,0.0
15.104,0.152,-0.814,0.0
13.794,0.139,-0.825,0.0
12.877,0.13,-0.846,0.0
11.827,0.119,-0.846,0.0
17.479,0.173,-0.772,0.0
15.76,0.156,-0.788,0.0
14.612,0.145,-0.816,0.0
13.534,0.134,-0.837,0.0
12.494,0.124,-0.845,0.0
11.568,0.114,-0.851,0.0
16.894,0.164,-0.78,0.0
15.382,0.149,-0.799,0.0
14.231,0.138,-0.823,0.0
13.122,0.127,-0.837,0.0
12.176,0.118,-0.848,0.0
11.375,0.11,-0.859,0.0
16.315,0.155,-0.784,0.0
15.044,0.142,-0.811,0.0
13.836,0.131,-0.827,0.0
12.903,0.122,-0.848,0.0
11.8,0.111,-0.844,0.0
11.227,0.105,-0.869,0.0
15.857,0.146,-0.793,0.0
14.605,0.134,-0.815,0.0
13.622,0.125,-0.84,0.0
12.447,0.114,-0.842,0.0
11.577,0.105,-0.851,0.0
10.947,0.099,-0.869,0.0
15.383,0.137,-0.799,0.0
14.241,0.126,-0.822,0.0
13.165,0.116,-0.837,0.0
12.176,0.107,-0.847,0.0
11.37,0.1,-0.857,0.0
10.72,0.094,-0.871,0.0
15.079,0.129,-0.811,0.0
13.869,0.118,-0.827,0.0
12.899,0.109,-0.844,0.0
11.813,0.1,-0.843,0.0
11.228,0.094,-0.868,0.0
10.514,0.088,-0.874,0.0
14.631,0.119,-0.814,0.0
13.583,0.11,-0.835,0.0
12.505,0.101,-0.842,0.0
11.577,0.093,-0.848,0.0
10.937,0.087,-0.865,0.0
10.336,0.082,-0.878,0.0
14.292,0.111,-0.822,0.0
13.163,0.101,-0.833,0.0
12.233,0.094,-0.846,0.0
11.379,0.086,-0.855,0.0
10.736,0.081,-0.869,0.0
10.204,0.077,-0.886,0.0
13.944,0.102,-0.827,0.0
12.883,0.093,-0.839,0.0
11.869,0.085,-0.842,0.0
11.22,0.08,-0.863,0.0
10.541,0.075,-0.873,0.0
10.014,0.07,-0.888,0.0
13.684,0.093,-0.836,0.0
12.551,0.085,-0.84,0.0
11.624,0.078,-0.846,0.0
10.956,0.073,-0.862,0.0
10.363,0.068,-0.876,0.0
9.885,0.064,-0.894,0.0
13.271,0.083,-0.834,0.0
12.305,0.077,-0.845,0.0
11.418,0.07,-0.851,0.0
10.757,0.066,-0.866,0.0
10.244,0.062,-0.884,0.0
9.706,0.058,-0.895,0.0
12.969,0.074,-0.838,0.0
11.951,0.068,-0.842,0.0
11.278,0.063,-0.86,0.0
10.574,0.058,-0.869,0.0
10.068,0.055,-0.887,0.0
9.591,0.052,-0.901,0.0
12.804,0.066,-0.849,0.0
11.683,0.059,-0.843,0.0
11.064,0.055,-0.863,0.0
10.399,0.051,-0.873,0.0
9.949,0.048,-0.893,0.0
9.447,0.045,-0.904,0.0
12.394,0.056,-0.843,0.0
11.502,0.051,-0.849,0.0
10.835,0.047,-0.863,0.0
10.275,0.044,-0.88,0.0
9.801,0.041,-0.897,0.0
9.266,0.038,-0.902,0.0
12.097,0.047,-0.843,0.0
11.342,0.043,-0.856,0.0
10.706,0.04,-0.871,0.0
10.14,0.037,-0.885,0.0
9.685,0.035,-0.902,0.0
9.18,0.032,-0.909,0.0
11.82,0.038,-0.843,0.0
11.127,0.035,-0.859,0.0
10.486,0.032,-0.87,0.0
9.993,0.029,-0.889,0.0
9.453,0.027,-0.896,0.0
9.034,0.025,-0.909,0.0
11.606,0.029,-0.847,0.0
10.955,0.026,-0.863,0.0
10.333,0.024,-0.874,0.0
9.819,0.022,-0.889,0.0
9.417,0.02,-0.907,0.0
8.907,0.018,-0.911,0.0
11.396,0.02,-0.849,0.0
10.756,0.018,-0.864,0.0
10.245,0.016,-0.883,0.0
9.737,0.014,-0.897,0.0
9.282,0.013,-0.909,0.0
8.828,0.011,-0.916,0.0
11.32,0.011,-0.861,0.0
10.597,0.01,-0.868,0.0
10.116,0.008,-0.887,0.0
9.598,0.007,-0.899,0.0
9.135,0.005,-0.909,0.0
8.675,0.004,-0.914,0.0
11.075,0.003,-0.859,0.0
10.456,0.001,-0.872,0.0
9.979,0.0,-0.89,0.0
9.426,0.0,-0.897,0.0
9.024,-0.001,-0.911,0.0
8.67,-0.002,-0.926,0.0
10.868,-0.005,-0.859,0.0
10.328,-0.006,-0.876,0.0
9.878,-0.007,-0.896,0.0
9.286,-0.007,-0.897,0.0
8.927,-0.008,-0.914,0.0
8.483,-0.009,-0.919,0.0
10.766,-0.014,-0.866,0.0
10.231,-0.015,-0.883,0.0
9.709,-0.015,-0.894,0.0
9.193,-0.015,-0.901,0.0
8.799,-0.016,-0.914,0.0
8.44,-0.016,-0.926,0.0
10.586,-0.023,-0.867,0.0
10.105,-0.023,-0.886,0.0
9.602,-0.023,-0.898,0.0
9.128,-0.023,-0.908,0.0
8.759,-0.023,-0.922,0.0
8.343,-0.023,-0.927,0.0
10.458,-0.032,-0.871,0.0
9.96,-0.032,-0.887,0.0
9.515,-0.032,-0.903,0.0
9.001,-0.031,-0.907,0.0
8.593,-0.03,-0.916,0.0
8.229,-0.03,-0.925,0.0
10.366,-0.041,-0.877,0.0
9.861,-0.04,-0.891,0.0
9.357,-0.04,-0.9,0.0
8.909,-0.039,-0.91,0.0
8.518,-0.038,-0.919,0.0
8.128,-0.037,-0.925,0.0
10.251,-0.05,-0.881,0.0
9.729,-0.049,-0.892,0.0
9.263,-0.048,-0.903,0.0
8.851,-0.047,-0.915,0.0
8.463,-0.046,-0.924,0.0
8.077,-0.045,-0.929,0.0
10.152,-0.06,-0.885,0.0
9.627,-0.058,-0.895,0.0
9.17,-0.056,-0.905,0.0
8.723,-0.055,-0.913,0.0
8.403,-0.054,-0.928,0.0
8.022,-0.053,-0.933,0.0
9.992,-0.068,-0.883,0.0
9.522,-0.066,-0.897,0.0
9.048,-0.065,-0.905,0.0
8.601,-0.063,-0.911,0.0
8.291,-0.061,-0.926,0.0
7.905,-0.06,-0.929,0.0
9.943,-0.078,-0.891,0.0
9.413,-0.075,-0.898,0.0
9.012,-0.073,-0.912,0.0
0.0,0.0,0.0,0.0
8.202,-0.069,-0.926,0.0
7.847,-0.067,-0.932,0.0
9.834,-0.087,-0.892,0.0
9.361,-0.084,-0.903,0.0
8.933,-0.082,-0.914,0.0
8.47,-0.079,-0.917,0.0
8.125,-0.077,-0.926,0.0
7.785,-0.075,-0.933,0.0
9.733,-0.096,-0.894,0.0
9.276,-0.093,-0.905,0.0
8.795,-0.09,-0.909,0.0
8.4,-0.087,-0.918,0.0
8.068,-0.085,-0.929,0.0
7.745,-0.083,-0.937,0.0
9.639,-0.106,-0.896,0.0
9.159,-0.102,-0.904,0.0
8.711,-0.098,-0.91,0.0
8.335,-0.095,-0.92,0.0
8.044,-0.093,-0.934,0.0
7.682,-0.09,-0.937,0.0
9.595,-0.115,-0.901,0.0
9.083,-0.111,-0.906,0.0
0.0,0.0,0.0,0.0
8.261,-0.103,-0.92,0.0
7.917,-0.1,-0.928,0.0
7.609,-0.098,-0.936,0.0
9.46,-0.124,-0.898,0.0
9.058,-0.12,-0.912,0.0
8.586,-0.116,-0.914,0.0
8.227,-0.112,-0.924,0.0
7.912,-0.109,-0.935,0.0
7.569,-0.106,-0.938,0.0
9.354,-0.133,-0.897,0.0
8.962,-0.129,-0.911,0.0
8.561,-0.125,-0.92,0.0
8.177,-0.12,-0.927,0.0
7.814,-0.117,-0.931,0.0
7.519,-0.113,-0.939,0.0
9.316,-0.143,-0.902,0.0
8.912,-0.138,-0.914,0.0
8.451,-0.133,-0.915,0.0
8.115,-0.129,-0.927,0.0
7.817,-0.125,-0.938,0.0
7.473,-0.121,-0.94,0.0
9.271,-0.153,-0.905,0.0
8.792,-0.146,-0.909,0.0
8.411,-0.141,-0.918,0.0
8.069,-0.137,-0.928,0.0
7.78,-0.134,-0.94,0.0
7.434,-0.129,-0.941,0.0
9.184,-0.162,-0.904,0.0
8.807,-0.157,-0.918,0.0
8.401,-0.151,-0.924,0.0
8.021,-0.146,-0.929,0.0
0.0,0.0,0.0,0.0
7.409,-0.137,-0.944,0.0
9.112,-0.171,-0.904,0.0
8.727,-0.165,-0.916,0.0
8.33,-0.159,-0.922,0.0
7.972,-0.154,-0.93,0.0
7.653,-0.149,-0.937,0.0
7.377,-0.145,-0.945,0.0
9.079,-0.181,-0.908,0.0
8.618,-0.173,-0.911,0.0
8.297,-0.168,-0.925,0.0
7.991,-0.164,-0.937,0.0
7.61,-0.157,-0.937,0.0
7.329,-0.153,-0.945,0.0
9.017,-0.19,-0.908,0.0
8.639,-0.184,-0.919,0.0
8.227,-0.177,-0.923,0.0
7.943,-0.172,-0.937,0.0
7.539,-0.165,-0.933,0.0
7.296,-0.161,-0.945,0.0
8.998,-0.2,-0.912,0.0
8.545,-0.192,-0.915,0.0
8.191,-0.185,-0.924,0.0
7.859,-0.179,-0.932,0.0
7.573,-0.174,-0.942,0.0
7.237,-0.168,-0.942,0.0
8.921,-0.209,-0.909,0.0
8.5,-0.201,-0.915,0.0
8.141,-0.194,-0.923,0.0
7.813,-0.188,-0.931,0.0
7.47,-0.181,-0.933,0.0
7.203,-0.176,-0.941,0.0
8.905,-0.219,-0.912,0.0
8.48,-0.21,-0.917,0.0
8.126,-0.203,-0.925,0.0
7.811,-0.197,-0.935,0.0
7.453,-0.189,-0.935,0.0
7.218,-0.185,-0.947,0.0
8.887,-0.229,-0.915,0.0
8.432,-0.219,-0.916,0.0
8.146,-0.213,-0.932,0.0
0.0,0.0,0.0,0.0
0.0,0.0,0.0,0.0
7.198,-0.193,-0.948,0.0
8.852,-0.239,-0.916,0.0
8.444,-0.23,-0.921,0.0
8.071,-0.221,-0.927,0.0
0.0,0.0,0.0,0.0
7.498,-0.208,-0.948,0.0
7.146,-0.2,-0.944,0.0
8.78,-0.247,-0.912,0.0
8.382,-0.238,-0.918,0.0
8.047,-0.23,-0.927,0.0
0.0,0.0,0.0,0.0
7.425,-0.215,-0.941,0.0
7.165,-0.209,-0.95,0.0
8.77,-0.258,-0.914,0.0
8.367,-0.248,-0.92,0.0
8.07,-0.241,-0.933,0.0
0.0,0.0,0.0,0.0
7.399,-0.224,-0.941,0.0
7.137,-0.217,-0.948,0.0
8.746,-0.268,-0.914,0.0
8.32,-0.256,-0.917,0.0
7.964,-0.247,-0.923,0.0
0.0,0.0,0.0,0.0
7.366,-0.232,-0.939,0.0
7.079,-0.224,-0.943,0.0
8.691,-0.276,-0.911,0.0
8.362,-0.267,-0.924,0.0
7.971,-0.257,-0.926,0.0
0.0,0.0,0.0,0.0
0.0,0.0,0.0,0.0
7.094,-0.233,-0.946,0.0
8.733,-0.288,-0.918,0.0
8.27,-0.275,-0.916,0.0
7.926,-0.265,-0.923,0.0
7.602,-0.256,-0.929,0.0
0.0,0.0,0.0,0.0
7.077,-0.241,-0.946,0.0
8.733,-0.299,-0.919,0.0
8.327,-0.286,-0.924,0.0
7.964,-0.276,-0.928,0.0
7.632,-0.266,-0.934,0.0
0.0,0.0,0.0,0.0
7.04,-0.248,-0.942,0.0
8.739,-0.309,-0.921,0.0
8.293,-0.295,-0.921,0.0
7.968,-0.285,-0.93,0.0
7.595,-0.274,-0.93,0.0
7.399,-0.268,-0.948,0.0
7.073,-0.258,-0.947,0.0
8.684,-0.318,-0.916,0.0
8.295,-0.305,-0.922,0.0
7.949,-0.294,-0.928,0.0
7.611,-0.283,-0.933,0.0
7.316,-0.274,-0.938,0.0
7.105,-0.268,-0.952,0.0
8.703,-0.328,-0.919,0.0
8.309,-0.315,-0.924,0.0
7.985,-0.305,-0.933,0.0
0.0,0.0,0.0,0.0
7.358,-0.284,-0.944,0.0
7.055,-0.274,-0.945,0.0
8.687,-0.338,-0.917,0.0
8.294,-0.325,-0.922,0.0
7.971,-0.314,-0.931,0.0
0.0,0.0,0.0,0.0
7.365,-0.293,-0.945,0.0
7.094,-0.284,-0.95,0.0
8.694,-0.348,-0.918,0.0
8.344,-0.336,-0.927,0.0
7.957,-0.322,-0.929,0.0
0.0,0.0,0.0,0.0
0.0,0.0,0.0,0.0
7.039,-0.29,-0.942,0.0
8.697,-0.359,-0.917,0.0
8.36,-0.347,-0.928,0.0
7.961,-0.332,-0.929,0.0
0.0,0.0,0.0,0.0
7.361,-0.31,-0.943,0.0
7.114,-0.301,-0.951,0.0
0.0,0.0,0.0,0.0
8.331,-0.355,-0.924,0.0
7.973,-0.341,-0.929,0.0
0.0,0.0,0.0,0.0
7.366,-0.319,-0.942,0.0
7.126,-0.31,-0.952,0.0
8.702,-0.379,-0.915,0.0
8.368,-0.366,-0.927,0.0
7.994,-0.351,-0.93,0.0
0.0,0.0,0.0,0.0
7.376,-0.328,-0.942,0.0
7.103,-0.317,-0.947,0.0
8.726,-0.389,-0.916,0.0
8.341,-0.374,-0.922,0.0
7.993,-0.36,-0.928,0.0
0.0,0.0,0.0,0.0
7.388,-0.336,-0.942,0.0
7.137,-0.327,-0.95,0.0
8.776,-0.402,-0.919,0.0
8.376,-0.385,-0.923,0.0
8.061,-0.372,-0.934,0.0
0.0,0.0,0.0,0.0
0.0,0.0,0.0,0.0
7.139,-0.334,-0.948,0.0
8.791,-0.412,-0.917,0.0
8.338,-0.392,-0.917,0.0
8.033,-0.38,-0.928,0.0
0.0,0.0,0.0,0.0
7.453,-0.356,-0.945,0.0
7.118,-0.341,-0.943,0.0
8.831,-0.423,-0.919,0.0
8.356,-0.402,-0.916,0.0
8.085,-0.391,-0.931,0.0
0.0,0.0,0.0,0.0
7.468,-0.364,-0.944,0.0
7.141,-0.35,-0.943,0.0
8.792,-0.431,-0.911,0.0
8.441,-0.415,-0.922,0.0
8.095,-0.4,-0.929,0.0
0.0,0.0,0.0,0.0
7.477,-0.373,-0.942,0.0
7.21,-0.361,-0.949,0.0
8.882,-0.444,-0.917,0.0
8.473,-0.426,-0.921,0.0
8.119,-0.41,-0.928,0.0
0.0,0.0,0.0,0.0
7.537,-0.384,-0.946,0.0
7.198,-0.368,-0.944,0.0
8.852,-0.452,-0.909,0.0
8.477,-0.435,-0.918,0.0
8.131,-0.419,-0.925,0.0
0.0,0.0,0.0,0.0
7.548,-0.392,-0.944,0.0
7.286,-0.38,-0.952,0.0
8.925,-0.465,-0.912,0.0
8.521,-0.445,-0.918,0.0
8.196,-0.43,-0.928,0.0
0.0,0.0,0.0,0.0
7.563,-0.4,-0.941,0.0
7.257,-0.385,-0.944,0.0
8.995,-0.477,-0.914,0.0
8.52,-0.454,-0.913,0.0
8.205,-0.439,-0.925,0.0
7.903,-0.424,-0.935,0.0
7.578,-0.408,-0.939,0.0
7.294,-0.395,-0.944,0.0
9.019,-0.487,-0.911,0.0
8.658,-0.469,-0.922,0.0
8.252,-0.449,-0.925,0.0
0.0,0.0,0.0,0.0
7.587,-0.416,-0.935,0.0
7.325,-0.403,-0.943,0.0
9.067,-0.498,-0.91,0.0
8.613,-0.475,-0.912,0.0
8.282,-0.458,-0.923,0.0
7.96,-0.442,-0.931,0.0
7.68,-0.428,-0.941,0.0
7.341,-0.411,-0.94,0.0
9.094,-0.508,-0.907,0.0
8.732,-0.49,-0.919,0.0
8.33,-0.469,-0.922,0.0
8.006,-0.452,-0.931,0.0
7.607,-0.431,-0.927,0.0
7.386,-0.42,-0.941,0.0
9.136,-0.519,-0.904,0.0
8.777,-0.5,-0.917,0.0
8.377,-0.479,-0.921,0.0
8.032,-0.461,-0.928,0.0
7.668,-0.441,-0.928,0.0
7.482,-0.432,-0.947,0.0
9.252,-0.533,-0.909,0.0
8.84,-0.511,-0.917,0.0
8.377,-0.486,-0.914,0.0
8.088,-0.471,-0.928,0.0
7.749,-0.453,-0.932,0.0
7.524,-0.441,-0.946,0.0
9.298,-0.544,-0.906,0.0
8.909,-0.523,-0.916,0.0
8.461,-0.498,-0.917,0.0
8.156,-0.482,-0.929,0.0
7.839,-0.465,-0.936,0.0
7.51,-0.447,-0.938,0.0
9.358,-0.555,-0.904,0.0
8.963,-0.533,-0.914,0.0
8.556,-0.511,-0.92,0.0
8.199,-0.491,-0.927,0.0
7.902,-0.475,-0.937,0.0
7.579,-0.457,-0.94,0.0
9.435,-0.567,-0.903,0.0
9.003,-0.543,-0.911,0.0
8.591,-0.52,-0.916,0.0
8.254,-0.501,-0.926,0.0
7.94,-0.483,-0.934,0.0
7.624,-0.465,-0.939,0.0
9.555,-0.582,-0.906,0.0
9.068,-0.554,-0.909,0.0
8.675,-0.531,-0.917,0.0
8.269,-0.508,-0.92,0.0
8.045,-0.495,-0.939,0.0
7.681,-0.474,-0.938,0.0
9.587,-0.591,-0.9,0.0
9.146,-0.565,-0.908,0.0
8.721,-0.54,-0.913,0.0
8.308,-0.516,-0.916,0.0
8.058,-0.502,-0.932,0.0
7.723,-0.482,-0.936,0.0
9.658,-0.602,-0.897,0.0
9.204,-0.575,-0.905,0.0
8.851,-0.554,-0.918,0.0
8.475,-0.532,-0.926,0.0
8.128,-0.512,-0.932,0.0
7.792,-0.492,-0.936,0.0
9.767,-0.615,-0.897,0.0
9.35,-0.59,-0.909,0.0
8.903,-0.564,-0.914,0.0
0.0,0.0,0.0,0.0
8.193,-0.521,-0.931,0.0
7.845,-0.5,-0.934,0.0
9.856,-0.627,-0.895,0.0
9.422,-0.601,-0.906,0.0
9.014,-0.576,-0.916,0.0
0.0,0.0,0.0,0.0
8.248,-0.53,-0.929,0.0
7.904,-0.509,-0.933,0.0
9.948,-0.639,-0.892,0.0
9.542,-0.614,-0.907,0.0
9.052,-0.584,-0.91,0.0
0.0,0.0,0.0,0.0
8.282,-0.537,-0.923,0.0
8.015,-0.521,-0.937,0.0
10.071,-0.653,-0.892,0.0
9.588,-0.623,-0.901,0.0
9.177,-0.597,-0.912,0.0
0.0,0.0,0.0,0.0
8.423,-0.551,-0.929,0.0
8.089,-0.53,-0.936,0.0
10.167,-0.664,-0.889,0.0
9.7,-0.635,-0.9,0.0
9.222,-0.605,-0.906,0.0
8.872,-0.583,-0.92,0.0
8.446,-0.557,-0.922,0.0
8.131,-0.537,-0.931,0.0
10.283,-0.677,-0.887,0.0
9.785,-0.646,-0.897,0.0
9.382,-0.62,-0.91,0.0
8.956,-0.593,-0.918,0.0
8.565,-0.569,-0.924,0.0
8.217,-0.547,-0.931,0.0
10.422,-0.692,-0.886,0.0
9.912,-0.659,-0.896,0.0
9.482,-0.631,-0.908,0.0
9.05,-0.604,-0.917,0.0
8.695,-0.581,-0.927,0.0
8.287,-0.555,-0.929,0.0
10.517,-0.702,-0.882,0.0
10.023,-0.671,-0.894,0.0
9.562,-0.641,-0.904,0.0
9.183,-0.616,-0.918,0.0
8.7,-0.585,-0.917,0.0
8.329,-0.561,-0.923,0.0
10.669,-0.717,-0.881,0.0
10.157,-0.684,-0.893,0.0
9.673,-0.652,-0.902,0.0
9.218,-0.622,-0.91,0.0
8.823,-0.597,-0.918,0.0
8.462,-0.573,-0.926,0.0
10.83,-0.732,-0.88,0.0
10.278,-0.695,-0.89,0.0
9.798,-0.664,-0.901,0.0
9.33,-0.633,-0.909,0.0
8.971,-0.61,-0.922,0.0
8.514,-0.58,-0.921,0.0
10.93,-0.742,-0.874,0.0
10.376,-0.705,-0.885,0.0
9.877,-0.672,-0.895,0.0
9.458,-0.645,-0.909,0.0
9.013,-0.615,-0.914,0.0
8.648,-0.591,-0.924,0.0
11.091,-0.756,-0.872,0.0
10.523,-0.718,-0.883,0.0
10.025,-0.685,-0.895,0.0
9.578,-0.655,-0.907,0.0
9.154,-0.627,-0.916,0.0
8.709,-0.598,-0.918,0.0
11.248,-0.77,-0.869,0.0
10.705,-0.733,-0.884,0.0
10.145,-0.696,-0.892,0.0
9.652,-0.663,-0.901,0.0
9.213,-0.633,-0.909,0.0
8.87,-0.61,-0.923,0.0
11.412,-0.783,-0.866,0.0
10.877,-0.747,-0.883,0.0
10.272,-0.706,-0.889,0.0
9.796,-0.674,-0.901,0.0
9.363,-0.645,-0.911,0.0
9.007,-0.621,-0.924,0.0
11.586,-0.797,-0.863,0.0
10.986,-0.757,-0.877,0.0
10.406,-0.717,-0.886,0.0
9.9,-0.683,-0.896,0.0
9.51,-0.657,-0.912,0.0
9.059,-0.626,-0.917,0.0
11.817,-0.815,-0.863,0.0
11.142,-0.769,-0.873,0.0
10.59,-0.731,-0.886,0.0
10.094,-0.698,-0.899,0.0
9.604,-0.664,-0.907,0.0
9.167,-0.635,-0.914,0.0
11.997,-0.828,-0.859,0.0
11.313,-0.781,-0.87,0.0
10.771,-0.745,-0.885,0.0
10.177,-0.704,-0.892,0.0
9.708,-0.672,-0.902,0.0
9.276,-0.643,-0.911,0.0
12.151,-0.839,-0.853,0.0
11.502,-0.795,-0.868,0.0
10.915,-0.755,-0.881,0.0
10.318,-0.714,-0.889,0.0
9.839,-0.681,-0.9,0.0
9.43,-0.653,-0.912,0.0
12.413,-0.858,-0.852,0.0
11.71,-0.81,-0.866,0.0
11.065,-0.765,-0.877,0.0
10.481,-0.725,-0.887,0.0
10.0,-0.692,-0.899,0.0
9.541,-0.661,-0.909,0.0
12.666,-0.875,-0.851,0.0
11.91,-0.823,-0.863,0.0
11.202,-0.774,-0.871,0.0
10.655,-0.737,-0.886,0.0
10.15,-0.702,-0.898,0.0
9.659,-0.668,-0.905,0.0
12.971,-0.895,-0.852,0.0
12.096,-0.835,-0.858,0.0
11.386,-0.786,-0.868,0.0
10.82,-0.747,-0.883,0.0
10.275,-0.71,-0.893,0.0
9.789,-0.676,-0.902,0.0
13.243,-0.912,-0.849,0.0
12.335,-0.85,-0.856,0.0
11.591,-0.799,-0.866,0.0
10.976,-0.756,-0.879,0.0
10.419,-0.718,-0.889,0.0
9.935,-0.685,-0.9,0.0
13.498,-0.928,-0.845,0.0
12.632,-0.868,-0.857,0.0
11.836,-0.814,-0.865,0.0
11.159,-0.767,-0.876,0.0
10.599,-0.729,-0.888,0.0
10.117,-0.695,-0.901,0.0
13.683,-0.938,-0.835,0.0
12.84,-0.88,-0.851,0.0
12.045,-0.825,-0.862,0.0
11.337,-0.777,-0.872,0.0
10.788,-0.739,-0.887,0.0
10.214,-0.7,-0.894,0.0
14.056,-0.96,-0.836,0.0
13.21,-0.902,-0.855,0.0
12.256,-0.837,-0.858,0.0
11.539,-0.788,-0.87,0.0
10.926,-0.746,-0.881,0.0
10.359,-0.707,-0.89,0.0
14.31,-0.974,-0.829,0.0
13.428,-0.913,-0.848,0.0
12.544,-0.853,-0.858,0.0
11.782,-0.801,-0.869,0.0
11.099,-0.754,-0.877,0.0
10.52,-0.714,-0.887,0.0
14.617,-0.99,-0.823,0.0
13.604,-0.921,-0.837,0.0
12.813,-0.867,-0.856,0.0
12.007,-0.812,-0.866,0.0
11.296,-0.763,-0.875,0.0
10.748,-0.726,-0.889,0.0
14.963,-1.008,-0.818,0.0
13.927,-0.937,-0.835,0.0
13.017,-0.875,-0.849,0.0
12.194,-0.82,-0.86,0.0
11.473,-0.771,-0.869,0.0
10.907,-0.732,-0.884,0.0
15.252,-1.021,-0.81,0.0
14.208,-0.95,-0.829,0.0
13.365,-0.893,-0.849,0.0
12.411,-0.829,-0.855,0.0
11.719,-0.782,-0.869,0.0
11.05,-0.737,-0.878,0.0
15.715,-1.045,-0.809,0.0
14.549,-0.966,-0.825,0.0
13.568,-0.9,-0.841,0.0
12.7,-0.842,-0.855,0.0
11.939,-0.791,-0.866,0.0
11.248,-0.744,-0.875,0.0
20.078,-1.325,-1.001,0.0
14.88,-0.981,-0.82,0.0
13.871,-0.913,-0.837,0.0
12.995,-0.855,-0.853,0.0
12.175,-0.8,-0.863,0.0
11.434,-0.751,-0.871,0.0
20.095,-1.316,-0.969,0.0
15.235,-0.996,-0.814,0.0
14.205,-0.928,-0.834,0.0
13.304,-0.868,-0.852,0.0
12.399,-0.808,-0.859,0.0
11.653,-0.758,-0.868,0.0
16.912,-1.097,-0.788,0.0
20.092,-1.302,-1.041,0.0
14.499,-0.938,-0.827,0.0
13.51,-0.873,-0.843,0.0
19.96,-1.288,-1.35,0.0
11.918,-0.768,-0.869,0.0
20.115,-1.293,-0.905,0.0
20.117,-1.291,-1.01,0.0
14.863,-0.952,-0.824,0.0
13.697,-0.876,-0.832,0.0
13.009,-0.831,-0.859,0.0
12.131,-0.774,-0.864,0.0
20.124,-1.28,-0.872,0.0
20.143,-1.279,-0.978,0.0
15.211,-0.964,-0.818,0.0
14.124,-0.894,-0.835,0.0
13.235,-0.836,-0.852,0.0
12.349,-0.779,-0.86,0.0
18.31,-1.152,-0.764,0.0
20.126,-1.264,-0.945,0.0
15.608,-0.978,-0.814,0.0
14.423,-0.902,-0.829,0.0
13.507,-0.844,-0.847,0.0
12.606,-0.786,-0.857,0.0
19.856,-1.234,-0.796,0.0
17.336,-1.075,-0.786,0.0
16.036,-0.993,-0.811,0.0
14.679,-0.907,-0.82,0.0
13.785,-0.85,-0.843,0.0
19.983,-1.231,-1.327,0.0
19.89,-1.221,-0.766,1.0
17.718,-1.085,-0.775,0.0
16.409,-1.003,-0.803,0.0
15.093,-0.921,-0.819,0.0
14.083,-0.857,-0.838,0.0
13.22,-0.803,-0.856,0.0
19.947,-1.208,-0.735,17.0
19.918,-1.203,-0.838,0.0
16.803,-1.013,-0.795,0.0
15.227,-0.916,-0.802,0.0
14.464,-0.868,-0.837,0.0
13.446,-0.805,-0.849,0.0
19.965,-1.192,-0.704,23.0
19.887,-1.184,-0.805,1.0
17.293,-1.027,-0.791,0.0
15.83,-0.938,-0.808,0.0
14.737,-0.871,-0.83,0.0
13.724,-0.809,-0.844,0.0
20.0,-1.176,-0.674,28.0
19.709,-1.156,-0.767,1.0
17.68,-1.034,-0.78,0.0
16.243,-0.947,-0.803,0.0
15.034,-0.874,-0.822,0.0
14.04,-0.814,-0.841,0.0
19.944,-1.153,-0.639,0.0
19.925,-1.149,-0.743,3.0
18.196,-1.046,-0.773,0.0
16.624,-0.953,-0.795,0.0
15.332,-0.877,-0.814,0.0
14.342,-0.818,-0.836,0.0
23.553,-1.339,-0.718,0.0
19.948,-1.13,-0.712,1.0
18.744,-1.059,-0.766,0.0
17.14,-0.965,-0.792,0.0
15.817,-0.888,-0.814,0.0
14.586,-0.816,-0.827,0.0
23.649,-1.32,-0.683,1.0
21.218,-1.18,-0.723,0.0
19.385,-1.075,-0.762,0.0
17.49,-0.967,-0.781,0.0
16.215,-0.893,-0.809,0.0
14.942,-0.821,-0.824,0.0
24.752,-1.355,-0.676,0.0
21.856,-1.192,-0.711,0.0
19.87,-1.08,-0.75,2.0
18.052,-0.978,-0.778,0.0
16.573,-0.895,-0.801,0.0
15.294,-0.823,-0.819,0.0
20.083,-1.077,-0.517,1.0
20.078,-1.073,-0.622,12.0
20.0,-1.065,-0.724,3.0
18.613,-0.987,-0.773,0.0
17.157,-0.907,-0.802,0.0
15.698,-0.827,-0.816,0.0
20.069,-1.053,-0.485,24.0
20.071,-1.049,-0.59,27.0
20.039,-1.043,-0.694,12.0
19.582,-1.016,-0.783,0.0
17.388,-0.898,-0.786,0.0
20.119,-1.036,-1.015,0.0
20.047,-1.028,-0.454,30.0
20.069,-1.025,-0.559,30.0
20.058,-1.02,-0.664,16.0
19.817,-1.004,-0.762,1.0
17.872,-0.901,-0.78,0.0
20.117,-1.011,-0.984,0.0
20.026,-1.002,-0.423,33.0
20.05,-0.999,-0.528,27.0
20.074,-0.996,-0.634,9.0
19.859,-0.981,-0.733,3.0
18.277,-0.899,-0.77,0.0
16.8,-0.823,-0.796,0.0
20.03,-0.977,-0.392,28.0
20.062,-0.974,-0.498,20.0
20.06,-0.97,-0.603,0.0
19.993,-0.962,-0.708,4.0
18.881,-0.904,-0.767,0.0
20.037,-0.952,-0.362,25.0
20.059,-0.948,-0.468,9.0
24.464,-1.151,-0.699,0.0
21.445,-1.004,-0.727,0.0
19.597,-0.913,-0.767,0.0
17.619,-0.817,-0.782,0.0
20.031,-0.925,-0.333,9.0
0.0,0.0,0.0,0.0
0.0,0.0,0.0,0.0
22.212,-1.01,-0.721,0.0
19.828,-0.896,-0.747,0.0
17.953,-0.808,-0.771,0.0
0.0,0.0,0.0,0.0
30.028,-1.338,-0.613,0.0
26.289,-1.165,-0.674,0.0
22.889,-1.009,-0.709,0.0
20.577,-0.902,-0.746,0.0
18.602,-0.811,-0.772,0.0
38.637,-1.677,-0.531,1.0
31.287,-1.35,-0.594,0.0
26.857,-1.152,-0.65,0.0
23.594,-1.006,-0.697,0.0
21.14,-0.896,-0.736,0.0
19.061,-0.803,-0.764,0.0
38.745,-1.626,-0.477,0.0
0.0,0.0,0.0,0.0
28.772,-1.192,-0.656,0.0
24.607,-1.013,-0.692,0.0
21.651,-0.886,-0.723,0.0
19.734,-0.803,-0.763,0.0
0.0,0.0,0.0,0.0
0.0,0.0,0.0,0.0
0.0,0.0,0.0,0.0
25.641,-1.018,-0.686,0.0
22.412,-0.884,-0.717,0.0
20.213,-0.791,-0.753,0.0
45.267,-1.764,-0.43,0.0
0.0,0.0,0.0,0.0
0.0,0.0,0.0,0.0
26.499,-1.011,-0.672,0.0
23.328,-0.884,-0.715,0.0
20.61,-0.776,-0.74,0.0
0.0,0.0,0.0,0.0
0.0,0.0,0.0,0.0
0.0,0.0,0.0,0.0
26.931,-0.986,-0.647,0.0
23.784,-0.864,-0.696,0.0
21.355,-0.77,-0.738,0.0
0.0,0.0,0.0,0.0
41.382,-1.473,-0.499,0.0
33.737,-1.191,-0.585,0.0
28.354,-0.993,-0.643,0.0
24.73,-0.859,-0.692,0.0
21.826,-0.752,-0.725,0.0
0.0,0.0,0.0,0.0
41.565,-1.412,-0.446,1.0
34.623,-1.166,-0.554,0.0
0.0,0.0,0.0,0.0
25.944,-0.859,-0.692,0.0
21.978,-0.722,-0.702,2.0
0.0,0.0,0.0,0.0
44.164,-1.429,-0.418,0.0
37.556,-1.204,-0.553,0.0
30.656,-0.974,-0.617,0.0
21.842,-0.688,-0.555,0.0
23.193,-0.723,-0.711,0.0
0.0,0.0,0.0,0.0
47.372,-1.454,-0.389,0.0
38.039,-1.156,-0.513,0.0
0.0,0.0,0.0,0.0
21.899,-0.653,-0.529,23.0
21.89,-0.646,-0.644,31.0
0.0,0.0,0.0,0.0
0.0,0.0,0.0,0.0
41.379,-1.187,-0.507,0.0
0.0,0.0,0.0,0.0
21.909,-0.616,-0.502,152.0
21.858,-0.608,-0.617,159.0
0.0,0.0,0.0,0.0
54.973,-1.499,-0.317,0.0
41.229,-1.112,-0.456,0.0
34.561,-0.922,-0.568,0.0
21.9,-0.577,-0.476,13.0
21.865,-0.57,-0.591,159.0
0.0,0.0,0.0,0.0
0.0,0.0,0.0,0.0
43.896,-1.108,-0.434,2.0
35.309,-0.88,-0.539,0.0
30.17,-0.742,-0.621,0.0
21.9,-0.532,-0.566,1.0
0.0,0.0,0.0,0.0
0.0,0.0,0.0,0.0
0.0,0.0,0.0,0.0
0.0,0.0,0.0,0.0
30.934,-0.706,-0.601,0.0
26.875,-0.605,-0.665,0.0
0.0,0.0,0.0,0.0
0.0,0.0,0.0,0.0
0.0,0.0,0.0,0.0
0.0,0.0,0.0,0.0
32.122,-0.675,-0.589,0.0
27.795,-0.576,-0.657,0.0
0.0,0.0,0.0,0.0
0.0,0.0,0.0,0.0
0.0,0.0,0.0,0.0
0.0,0.0,0.0,0.0
33.783,-0.648,-0.583,0.0
28.742,-0.542,-0.648,0.0
138.929,-2.584,0.718,5.0
0.0,0.0,0.0,0.0
0.0,0.0,0.0,0.0
41.778,-0.737,-0.454,0.0
35.022,-0.607,-0.567,1.0
29.391,-0.499,-0.632,0.0
139.045,-2.326,0.864,11.0
0.0,0.0,0.0,0.0
0.0,0.0,0.0,0.0
0.0,0.0,0.0,0.0
0.0,0.0,0.0,0.0
30.549,-0.461,-0.626,0.0
138.796,-2.057,1.004,23.0
0.0,0.0,0.0,0.0
0.0,0.0,0.0,0.0
46.869,-0.649,-0.414,1.0
0.0,0.0,0.0,0.0
30.717,-0.405,-0.599,0.0
139.187,-1.798,1.142,24.0
0.0,0.0,0.0,0.0
0.0,0.0,0.0,0.0
47.033,-0.561,-0.371,0.0
0.0,0.0,0.0,0.0
32.118,-0.362,-0.596,0.0
119.732,-1.317,1.096,33.0
0.0,0.0,0.0,0.0
0.0,0.0,0.0,0.0
0.0,0.0,0.0,0.0
40.082,-0.388,-0.493,0.0
32.324,-0.302,-0.571,0.0
119.705,-1.086,1.204,19.0
114.17,-0.997,0.538,2.0
0.0,0.0,0.0,0.0
0.0,0.0,0.0,0.0
0.0,0.0,0.0,0.0
0.0,0.0,0.0,0.0
119.701,-0.852,1.309,18.0
111.139,-0.753,0.62,4.0
0.0,0.0,0.0,0.0
0.0,0.0,0.0,0.0
0.0,0.0,0.0,0.0
0.0,0.0,0.0,0.0
119.721,-0.617,1.409,8.0
111.08,-0.534,0.712,2.0
0.0,0.0,0.0,0.0
0.0,0.0,0.0,0.0
45.155,-0.172,-0.441,2.0
35.791,-0.124,-0.541,0.0
115.248,-0.362,1.451,2.0
114.472,-0.32,0.827,94.0
0.0,0.0,0.0,0.0
0.0,0.0,0.0,0.0
45.421,-0.081,-0.407,1.0
36.319,-0.052,-0.521,0.0
111.17,-0.124,1.486,9.0
117.171,-0.092,0.937,6.0
95.624,-0.043,0.25,1.0
0.0,0.0,0.0,0.0
45.834,0.01,-0.377,1.0
0.0,0.0,0.0,0.0
111.081,0.1,1.568,16.0
0.0,0.0,0.0,0.0
93.326,0.146,0.312,2.0
0.0,0.0,0.0,0.0
49.592,0.111,-0.372,0.0
0.0,0.0,0.0,0.0
119.855,0.352,1.776,75.0
111.166,0.364,1.048,9.0
94.679,0.342,0.383,3.0
0.0,0.0,0.0,0.0
0.0,0.0,0.0,0.0
40.305,0.186,-0.492,0.0
111.076,0.554,1.721,30.0
111.021,0.592,1.121,23.0
97.565,0.552,0.458,4.0
0.0,0.0,0.0,0.0
0.0,0.0,0.0,0.0
42.709,0.285,-0.494,0.0
101.823,0.717,1.642,1.0
101.212,0.746,1.085,3.0
98.027,0.757,0.522,8.0
0.0,0.0,0.0,0.0
0.0,0.0,0.0,0.0
42.815,0.374,-0.47,0.0
99.917,0.911,1.671,5.0
98.679,0.933,1.117,25.0
98.238,0.962,0.58,12.0
81.02,0.82,0.032,3.0
0.0,0.0,0.0,0.0
42.448,0.459,-0.442,0.0
98.564,1.104,1.704,29.0
98.548,1.137,1.17,31.0
98.113,1.165,0.633,9.0
78.759,0.961,0.074,4.0
0.0,0.0,0.0,0.0
43.931,0.565,-0.434,1.0
98.602,1.309,1.756,30.0
98.59,1.343,1.221,32.0
98.541,1.374,0.686,9.0
76.663,1.095,0.11,1.0
0.0,0.0,0.0,0.0
46.988,0.702,-0.442,0.0
92.009,1.412,1.683,20.0
91.929,1.441,1.182,35.0
91.847,1.471,0.682,23.0
77.622,1.269,0.147,4.0
0.0,0.0,0.0,0.0
45.973,0.783,-0.412,0.0
91.848,1.6,1.721,8.0
87.468,1.554,1.163,22.0
91.846,1.662,0.722,20.0
73.939,1.363,0.172,4.0
0.0,0.0,0.0,0.0
0.0,0.0,0.0,0.0
91.975,1.796,1.761,12.0
85.422,1.697,1.171,10.0
85.314,1.723,0.705,25.0
77.586,1.593,0.21,4.0
0.0,0.0,0.0,0.0
48.457,1.028,-0.395,0.0
85.264,1.845,1.665,34.0
85.244,1.874,1.2,36.0
85.223,1.901,0.735,26.0
72.101,1.632,0.221,11.0
67.481,1.55,-0.16,6.0
0.0,0.0,0.0,0.0
85.264,2.024,1.693,31.0
85.306,2.054,1.229,29.0
85.143,2.078,0.761,18.0
71.959,1.78,0.243,9.0
65.884,1.651,-0.136,7.0
0.0,0.0,0.0,0.0
78.958,2.04,1.591,20.0
76.045,1.99,1.117,11.0
78.886,2.089,0.728,29.0
71.944,1.93,0.263,15.0
64.336,1.747,-0.115,4.0
0.0,0.0,0.0,0.0
78.843,2.203,1.609,28.0
78.865,2.229,1.179,30.0
78.877,2.256,0.747,25.0
71.832,2.077,0.28,14.0
62.706,1.834,-0.098,4.0
0.0,0.0,0.0,0.0
79.03,2.375,1.631,9.0
120.04,3.646,1.82,17.0
119.951,3.683,1.161,11.0
71.862,2.23,0.295,13.0
61.684,1.935,-0.084,5.0
0.0,0.0,0.0,0.0
72.461,2.329,1.509,28.0
72.402,2.351,1.11,35.0
72.348,2.374,0.713,33.0
71.821,2.379,0.306,13.0
60.62,2.027,-0.073,3.0
54.162,1.829,-0.363,0.0
72.358,2.477,1.517,33.0
72.361,2.501,1.12,36.0
72.344,2.524,0.722,28.0
71.745,2.525,0.315,15.0
59.435,2.112,-0.065,7.0
52.63,1.888,-0.347,1.0
72.469,2.633,1.527,18.0
61.238,2.244,0.953,7.0
63.259,2.339,0.637,11.0
71.809,2.677,0.321,10.0
58.706,2.208,-0.06,9.0
52.477,1.99,-0.342,0.0
50.358,1.933,1.064,4.0
64.451,2.494,1.008,11.0
64.811,2.529,0.656,6.0
66.049,2.598,0.298,16.0
58.793,2.331,-0.057,8.0
54.926,2.196,-0.356,0.0
49.834,2.017,1.055,8.0
66.211,2.7,1.037,8.0
66.08,2.715,0.67,32.0
66.014,2.734,0.299,23.0
58.811,2.455,-0.057,30.0
54.324,2.284,-0.352,1.0
49.357,2.099,1.045,8.0
66.068,2.83,1.033,28.0
66.053,2.85,0.669,31.0
66.028,2.87,0.297,20.0
58.711,2.571,-0.059,9.0
52.977,2.336,-0.346,8.0
48.953,2.183,1.034,10.0
66.088,2.968,1.031,18.0
66.108,2.99,0.666,18.0
66.059,3.007,0.293,12.0
58.612,2.686,-0.063,12.0
52.127,2.406,-0.344,4.0
48.622,2.268,1.023,15.0
48.182,2.262,0.747,10.0
119.995,5.67,1.197,16.0
66.096,3.143,0.287,3.0
58.511,2.8,-0.069,15.0
51.084,2.461,-0.343,1.0
48.332,2.353,1.011,13.0
47.992,2.35,0.738,29.0
120.043,5.916,1.182,14.0
66.095,3.276,0.278,3.0
52.454,2.616,-0.069,18.0
50.169,2.518,-0.344,3.0
48.081,2.438,0.998,17.0
47.794,2.438,0.727,38.0
59.424,3.048,0.575,27.0
59.35,3.062,0.239,25.0
52.216,2.71,-0.079,25.0
49.147,2.565,-0.347,2.0
47.902,2.524,0.985,30.0
59.351,3.145,0.891,20.0
59.337,3.161,0.562,29.0
59.288,3.177,0.226,20.0
51.801,2.79,-0.089,15.0
48.223,2.612,-0.351,1.0
47.732,2.609,0.971,39.0
59.379,3.263,0.878,29.0
59.367,3.28,0.548,23.0
59.297,3.293,0.211,19.0
51.493,2.875,-0.102,21.0
47.448,2.664,-0.358,8.0
47.577,2.696,0.955,41.0
116.261,6.619,1.688,7.0
115.951,6.636,1.038,9.0
59.295,3.41,0.195,7.0
51.375,2.969,-0.116,22.0
46.473,2.7,-0.364,10.0
114.696,6.724,2.269,7.0
114.365,6.735,1.625,7.0
113.973,6.745,0.985,7.0
52.425,3.117,0.155,9.0
51.216,3.059,-0.133,22.0
45.819,2.75,-0.374,9.0
111.091,6.728,2.16,34.0
111.095,6.76,1.541,93.0
111.103,6.79,0.921,62.0
52.316,3.212,0.136,20.0
51.087,3.151,-0.151,21.0
45.105,2.795,-0.385,7.0
111.043,6.938,2.118,6.0
110.683,6.946,1.494,7.0
110.272,6.95,0.872,7.0
52.102,3.298,0.116,14.0
45.897,2.918,-0.153,19.0
44.402,2.836,-0.396,10.0
52.377,3.373,0.977,11.0
52.33,3.383,0.684,33.0
52.277,3.395,0.391,28.0
51.921,3.385,0.093,14.0
45.766,2.996,-0.173,19.0
43.759,2.877,-0.41,8.0
52.227,3.461,0.952,43.0
52.223,3.474,0.66,42.0
52.207,3.487,0.367,25.0
51.844,3.476,0.069,19.0
45.491,3.063,-0.193,19.0
43.099,2.914,-0.424,4.0
52.188,3.555,0.926,40.0
52.195,3.569,0.634,34.0
52.177,3.582,0.342,23.0
51.786,3.568,0.044,20.0
45.061,3.117,-0.213,19.0
42.334,2.94,-0.437,8.0
52.226,3.654,0.9,28.0
52.22,3.667,0.607,25.0
52.195,3.679,0.314,18.0
51.769,3.662,0.017,7.0
0.0,0.0,0.0,0.0
41.452,2.955,-0.451,3.0
102.129,7.333,1.705,40.0
52.338,3.771,0.58,9.0
52.255,3.779,0.286,17.0
46.018,3.339,-0.01,18.0
44.545,3.244,-0.26,13.0
41.084,3.003,-0.47,2.0
101.523,7.472,1.637,2.0
101.264,7.478,1.063,4.0
52.363,3.88,0.255,2.0
45.852,3.409,-0.037,20.0
41.677,3.109,-0.268,14.0
40.435,3.027,-0.487,2.0
100.34,7.564,1.556,9.0
100.182,7.577,0.99,10.0
97.393,7.39,0.415,3.0
45.547,3.467,-0.066,19.0
41.019,3.132,-0.29,15.0
40.205,3.08,-0.51,2.0
99.325,7.661,1.477,8.0
99.156,7.67,0.917,7.0
45.921,3.563,0.166,1.0
45.278,3.525,-0.095,19.0
40.8,3.186,-0.315,14.0
36.492,2.858,-0.487,0.0
45.953,3.623,0.653,8.0
45.906,3.629,0.393,37.0
45.81,3.632,0.134,24.0
45.121,3.588,-0.125,24.0
40.602,3.238,-0.341,15.0
35.786,2.863,-0.503,0.0
45.822,3.689,0.619,44.0
45.802,3.698,0.36,37.0
45.723,3.702,0.102,27.0
44.978,3.652,-0.157,24.0
40.356,3.286,-0.368,9.0
35.122,2.868,-0.519,0.0
45.781,3.762,0.585,40.0
45.755,3.77,0.326,33.0
45.614,3.769,0.068,24.0
44.649,3.699,-0.189,19.0
40.112,3.332,-0.396,6.0
34.225,2.852,-0.531,0.0
45.769,3.835,0.55,36.0
45.742,3.843,0.291,24.0
45.575,3.839,0.032,20.0
43.934,3.711,-0.22,19.0
39.963,3.384,-0.426,11.0
33.68,2.86,-0.549,1.0
45.8,3.911,0.514,26.0
45.77,3.919,0.255,18.0
45.442,3.9,-0.003,19.0
0.0,0.0,0.0,0.0
39.854,3.438,-0.457,7.0
32.606,2.82,-0.558,1.0
93.16,8.102,0.97,29.0
45.865,3.998,0.218,15.0
45.404,3.967,-0.041,19.0
41.023,3.593,-0.273,16.0
39.737,3.489,-0.489,6.0
31.819,2.801,-0.572,0.0
93.003,8.232,0.889,12.0
92.839,8.236,0.362,5.0
45.318,4.029,-0.079,19.0
40.536,3.613,-0.304,16.0
39.634,3.541,-0.522,2.0
31.118,2.786,-0.586,0.0
92.268,8.305,0.802,10.0
45.685,4.121,0.138,16.0
45.16,4.083,-0.118,19.0
40.211,3.644,-0.337,16.0
35.972,3.267,-0.506,1.0
30.346,2.762,-0.599,0.0
91.486,8.37,0.713,10.0
91.296,8.371,0.193,7.0
44.558,4.093,-0.158,19.0
39.838,3.668,-0.37,13.0
35.503,3.276,-0.532,2.0
29.382,2.717,-0.607,0.0
90.799,8.436,0.624,10.0
73.424,6.835,0.088,3.0
43.572,4.064,-0.194,18.0
39.485,3.691,-0.404,9.0
35.018,3.28,-0.557,1.0
28.677,2.692,-0.619,0.0
90.084,8.495,0.534,11.0
45.713,4.319,0.011,1.0
42.766,4.049,-0.231,18.0
39.391,3.737,-0.441,9.0
32.203,3.061,-0.543,0.0
27.905,2.658,-0.629,0.0
89.437,8.556,0.444,11.0
45.603,4.37,-0.032,4.0
41.622,3.996,-0.266,18.0
39.336,3.784,-0.478,10.0
31.581,3.044,-0.563,1.0
27.113,2.618,-0.638,0.0
88.806,8.612,0.354,11.0
45.585,4.428,-0.077,18.0
40.26,3.918,-0.297,16.0
39.265,3.828,-0.516,6.0
31.051,3.033,-0.585,1.0
26.497,2.593,-0.65,0.0
88.207,8.667,0.262,6.0
0.0,0.0,0.0,0.0
39.821,3.925,-0.334,15.0
39.207,3.872,-0.556,1.0
30.132,2.981,-0.599,0.0
25.821,2.559,-0.66,0.0
0.0,0.0,0.0,0.0
0.0,0.0,0.0,0.0
39.447,3.937,-0.372,14.0
33.859,3.385,-0.515,0.0
29.138,2.918,-0.61,0.0
25.275,2.536,-0.672,0.0
86.931,8.754,0.078,4.0
43.147,4.352,-0.206,18.0
39.185,3.958,-0.411,9.0
33.508,3.39,-0.545,1.0
28.214,2.859,-0.62,0.0
24.564,2.494,-0.68,0.0
69.976,7.128,-0.012,3.0
0.0,0.0,0.0,0.0
39.1,3.995,-0.452,8.0
33.128,3.39,-0.575,0.0
27.265,2.794,-0.629,0.0
23.818,2.445,-0.685,0.0
52.171,5.373,-0.065,2.0
40.272,4.153,-0.279,16.0
39.056,4.034,-0.494,8.0
30.882,3.194,-0.57,0.0
26.791,2.775,-0.647,0.0
23.382,2.426,-0.698,0.0
45.624,4.748,-0.107,4.0
39.751,4.142,-0.32,26.0
39.005,4.07,-0.537,4.0
30.3,3.166,-0.592,1.0
26.001,2.721,-0.657,0.0
22.751,2.384,-0.705,0.0
45.566,4.789,-0.158,5.0
39.417,4.149,-0.362,15.0
38.986,4.109,-0.58,0.0
29.251,3.087,-0.605,0.0
25.324,2.676,-0.669,0.0
22.261,2.356,-0.715,0.0
42.851,4.547,-0.197,18.0
39.068,4.151,-0.402,12.0
32.73,3.481,-0.524,0.0
28.329,3.017,-0.618,0.0
24.745,2.639,-0.681,0.0
21.588,2.305,-0.718,0.0
41.108,4.401,-0.236,17.0
38.932,4.173,-0.446,8.0
32.23,3.459,-0.553,1.0
27.301,2.933,-0.627,0.0
23.877,2.569,-0.685,0.0
20.993,2.261,-0.722,0.0
40.24,4.345,-0.277,22.0
38.882,4.203,-0.49,9.0
31.702,3.43,-0.58,1.0
26.632,2.885,-0.643,0.0
23.29,2.526,-0.695,0.0
20.58,2.235,-0.732,0.0
39.627,4.313,-0.319,26.0
38.847,4.232,-0.535,5.0
30.137,3.287,-0.587,1.0
25.849,2.822,-0.654,0.0
22.691,2.48,-0.704,0.0
20.137,2.204,-0.74,0.0
39.333,4.313,-0.363,15.0
38.827,4.262,-0.58,0.0
29.204,3.209,-0.603,0.0
25.216,2.773,-0.668,0.0
22.153,2.439,-0.714,0.0
19.713,2.173,-0.748,0.0
38.939,4.3,-0.406,12.0
32.58,3.601,-0.526,0.0
28.346,3.136,-0.62,0.0
24.43,2.706,-0.676,0.0
21.594,2.394,-0.722,0.0
19.255,2.137,-0.754,0.0
38.799,4.313,-0.451,9.0
31.668,3.523,-0.549,1.0
27.201,3.029,-0.627,0.0
23.838,2.657,-0.688,0.0
20.99,2.342,-0.726,0.0
18.755,2.095,-0.756,0.0
38.761,4.336,-0.496,17.0
31.021,3.473,-0.575,1.0
26.57,2.977,-0.645,0.0
23.109,2.592,-0.695,0.0
20.328,2.282,-0.728,0.0
18.263,2.052,-0.759,0.0
38.748,4.36,-0.544,4.0
29.911,3.368,-0.591,0.0
25.723,2.898,-0.655,0.0
22.565,2.545,-0.706,0.0
20.033,2.261,-0.742,0.0
17.976,2.031,-0.769,0.0
38.746,4.383,-0.59,0.0
28.839,3.264,-0.604,0.0
24.894,2.82,-0.664,0.0
21.884,2.481,-0.712,0.0
19.57,2.22,-0.749,0.0
17.62,2.001,-0.775,0.0
32.514,3.696,-0.535,0.0
27.903,3.174,-0.619,0.0
24.246,2.76,-0.677,0.0
21.301,2.426,-0.719,0.0
19.119,2.179,-0.755,0.0
17.193,1.962,-0.778,0.0
31.152,3.557,-0.551,0.0
26.967,3.081,-0.631,0.0
23.525,2.689,-0.686,0.0
20.728,2.371,-0.725,0.0
18.549,2.123,-0.755,0.0
16.883,1.934,-0.784,0.0
30.518,3.499,-0.577,1.0
26.232,3.009,-0.646,0.0
23.047,2.645,-0.7,0.0
20.259,2.327,-0.733,0.0
18.157,2.087,-0.761,0.0
16.55,1.903,-0.789,0.0
29.294,3.371,-0.589,0.0
25.451,2.93,-0.658,0.0
22.318,2.571,-0.705,0.0
19.776,2.279,-0.74,0.0
17.84,2.057,-0.77,0.0
16.245,1.875,-0.795,0.0
28.405,3.279,-0.606,0.0
24.824,2.867,-0.672,0.0
21.607,2.497,-0.709,0.0
19.428,2.246,-0.751,0.0
17.45,2.018,-0.775,0.0
16.006,1.853,-0.803,0.0
27.319,3.163,-0.617,1.0
23.99,2.778,-0.679,0.0
21.071,2.441,-0.717,0.0
18.782,2.177,-0.749,0.0
17.067,1.98,-0.779,0.0
15.697,1.822,-0.807,0.0
26.668,3.095,-0.635,1.0
23.3,2.705,-0.688,0.0
20.6,2.393,-0.727,0.0
18.429,2.141,-0.758,0.0
16.743,1.946,-0.785,0.0
15.385,1.79,-0.809,0.0
25.884,3.01,-0.648,0.0
22.785,2.65,-0.701,0.0
20.063,2.335,-0.732,0.0
17.997,2.095,-0.762,0.0
16.459,1.917,-0.791,0.0
15.13,1.763,-0.814,0.0
25.142,2.929,-0.66,0.0
22.028,2.566,-0.704,0.0
19.623,2.287,-0.74,0.0
17.651,2.058,-0.769,0.0
16.148,1.883,-0.796,0.0
14.789,1.726,-0.814,0.0
24.472,2.854,-0.672,0.0
21.425,2.499,-0.711,0.0
19.202,2.241,-0.747,0.0
17.149,2.001,-0.768,0.0
15.87,1.853,-0.802,0.0
14.647,1.711,-0.824,0.0
23.701,2.767,-0.679,0.0
20.921,2.442,-0.719,0.0
18.779,2.193,-0.753,0.0
16.965,1.982,-0.78,0.0
15.608,1.824,-0.807,0.0
14.435,1.687,-0.829,0.0
23.136,2.702,-0.69,0.0
20.481,2.392,-0.729,0.0
18.37,2.146,-0.759,0.0
16.649,1.945,-0.785,0.0
15.308,1.789,-0.81,0.0
14.148,1.654,-0.83,0.0
22.538,2.632,-0.699,0.0
19.954,2.331,-0.733,0.0
17.929,2.094,-0.762,0.0
16.313,1.906,-0.788,0.0
14.93,1.745,-0.808,0.0
13.941,1.63,-0.834,0.0
21.78,2.543,-0.701,0.0
19.517,2.279,-0.74,0.0
17.607,2.056,-0.769,0.0
16.02,1.871,-0.794,0.0
14.712,1.718,-0.813,0.0
13.759,1.607,-0.84,0.0
21.37,2.493,-0.713,0.0
19.121,2.231,-0.748,0.0
17.235,2.011,-0.773,0.0
15.799,1.843,-0.801,0.0
14.534,1.696,-0.821,0.0
13.583,1.585,-0.845,0.0
20.808,2.425,-0.719,0.0
18.704,2.18,-0.753,0.0
16.925,1.972,-0.779,0.0
15.507,1.807,-0.804,0.0
14.353,1.673,-0.827,0.0
13.337,1.555,-0.845,0.0
20.363,2.37,-0.727,0.0
18.274,2.126,-0.757,0.0
16.668,1.939,-0.786,0.0
15.258,1.775,-0.809,0.0
14.068,1.637,-0.827,0.0
13.097,1.524,-0.845,0.0
19.899,2.311,-0.733,0.0
17.905,2.08,-0.762,0.0
16.363,1.9,-0.79,0.0
15.006,1.743,-0.812,0.0
13.903,1.614,-0.833,0.0
12.943,1.503,-0.85,0.0
19.527,2.263,-0.741,0.0
17.602,2.04,-0.769,0.0
16.112,1.867,-0.796,0.0
14.809,1.716,-0.818,0.0
13.751,1.593,-0.839,0.0
12.687,1.47,-0.847,0.0
19.08,2.205,-0.745,0.0
17.208,1.989,-0.771,0.0
15.803,1.826,-0.798,0.0
14.584,1.685,-0.822,0.0
13.574,1.568,-0.843,0.0
12.547,1.449,-0.851,0.0
18.642,2.148,-0.748,0.0
16.928,1.95,-0.777,0.0
15.58,1.795,-0.804,0.0
14.313,1.648,-0.822,0.0
13.39,1.542,-0.846,0.0
12.488,1.438,-0.861,0.0
18.227,2.094,-0.751,0.0
16.623,1.909,-0.78,0.0
15.306,1.757,-0.806,0.0
14.157,1.625,-0.828,0.0
13.152,1.509,-0.845,0.0
12.302,1.411,-0.861,0.0
17.975,2.057,-0.759,0.0
16.362,1.872,-0.785,0.0
15.044,1.72,-0.808,0.0
13.935,1.593,-0.83,0.0
13.056,1.492,-0.852,0.0
12.012,1.373,-0.853,0.0
17.64,2.01,-0.763,0.0
16.159,1.841,-0.792,0.0
14.888,1.695,-0.815,0.0
13.777,1.568,-0.834,0.0
12.837,1.461,-0.851,0.0
11.817,1.344,-0.852,0.0
17.347,1.968,-0.768,0.0
15.968,1.811,-0.799,0.0
14.673,1.663,-0.818,0.0
13.619,1.543,-0.839,0.0
12.63,1.43,-0.85,0.0
11.733,1.329,-0.857,0.0
17.065,1.926,-0.773,0.0
15.727,1.774,-0.802,0.0
14.436,1.628,-0.819,0.0
13.492,1.521,-0.844,0.0
12.449,1.403,-0.85,0.0
11.651,1.312,-0.863,0.0
16.842,1.891,-0.779,0.0
15.429,1.731,-0.802,0.0
14.246,1.598,-0.822,0.0
13.206,1.481,-0.839,0.0
12.373,1.387,-0.857,0.0
11.442,1.282,-0.858,0.0
16.627,1.856,-0.785,0.0
15.25,1.702,-0.807,0.0
14.05,1.567,-0.824,0.0
13.112,1.461,-0.845,0.0
12.226,1.362,-0.858,0.0
11.367,1.266,-0.863,0.0
16.392,1.819,-0.789,0.0
15.053,1.669,-0.81,0.0
13.937,1.544,-0.83,0.0
12.971,1.437,-0.848,0.0
12.13,1.343,-0.863,0.0
11.29,1.249,-0.868,0.0
16.123,1.778,-0.79,0.0
14.898,1.641,-0.815,0.0
13.735,1.512,-0.83,0.0
12.773,1.405,-0.846,0.0
11.9,1.308,-0.857,0.0
11.126,1.223,-0.865,0.0
15.904,1.741,-0.793,0.0
14.683,1.606,-0.816,0.0
13.635,1.491,-0.836,0.0
12.676,1.385,-0.851,0.0
11.775,1.286,-0.858,0.0
11.008,1.201,-0.865,0.0
15.757,1.713,-0.799,0.0
14.531,1.578,-0.82,0.0
13.524,1.468,-0.84,0.0
12.518,1.358,-0.85,0.0
11.714,1.269,-0.863,0.0
10.948,1.186,-0.869,0.0
15.555,1.678,-0.801,0.0
14.275,1.539,-0.817,0.0
13.299,1.432,-0.837,0.0
12.434,1.338,-0.855,0.0
11.502,1.237,-0.856,0.0
10.84,1.165,-0.869,0.0
15.362,1.644,-0.804,0.0
14.199,1.518,-0.823,0.0
13.217,1.412,-0.842,0.0
12.265,1.309,-0.853,0.0
11.434,1.219,-0.86,0.0
10.767,1.147,-0.872,0.0
15.189,1.612,-0.806,0.0
14.065,1.491,-0.826,0.0
13.143,1.392,-0.847,0.0
12.122,1.282,-0.852,0.0
11.298,1.194,-0.858,0.0
10.698,1.13,-0.874,0.0
15.076,1.585,-0.811,0.0
13.951,1.466,-0.83,0.0
13.019,1.366,-0.848,0.0
11.999,1.258,-0.852,0.0
11.21,1.174,-0.86,0.0
10.665,1.116,-0.879,0.0
14.919,1.554,-0.813,0.0
13.787,1.435,-0.83,0.0
12.795,1.33,-0.843,0.0
11.889,1.235,-0.852,0.0
11.182,1.16,-0.865,0.0
10.572,1.096,-0.878,0.0
14.776,1.525,-0.815,0.0
13.697,1.412,-0.833,0.0
12.781,1.316,-0.85,0.0
11.824,1.216,-0.855,0.0
11.105,1.141,-0.866,0.0
10.487,1.076,-0.878,0.0
14.646,1.496,-0.817,0.0
13.576,1.385,-0.834,0.0
12.617,1.286,-0.847,0.0
11.791,1.2,-0.86,0.0
11.023,1.121,-0.867,0.0
10.364,1.053,-0.874,0.0
14.508,1.466,-0.818,0.0
13.562,1.369,-0.841,0.0
12.479,1.258,-0.845,0.0
11.703,1.178,-0.86,0.0
10.881,1.094,-0.862,0.0
10.35,1.04,-0.879,0.0
14.382,1.438,-0.819,0.0
13.441,1.342,-0.841,0.0
12.392,1.236,-0.846,0.0
11.618,1.157,-0.86,0.0
10.85,1.079,-0.865,0.0
10.343,1.028,-0.884,0.0
14.324,1.416,-0.823,0.0
13.323,1.315,-0.841,0.0
12.352,1.218,-0.85,0.0
11.503,1.132,-0.858,0.0
10.822,1.064,-0.869,0.0
10.263,1.008,-0.882,0.0
14.207,1.388,-0.823,0.0
13.117,1.279,-0.834,0.0
12.301,1.198,-0.852,0.0
11.403,1.109,-0.856,0.0
10.801,1.049,-0.872,0.0
10.244,0.994,-0.885,0.0
14.107,1.361,-0.824,0.0
13.122,1.264,-0.841,0.0
12.199,1.174,-0.851,0.0
11.333,1.089,-0.855,0.0
10.758,1.032,-0.873,0.0
10.154,0.973,-0.882,0.0
14.012,1.335,-0.824,0.0
13.085,1.245,-0.844,0.0
12.135,1.152,-0.851,0.0
11.306,1.072,-0.858,0.0
10.671,1.01,-0.87,0.0
10.135,0.958,-0.884,0.0
14.007,1.317,-0.829,0.0
13.106,1.23,-0.85,0.0
12.075,1.132,-0.851,0.0
11.246,1.052,-0.858,0.0
10.642,0.994,-0.872,0.0
10.174,0.949,-0.891,0.0
13.893,1.289,-0.827,0.0
12.923,1.197,-0.842,0.0
11.99,1.109,-0.849,0.0
11.253,1.039,-0.862,0.0
10.652,0.982,-0.876,0.0
10.126,0.932,-0.89,0.0
13.836,1.266,-0.828,0.0
12.856,1.174,-0.842,0.0
11.982,1.092,-0.852,0.0
11.206,1.02,-0.861,0.0
10.611,0.964,-0.876,0.0
10.063,0.913,-0.887,0.0
13.776,1.242,-0.828,0.0
12.875,1.159,-0.847,0.0
11.935,1.072,-0.852,0.0
11.161,1.001,-0.861,0.0
10.599,0.949,-0.877,0.0
10.061,0.899,-0.89,0.0
13.776,1.224,-0.831,0.0
12.674,1.124,-0.836,0.0
11.9,1.053,-0.852,0.0
11.129,0.983,-0.861,0.0
10.528,0.928,-0.874,0.0
10.017,0.882,-0.888,0.0
13.778,1.205,-0.834,0.0
12.719,1.11,-0.841,0.0
11.839,1.031,-0.85,0.0
11.094,0.965,-0.86,0.0
10.529,0.914,-0.876,0.0
9.995,0.866,-0.887,0.0
13.723,1.182,-0.833,0.0
12.782,1.098,-0.848,0.0
11.823,1.014,-0.85,0.0
11.105,0.95,-0.862,0.0
10.487,0.895,-0.873,0.0
9.999,0.852,-0.889,0.0
13.686,1.159,-0.832,0.0
12.712,1.074,-0.844,0.0
11.851,0.999,-0.854,0.0
11.102,0.934,-0.863,0.0
10.503,0.882,-0.875,0.0
9.973,0.836,-0.888,0.0
13.709,1.142,-0.835,0.0
12.759,1.06,-0.848,0.0
11.847,0.982,-0.854,0.0
11.069,0.915,-0.861,0.0
10.499,0.866,-0.876,0.0
10.02,0.825,-0.892,0.0
13.76,1.126,-0.838,0.0
12.74,1.04,-0.847,0.0
11.819,0.963,-0.852,0.0
11.09,0.901,-0.863,0.0
10.472,0.849,-0.873,0.0
10.016,0.81,-0.892,0.0
13.696,1.101,-0.834,0.0
12.674,1.016,-0.843,0.0
11.836,0.947,-0.853,0.0
11.093,0.885,-0.863,0.0
10.48,0.834,-0.874,0.0
9.99,0.793,-0.889,0.0
13.67,1.079,-0.832,0.0
12.801,1.008,-0.85,0.0
11.839,0.929,-0.852,0.0
11.08,0.868,-0.861,0.0
10.51,0.821,-0.875,0.0
10.018,0.781,-0.891,0.0
13.71,1.061,-0.833,0.0
12.638,0.976,-0.838,0.0
11.828,0.911,-0.85,0.0
11.106,0.853,-0.862,0.0
10.488,0.804,-0.872,0.0
10.043,0.767,-0.891,0.0
13.692,1.04,-0.83,0.0
12.839,0.972,-0.85,0.0
11.867,0.896,-0.851,0.0
11.101,0.836,-0.859,0.0
10.541,0.792,-0.875,0.0
10.065,0.754,-0.892,0.0
13.765,1.025,-0.832,0.0
12.815,0.951,-0.846,0.0
11.875,0.879,-0.85,0.0
11.119,0.821,-0.859,0.0
10.614,0.781,-0.879,0.0
10.088,0.74,-0.892,0.0
13.77,1.004,-0.829,0.0
12.91,0.939,-0.849,0.0
11.91,0.863,-0.849,0.0
11.179,0.808,-0.86,0.0
10.57,0.762,-0.873,0.0
10.102,0.726,-0.89,0.0
13.844,0.988,-0.83,0.0
12.928,0.92,-0.847,0.0
11.947,0.847,-0.849,0.0
11.228,0.794,-0.861,0.0
10.609,0.748,-0.873,0.0
10.108,0.711,-0.888,0.0
13.91,0.971,-0.83,0.0
12.961,0.902,-0.845,0.0
12.016,0.834,-0.85,0.0
11.246,0.778,-0.859,0.0
10.65,0.735,-0.872,0.0
10.156,0.698,-0.888,0.0
13.981,0.955,-0.829,0.0
13.059,0.889,-0.847,0.0
12.138,0.824,-0.854,0.0
11.293,0.764,-0.858,0.0
10.666,0.719,-0.87,0.0
10.182,0.684,-0.887,0.0
14.041,0.937,-0.827,0.0
13.101,0.871,-0.844,0.0
12.132,0.804,-0.849,0.0
11.367,0.751,-0.859,0.0
10.732,0.706,-0.87,0.0
10.213,0.67,-0.885,0.0
14.113,0.92,-0.825,0.0
13.185,0.856,-0.844,0.0
12.239,0.792,-0.851,0.0
11.385,0.734,-0.855,0.0
10.774,0.692,-0.869,0.0
10.233,0.655,-0.882,0.0
14.283,0.908,-0.828,0.0
13.232,0.838,-0.84,0.0
12.279,0.775,-0.847,0.0
11.514,0.724,-0.859,0.0
10.857,0.681,-0.87,0.0
10.287,0.642,-0.881,0.0
14.289,0.886,-0.821,0.0
13.306,0.822,-0.838,0.0
12.341,0.76,-0.845,0.0
11.541,0.708,-0.855,0.0
10.896,0.666,-0.867,0.0
10.356,0.63,-0.881,0.0
14.379,0.869,-0.819,0.0
13.483,0.812,-0.841,0.0
12.443,0.746,-0.845,0.0
11.621,0.694,-0.854,0.0
10.977,0.653,-0.867,0.0
10.405,0.617,-0.879,0.0
14.469,0.852,-0.815,0.0
13.603,0.798,-0.841,0.0
12.667,0.74,-0.852,0.0
11.687,0.68,-0.852,0.0
11.023,0.639,-0.864,0.0
10.461,0.604,-0.877,0.0
14.597,0.836,-0.813,0.0
13.663,0.779,-0.835,0.0
12.697,0.721,-0.846,0.0
11.774,0.666,-0.85,0.0
11.11,0.626,-0.863,0.0
10.563,0.593,-0.879,0.0
14.809,0.825,-0.814,0.0
13.756,0.763,-0.832,0.0
12.93,0.714,-0.852,0.0
11.886,0.653,-0.85,0.0
11.173,0.612,-0.86,0.0
10.616,0.579,-0.875,0.0
14.956,0.809,-0.811,0.0
13.844,0.746,-0.827,0.0
12.956,0.695,-0.844,0.0
12.019,0.642,-0.85,0.0
11.284,0.6,-0.86,0.0
10.694,0.566,-0.873,0.0
15.088,0.793,-0.807,0.0
14.075,0.736,-0.829,0.0
13.106,0.682,-0.844,0.0
12.143,0.629,-0.849,0.0
11.428,0.59,-0.861,0.0
10.793,0.554,-0.873,0.0
15.275,0.779,-0.805,0.0
14.2,0.72,-0.825,0.0
13.198,0.666,-0.839,0.0
12.285,0.617,-0.849,0.0
11.511,0.576,-0.858,0.0
10.914,0.543,-0.873,0.0
15.471,0.764,-0.802,0.0
14.379,0.707,-0.823,0.0
13.328,0.652,-0.835,0.0
12.456,0.606,-0.85,0.0
11.597,0.562,-0.854,0.0
11.019,0.531,-0.872,0.0
15.719,0.752,-0.801,0.0
14.504,0.691,-0.817,0.0
13.586,0.643,-0.839,0.0
12.588,0.593,-0.847,0.0
11.732,0.55,-0.853,0.0
11.141,0.52,-0.871,0.0
15.95,0.739,-0.797,0.0
14.645,0.675,-0.811,0.0
13.765,0.631,-0.837,0.0
12.827,0.585,-0.851,0.0
11.874,0.538,-0.852,0.0
11.228,0.506,-0.867,0.0
16.155,0.723,-0.792,0.0
14.951,0.666,-0.814,0.0
13.866,0.614,-0.83,0.0
12.992,0.572,-0.849,0.0
12.043,0.527,-0.852,0.0
11.31,0.493,-0.861,0.0
16.486,0.713,-0.791,0.0
15.172,0.652,-0.81,0.0
14.163,0.605,-0.833,0.0
13.144,0.559,-0.845,0.0
12.206,0.516,-0.851,0.0
11.39,0.479,-0.855,0.0
16.719,0.697,-0.785,0.0
15.424,0.64,-0.807,0.0
14.312,0.59,-0.826,0.0
13.31,0.545,-0.841,0.0
12.404,0.505,-0.851,0.0
11.568,0.468,-0.856,0.0
17.065,0.686,-0.783,0.0
15.651,0.625,-0.802,0.0
14.508,0.576,-0.821,0.0
13.553,0.535,-0.842,0.0
12.575,0.493,-0.849,0.0
11.714,0.457,-0.853,0.0
17.331,0.67,-0.775,0.0
15.88,0.61,-0.795,0.0
14.759,0.564,-0.818,0.0
13.745,0.522,-0.837,0.0
12.855,0.485,-0.852,0.0
11.866,0.445,-0.851,0.0
17.73,0.659,-0.772,0.0
16.277,0.601,-0.796,0.0
15.015,0.551,-0.815,0.0
13.934,0.508,-0.832,0.0
13.01,0.471,-0.847,0.0
12.085,0.435,-0.852,0.0
18.0,0.643,-0.762,0.0
16.692,0.592,-0.796,0.0
15.301,0.539,-0.811,0.0
14.216,0.497,-0.832,0.0
13.316,0.463,-0.85,0.0
12.299,0.424,-0.851,0.0
18.477,0.633,-0.759,0.0
16.974,0.577,-0.788,0.0
15.599,0.526,-0.807,0.0
14.406,0.483,-0.824,0.0
13.553,0.451,-0.848,0.0
12.439,0.411,-0.845,0.0
18.839,0.617,-0.75,0.0
17.285,0.562,-0.78,0.0
15.717,0.508,-0.793,0.0
14.657,0.47,-0.819,0.0
13.678,0.435,-0.838,0.0
12.707,0.401,-0.846,0.0
19.388,0.608,-0.746,0.0
17.635,0.549,-0.773,0.0
