X,Y,Z,Reflectivity
67.889,-4.754,2.474,10.0
20.013,-1.407,0.623,9.0
19.997,-1.411,0.516,11.0
20.001,-1.416,0.408,11.0
20.014,-1.423,0.302,11.0
20.029,-1.429,0.197,38.0
67.901,-4.855,2.555,49.0
20.028,-1.437,0.647,7.0
20.015,-1.441,0.54,8.0
20.019,-1.447,0.432,8.0
20.015,-1.452,0.326,8.0
20.037,-1.458,0.221,25.0
67.913,-4.953,2.636,56.0
72.211,-5.284,2.42,21.0
71.898,-5.279,2.029,19.0
75.014,-5.527,1.711,4.0
119.398,-8.827,2.092,86.0
119.297,-8.851,1.459,12.0
67.929,-5.048,2.719,52.0
67.898,-5.061,2.357,28.0
71.6,-5.355,2.107,39.0
119.412,-8.961,2.87,20.0
119.386,-8.988,2.237,86.0
119.261,-9.008,1.603,17.0
71.62,-5.418,2.954,18.0
102.844,-7.804,3.696,22.0
67.908,-5.169,2.081,8.0
67.907,-5.184,1.714,36.0
67.901,-5.201,1.355,65.0
67.885,-5.216,0.996,71.0
67.928,-5.227,2.885,86.0
67.917,-5.242,2.525,85.0
67.908,-5.257,2.166,87.0
67.894,-5.272,1.799,79.0
67.896,-5.287,1.44,69.0
67.889,-5.303,1.082,54.0
67.919,-5.314,2.972,9.0
72.096,-5.657,2.772,10.0
72.389,-5.696,2.401,7.0
71.763,-5.662,1.994,12.0
72.691,-5.752,1.635,14.0
126.532,-10.043,2.179,34.0
71.171,-5.658,3.206,26.0
72.201,-5.754,2.87,17.0
72.046,-5.758,2.483,11.0
74.856,-5.998,2.176,3.0
71.995,-5.784,1.712,15.0
126.531,-10.194,2.342,59.0
67.94,-5.482,3.149,7.0
67.95,-5.497,2.789,44.0
67.924,-5.508,2.428,43.0
72.202,-5.87,2.193,11.0
71.655,-5.84,1.798,10.0
126.512,-10.339,2.506,53.0
67.955,-5.562,3.238,40.0
67.963,-5.575,2.879,44.0
67.949,-5.587,2.518,43.0
72.188,-5.95,2.286,9.0
72.686,-6.006,1.918,9.0
119.273,-9.88,2.519,8.0
67.957,-5.638,3.327,56.0
67.976,-5.652,2.969,44.0
67.95,-5.663,2.609,43.0
67.938,-5.675,2.242,4.0
72.815,-6.096,2.019,8.0
72.893,-6.118,1.637,18.0
67.958,-5.711,3.419,58.0
67.972,-5.725,3.06,44.0
67.962,-5.736,2.7,43.0
67.914,-5.744,2.333,32.0
103.419,-8.767,3.006,9.0
72.734,-6.179,1.731,9.0
67.962,-5.783,3.511,33.0
67.989,-5.796,3.153,44.0
67.976,-5.807,2.793,44.0
67.927,-5.815,2.426,44.0
103.099,-8.845,3.138,14.0
119.251,-10.252,3.001,29.0
71.42,-6.148,3.787,17.0
67.989,-5.864,3.245,49.0
67.981,-5.875,2.886,42.0
67.959,-5.883,2.519,44.0
71.978,-6.244,2.288,6.0
119.24,-10.364,3.162,22.0
71.248,-6.201,3.875,13.0
67.976,-5.927,3.337,45.0
67.984,-5.938,2.978,46.0
67.971,-5.947,2.612,40.0
67.898,-5.952,2.252,8.0
74.173,-6.514,2.068,4.0
71.002,-6.246,3.96,27.0
67.972,-5.988,3.431,43.0
67.989,-5.999,3.072,33.0
72.366,-6.397,2.881,6.0
104.929,-9.29,3.623,5.0
74.701,-6.625,2.185,4.0
70.651,-6.275,4.037,21.0
71.359,-6.348,3.7,10.0
71.413,-6.362,3.325,13.0
70.942,-6.329,2.921,17.0
72.437,-6.473,2.6,5.0
104.453,-9.35,3.198,14.0
71.378,-6.398,4.177,10.0
71.129,-6.385,3.786,48.0
78.571,-7.062,3.767,10.0
71.082,-6.398,3.024,8.0
72.362,-6.523,2.696,3.0
104.761,-9.459,3.352,7.0
70.229,-6.35,4.208,9.0
71.048,-6.433,3.881,13.0
71.308,-6.465,3.517,15.0
71.16,-6.459,3.127,18.0
70.834,-6.439,2.739,4.0
78.751,-7.169,2.631,8.0
0.0,0.0,0.0,0.0
70.552,-6.439,3.952,26.0
71.459,-6.53,3.625,15.0
71.306,-6.523,3.233,8.0
77.564,-7.105,3.108,5.0
72.363,-6.637,2.517,14.0
70.324,-6.46,4.41,17.0
69.697,-6.409,4.002,28.0
71.457,-6.578,3.724,23.0
71.096,-6.552,3.323,8.0
74.692,-6.891,3.096,3.0
77.945,-7.2,2.82,30.0
70.264,-6.501,4.505,17.0
69.693,-6.454,4.099,23.0
70.572,-6.542,3.778,11.0
71.11,-6.598,3.423,18.0
71.126,-6.607,3.048,11.0
70.897,-6.592,2.664,28.0
69.899,-6.51,4.581,21.0
69.822,-6.508,4.205,28.0
73.34,-6.842,4.029,7.0
71.308,-6.658,3.534,9.0
71.054,-6.641,3.145,15.0
74.622,-6.981,2.908,9.0
33.232,-3.114,2.224,47.0
69.968,-6.561,4.313,18.0
73.87,-6.932,4.162,3.0
70.37,-6.608,3.585,15.0
71.045,-6.677,3.244,16.0
77.879,-7.326,3.144,14.0
33.227,-3.13,2.27,55.0
69.83,-6.583,4.401,15.0
70.339,-6.636,4.061,25.0
70.201,-6.627,3.674,12.0
71.094,-6.716,3.345,16.0
77.771,-7.352,3.249,35.0
33.236,-3.147,2.318,60.0
69.805,-6.613,4.498,25.0
70.819,-6.713,4.188,12.0
73.598,-6.981,3.954,9.0
71.075,-6.745,3.442,13.0
77.592,-7.369,3.348,19.0
33.225,-3.161,2.363,54.0
33.228,-3.162,2.187,31.0
69.929,-6.658,4.232,17.0
73.687,-7.019,4.061,5.0
0.0,0.0,0.0,0.0
77.417,-7.382,3.448,8.0
33.229,-3.174,2.41,52.0
33.239,-3.176,2.234,49.0
69.781,-6.67,4.321,31.0
71.929,-6.877,4.066,3.0
71.491,-6.839,3.662,11.0
71.165,-6.811,3.269,13.0
33.227,-3.185,2.456,52.0
33.233,-3.186,2.28,50.0
69.868,-6.701,4.423,35.0
73.728,-7.073,4.269,19.0
71.482,-6.859,3.76,10.0
71.214,-6.836,3.369,6.0
33.223,-3.195,2.502,52.0
33.23,-3.196,2.326,53.0
33.244,-3.198,2.15,7.0
73.786,-7.099,4.373,5.0
71.497,-6.88,3.858,7.0
77.414,-7.451,3.768,5.0
33.219,-3.203,2.547,52.0
33.232,-3.204,2.371,53.0
33.234,-3.204,2.195,38.0
70.338,-6.783,4.265,22.0
74.44,-7.18,4.119,4.0
71.382,-6.885,3.571,7.0
33.227,-3.211,2.594,55.0
33.232,-3.211,2.417,52.0
33.24,-3.212,2.24,49.0
70.56,-6.817,4.375,30.0
74.413,-7.19,4.218,7.0
71.332,-6.892,3.665,16.0
33.224,-3.216,2.638,54.0
33.232,-3.216,2.462,52.0
33.243,-3.216,2.285,51.0
70.403,-6.812,4.459,30.0
74.112,-7.17,4.3,9.0
71.291,-6.896,3.758,14.0
33.227,-3.22,2.683,54.0
33.226,-3.219,2.505,51.0
33.24,-3.22,2.329,54.0
33.229,-3.218,2.148,7.0
0.0,0.0,0.0,0.0
74.005,-7.165,3.998,8.0
33.224,-3.222,2.727,53.0
33.229,-3.222,2.55,52.0
33.231,-3.221,2.373,53.0
33.226,-3.219,2.192,40.0
70.177,-6.798,4.256,9.0
71.911,-6.965,3.979,8.0
33.233,-3.225,2.772,53.0
33.224,-3.222,2.594,53.0
33.232,-3.222,2.417,52.0
33.22,-3.219,2.235,50.0
70.696,-6.849,4.381,24.0
71.74,-6.947,4.064,10.0
33.234,-3.225,2.816,53.0
33.225,-3.222,2.637,54.0
33.223,-3.22,2.459,51.0
33.226,-3.218,2.279,52.0
70.442,-6.82,4.456,35.0
74.162,-7.178,4.295,8.0
33.228,-3.222,2.858,54.0
33.232,-3.22,2.68,53.0
33.218,-3.217,2.501,50.0
33.205,-3.214,2.32,52.0
33.246,-3.216,2.145,7.0
0.0,0.0,0.0,0.0
33.233,-3.22,2.901,52.0
33.22,-3.216,2.722,50.0
33.221,-3.214,2.544,51.0
33.213,-3.211,2.362,53.0
33.235,-3.211,2.186,37.0
70.282,-6.786,4.249,20.0
33.235,-3.215,2.944,53.0
33.23,-3.212,2.765,51.0
33.231,-3.21,2.587,52.0
33.213,-3.205,2.404,51.0
33.234,-3.205,2.228,47.0
70.016,-6.748,4.32,28.0
33.233,-3.209,2.985,53.0
33.222,-3.205,2.805,51.0
33.218,-3.202,2.626,52.0
33.211,-3.198,2.444,51.0
33.228,-3.197,2.267,48.0
69.906,-6.722,4.397,31.0
33.237,-3.202,3.026,54.0
33.218,-3.197,2.845,51.0
33.215,-3.193,2.666,52.0
33.207,-3.189,2.484,50.0
33.219,-3.188,2.307,50.0
69.824,-6.695,4.476,34.0
33.24,-3.193,3.066,53.0
33.221,-3.188,2.885,52.0
33.222,-3.185,2.707,53.0
33.201,-3.179,2.523,50.0
33.213,-3.177,2.346,51.0
69.753,-6.666,4.553,12.0
33.241,-3.183,3.106,51.0
33.216,-3.177,2.924,50.0
33.214,-3.173,2.745,51.0
33.199,-3.168,2.562,50.0
33.206,-3.165,2.384,51.0
33.236,-3.165,2.208,46.0
33.245,-3.172,3.145,50.0
33.221,-3.166,2.963,50.0
33.219,-3.162,2.783,51.0
33.193,-3.155,2.599,52.0
33.209,-3.153,2.422,50.0
33.221,-3.15,2.244,49.0
33.248,-3.16,3.183,46.0
33.219,-3.152,3.001,46.0
33.204,-3.146,2.82,45.0
33.194,-3.141,2.637,47.0
33.206,-3.139,2.459,49.0
33.236,-3.138,2.282,58.0
47.2,-4.465,4.572,16.0
33.243,-3.14,3.04,3.0
33.203,-3.132,2.856,2.0
33.204,-3.127,2.674,3.0
33.2,-3.123,2.494,6.0
33.219,-3.121,2.317,32.0
47.203,-4.444,4.623,38.0
47.351,-4.45,4.381,2.0
76.042,-7.136,6.624,14.0
81.453,-7.633,6.646,5.0
70.686,-6.614,5.386,16.0
70.028,-6.543,4.959,20.0
47.176,-4.417,4.671,31.0
73.629,-6.883,6.89,6.0
74.692,-6.971,6.585,21.0
73.999,-6.895,6.115,12.0
71.063,-6.611,5.488,27.0
70.338,-6.534,5.053,35.0
47.179,-4.391,4.72,24.0
47.303,-4.395,4.475,3.0
74.631,-6.923,6.656,20.0
73.769,-6.832,6.172,27.0
71.002,-6.565,5.556,14.0
70.344,-6.494,5.123,24.0
47.273,-4.373,4.777,17.0
50.832,-4.693,4.86,6.0
74.969,-6.909,6.761,6.0
73.629,-6.774,6.232,29.0
71.016,-6.523,5.626,14.0
70.459,-6.461,5.201,22.0
47.295,-4.346,4.826,14.0
73.797,-6.768,7.128,11.0
79.904,-7.314,7.282,5.0
71.367,-6.521,6.108,9.0
71.115,-6.486,5.701,14.0
70.336,-6.404,5.257,23.0
47.37,-4.322,4.878,15.0
73.647,-6.705,7.182,29.0
76.805,-6.979,7.071,6.0
71.3,-6.466,6.169,9.0
71.206,-6.446,5.774,6.0
70.66,-6.384,5.346,28.0
47.362,-4.288,4.921,8.0
73.68,-6.657,7.253,15.0
73.672,-6.643,6.849,11.0
76.172,-6.854,6.659,6.0
74.611,-6.701,6.115,6.0
70.747,-6.342,5.414,29.0
47.407,-4.258,4.968,4.0
73.863,-6.62,7.335,11.0
73.439,-6.567,6.892,33.0
76.105,-6.792,6.718,8.0
74.271,-6.614,6.152,14.0
70.78,-6.291,5.477,21.0
0.0,0.0,0.0,0.0
73.267,-6.51,7.339,29.0
73.715,-6.535,6.979,26.0
73.209,-6.476,6.523,4.0
74.524,-6.579,6.234,8.0
70.899,-6.245,5.544,15.0
0.0,0.0,0.0,0.0
73.013,-6.429,7.372,22.0
73.698,-6.474,7.037,29.0
73.374,-6.432,6.597,11.0
71.369,-6.242,6.026,16.0
70.866,-6.184,5.597,10.0
70.841,-6.194,7.598,19.0
72.528,-6.326,7.379,8.0
73.633,-6.407,7.087,16.0
78.081,-6.779,7.079,7.0
71.324,-6.179,6.075,8.0
70.926,-6.13,5.654,12.0
0.0,0.0,0.0,0.0
70.254,-6.068,7.2,20.0
73.546,-6.337,7.133,22.0
73.312,-6.301,6.7,8.0
71.309,-6.115,6.125,23.0
70.406,-6.023,5.662,31.0
70.455,-6.038,7.659,20.0
70.316,-6.01,7.257,9.0
73.459,-6.263,7.176,18.0
77.88,-6.623,7.171,5.0
71.95,-6.104,6.23,23.0
70.448,-5.962,5.713,21.0
70.578,-5.983,7.721,33.0
70.676,-5.976,7.341,11.0
73.228,-6.176,7.202,10.0
0.0,0.0,0.0,0.0
72.266,-6.063,6.304,7.0
70.408,-5.892,5.756,7.0
70.429,-5.904,7.75,35.0
70.442,-5.889,7.361,21.0
73.186,-6.102,7.244,13.0
71.029,-5.906,6.631,9.0
72.256,-5.992,6.348,4.0
70.472,-5.829,5.804,4.0
70.911,-5.875,7.846,15.0
70.794,-5.849,7.441,39.0
73.16,-6.027,7.285,14.0
71.7,-5.891,6.735,11.0
72.769,-5.963,6.434,8.0
73.34,-5.993,6.081,7.0
70.501,-5.77,7.841,28.0
72.224,-5.895,7.631,17.0
73.17,-5.954,7.326,16.0
71.949,-5.838,6.798,18.0
70.894,-5.737,6.307,9.0
73.281,-5.913,6.115,19.0
70.448,-5.694,7.872,19.0
71.696,-5.777,7.613,21.0
72.22,-5.802,7.268,17.0
71.796,-5.751,6.82,11.0
70.928,-5.666,6.345,15.0
70.789,-5.639,5.941,13.0
71.398,-5.695,8.014,23.0
71.194,-5.661,7.595,11.0
71.937,-5.702,7.274,27.0
71.017,-5.612,6.779,13.0
73.57,-5.797,6.616,10.0
70.667,-5.552,5.964,12.0
71.315,-5.611,8.037,26.0
71.465,-5.605,7.655,20.0
71.607,-5.598,7.272,21.0
78.931,-6.152,7.569,8.0
67.993,-5.283,6.142,22.0
68.0,-5.267,5.767,76.0
70.578,-5.475,7.983,47.0
70.749,-5.47,7.607,29.0
71.624,-5.52,7.302,25.0
71.469,-5.49,6.881,8.0
68.012,-5.208,6.17,38.0
70.549,-5.386,6.009,13.0
70.703,-5.404,8.023,33.0
71.562,-5.45,7.721,25.0
71.272,-5.411,7.291,29.0
68.015,-5.147,6.572,52.0
70.776,-5.339,6.445,9.0
70.59,-5.307,6.036,6.0
70.548,-5.31,8.03,33.0
70.566,-5.294,7.636,22.0
71.627,-5.355,7.35,12.0
68.026,-5.069,6.594,10.0
70.987,-5.272,6.485,14.0
72.195,-5.344,6.194,11.0
70.633,-5.234,8.059,26.0
70.342,-5.194,7.631,31.0
74.308,-5.468,7.645,6.0
78.003,-5.719,7.582,7.0
71.178,-5.201,6.521,11.0
72.27,-5.264,6.218,12.0
70.702,-5.154,8.085,10.0
70.69,-5.135,7.686,42.0
72.104,-5.219,7.435,8.0
69.346,-5.001,6.756,5.0
77.886,-5.598,7.152,4.0
72.054,-5.161,6.215,15.0
70.427,-5.049,8.067,28.0
70.443,-5.031,7.673,47.0
68.041,-4.843,7.029,17.0
69.404,-4.923,6.773,19.0
72.873,-5.15,6.704,9.0
72.171,-5.083,6.236,23.0
70.489,-4.968,8.086,36.0
71.445,-5.017,7.793,17.0
68.056,-4.761,7.04,29.0
69.599,-4.85,6.802,31.0
73.083,-5.074,6.733,21.0
69.337,-4.797,6.0,14.0
70.403,-4.873,8.084,42.0
71.14,-4.906,7.768,16.0
68.07,-4.676,7.049,26.0
69.998,-4.791,6.847,47.0
0.0,0.0,0.0,0.0
72.157,-4.902,6.25,13.0
70.082,-4.764,8.052,38.0
0.0,0.0,0.0,0.0
68.098,-4.593,7.056,19.0
69.92,-4.697,6.843,19.0
69.692,-4.665,6.429,17.0
64.313,-4.288,5.573,33.0
70.933,-4.73,8.152,39.0
70.042,-4.652,7.653,13.0
59.423,-3.931,6.158,30.0
64.023,-4.219,6.267,22.0
64.101,-4.208,5.914,37.0
64.193,-4.198,5.562,39.0
70.991,-4.643,8.158,30.0
70.395,-4.585,7.691,29.0
59.363,-3.851,6.15,33.0
63.955,-4.133,6.258,16.0
64.033,-4.121,5.904,38.0
64.002,-4.103,5.542,35.0
70.62,-4.527,8.111,20.0
70.384,-4.493,7.685,26.0
59.341,-3.772,6.143,31.0
59.254,-3.751,5.793,34.0
64.046,-4.038,5.9,38.0
63.852,-4.01,5.523,36.0
70.108,-4.402,8.046,19.0
59.412,-3.714,6.48,17.0
59.492,-3.703,6.152,14.0
59.043,-3.66,5.765,33.0
64.025,-3.952,5.89,34.0
63.633,-3.912,5.495,37.0
0.0,0.0,0.0,0.0
59.301,-3.629,6.459,32.0
59.369,-3.617,6.129,22.0
59.071,-3.583,5.758,33.0
63.994,-3.866,5.876,38.0
63.508,-3.82,5.472,37.0
58.845,-3.538,6.733,30.0
58.928,-3.527,6.407,33.0
58.657,-3.495,6.044,33.0
58.754,-3.485,5.714,34.0
63.989,-3.779,5.861,28.0
63.392,-3.728,5.448,36.0
58.698,-3.449,6.702,37.0
58.729,-3.435,6.371,33.0
58.333,-3.397,5.996,32.0
58.554,-3.395,5.679,33.0
59.21,-3.417,5.408,27.0
63.016,-3.621,5.398,38.0
58.662,-3.368,6.681,16.0
58.637,-3.35,6.343,33.0
58.463,-3.325,5.992,27.0
58.333,-3.303,5.641,32.0
58.822,-3.316,5.354,32.0
62.751,-3.521,5.356,36.0
51.984,-2.913,5.904,24.0
58.986,-3.29,6.362,33.0
58.241,-3.233,5.949,32.0
57.571,-3.181,5.547,32.0
0.0,0.0,0.0,0.0
62.591,-3.426,5.319,29.0
52.019,-2.843,5.888,28.0
59.139,-3.217,6.356,33.0
58.379,-3.16,5.94,32.0
56.857,-3.064,5.455,31.0
57.109,-3.063,5.154,30.0
60.243,-3.216,5.095,12.0
51.967,-2.77,5.86,22.0
58.919,-3.125,6.307,33.0
0.0,0.0,0.0,0.0
56.811,-2.984,5.426,33.0
57.052,-2.983,5.125,30.0
60.258,-3.136,5.07,33.0
52.006,-2.701,5.841,17.0
58.355,-3.016,6.22,32.0
56.735,-2.918,5.722,21.0
56.837,-2.909,5.402,30.0
56.988,-2.902,5.091,30.0
60.284,-3.055,5.042,26.0
52.027,-2.631,5.817,31.0
46.745,-2.352,4.958,23.0
56.678,-2.838,5.687,25.0
56.954,-2.837,5.383,31.0
57.215,-2.836,5.081,17.0
56.954,-2.809,4.733,17.0
51.977,-2.558,5.783,34.0
46.751,-2.289,4.933,16.0
56.486,-2.752,5.636,28.0
47.214,-2.288,4.436,32.0
47.534,-2.292,4.194,19.0
44.057,-2.113,3.636,35.0
52.018,-2.488,5.756,30.0
46.7,-2.222,4.899,36.0
46.621,-2.207,4.623,32.0
46.881,-2.207,4.375,36.0
47.354,-2.218,4.149,10.0
44.095,-2.054,3.611,29.0
52.027,-2.417,5.724,26.0
46.658,-2.156,4.865,20.0
46.573,-2.14,4.588,39.0
46.761,-2.137,4.333,45.0
44.069,-2.004,3.831,35.0
44.082,-1.994,3.58,29.0
52.109,-2.349,5.697,26.0
46.555,-2.087,4.822,37.0
46.519,-2.074,4.55,32.0
44.372,-1.967,4.08,33.0
44.111,-1.945,3.803,34.0
44.173,-1.937,3.556,21.0
51.783,-2.263,5.623,17.0
46.784,-2.033,4.811,38.0
46.3,-2.001,4.494,38.0
44.225,-1.901,4.034,47.0
44.136,-1.887,3.772,37.0
44.099,-1.874,3.517,40.0
52.816,-2.237,5.695,8.0
46.713,-1.967,4.767,21.0
46.367,-1.941,4.465,32.0
44.248,-1.842,4.001,27.0
44.219,-1.831,3.745,41.0
44.103,-1.815,3.482,39.0
52.73,-2.162,5.643,27.0
46.545,-1.897,4.712,20.0
46.184,-1.871,4.408,29.0
44.242,-1.782,3.964,38.0
44.096,-1.766,3.697,37.0
44.036,-1.753,3.439,38.0
52.004,-2.062,5.52,27.0
46.558,-1.834,4.673,27.0
44.175,-1.73,4.178,26.0
44.306,-1.725,3.93,36.0
44.139,-1.709,3.662,38.0
44.051,-1.695,3.401,42.0
46.525,-1.782,4.896,15.0
46.469,-1.768,4.621,36.0
46.228,-1.749,4.33,3.0
44.172,-1.661,3.878,42.0
44.174,-1.651,3.624,44.0
44.123,-1.639,3.366,42.0
46.513,-1.719,4.851,19.0
46.57,-1.71,4.587,20.0
44.122,-1.61,4.09,35.0
43.973,-1.595,3.818,40.0
44.17,-1.592,3.581,46.0
44.11,-1.58,3.322,44.0
46.128,-1.644,4.765,21.0
46.528,-1.647,4.536,20.0
44.125,-1.552,4.046,26.0
43.739,-1.528,3.754,37.0
44.37,-1.541,3.552,34.0
44.117,-1.522,3.278,44.0
44.965,-1.542,4.598,19.0
46.494,-1.585,4.484,33.0
44.057,-1.492,3.994,42.0
43.82,-1.474,3.715,34.0
44.293,-1.481,3.499,39.0
45.838,-1.522,3.357,4.0
44.972,-1.484,4.55,22.0
46.627,-1.528,4.447,16.0
43.797,-1.426,3.923,34.0
43.717,-1.415,3.659,39.0
44.585,-1.433,3.474,39.0
0.0,0.0,0.0,0.0
45.407,-1.44,4.544,21.0
43.942,-1.384,4.142,25.0
43.75,-1.369,3.87,41.0
43.695,-1.358,3.607,47.0
44.707,-1.38,3.433,18.0
46.367,-1.422,3.292,21.0
43.632,-1.329,4.316,16.0
44.059,-1.332,4.102,26.0
43.758,-1.313,3.82,42.0
43.728,-1.304,3.559,41.0
44.944,-1.331,3.398,18.0
46.46,-1.366,3.245,21.0
43.571,-1.272,4.258,29.0
43.74,-1.268,4.019,39.0
43.682,-1.257,3.761,45.0
44.018,-1.258,3.53,41.0
44.953,-1.276,3.345,18.0
56.976,-1.605,3.91,18.0
43.589,-1.218,4.206,30.0
43.574,-1.209,3.951,37.0
43.729,-1.204,3.711,42.0
44.502,-1.217,3.514,35.0
44.938,-1.22,3.287,18.0
57.135,-1.54,3.849,11.0
43.545,-1.163,4.146,26.0
43.601,-1.156,3.897,43.0
43.733,-1.151,3.655,35.0
44.806,-1.17,3.479,19.0
44.855,-1.163,3.223,17.0
57.05,-1.468,3.769,10.0
43.66,-1.113,4.099,31.0
43.599,-1.103,3.84,28.0
43.671,-1.097,3.592,42.0
44.843,-1.118,3.423,19.0
55.414,-1.371,3.909,20.0
51.509,-1.265,3.335,35.0
43.061,-1.047,3.985,36.0
43.765,-1.056,3.795,31.0
43.618,-1.044,3.529,29.0
47.346,-1.124,3.55,4.0
51.552,-1.215,3.566,17.0
51.435,-1.203,3.26,39.0
42.861,-0.992,3.907,43.0
43.659,-1.002,3.725,32.0
0.0,0.0,0.0,0.0
48.307,-1.091,3.555,8.0
61.818,-1.385,4.19,9.0
51.445,-1.144,3.189,42.0
43.227,-0.951,3.879,19.0
43.173,-0.942,3.623,37.0
0.0,0.0,0.0,0.0
48.27,-1.036,3.483,22.0
50.399,-1.073,3.344,23.0
51.613,-1.089,3.125,25.0
42.916,-0.895,3.789,38.0
42.987,-0.889,3.544,45.0
45.003,-0.923,3.448,27.0
48.278,-0.981,3.413,18.0
50.592,-1.02,3.282,24.0
61.238,-1.224,3.617,30.0
42.791,-0.845,3.714,41.0
42.916,-0.84,3.474,43.0
48.126,-0.934,3.615,26.0
48.385,-0.931,3.348,22.0
50.397,-0.961,3.194,23.0
61.293,-1.159,3.529,26.0
42.81,-0.799,3.65,36.0
42.874,-0.793,3.405,34.0
48.129,-0.882,3.542,20.0
48.406,-0.88,3.275,20.0
50.933,-0.917,3.149,23.0
61.22,-1.093,3.43,27.0
42.7,-0.752,3.574,43.0
42.833,-0.747,3.335,44.0
48.133,-0.832,3.467,41.0
0.0,0.0,0.0,0.0
61.036,-1.036,3.68,23.0
61.179,-1.029,3.333,8.0
42.625,-0.706,3.5,54.0
42.894,-0.704,3.272,42.0
48.117,-0.783,3.39,42.0
0.0,0.0,0.0,0.0
61.114,-0.975,3.587,15.0
81.693,-1.291,4.319,12.0
42.399,-0.66,3.413,39.0
42.682,-0.658,3.186,24.0
48.309,-0.737,3.324,22.0
50.54,-0.764,3.178,13.0
61.325,-0.918,3.498,26.0
81.886,-1.214,4.196,13.0
42.373,-0.617,3.341,47.0
48.14,-0.695,3.514,15.0
48.325,-0.69,3.245,36.0
61.647,-0.871,3.774,22.0
60.836,-0.851,3.369,10.0
81.218,-1.125,4.025,11.0
42.196,-0.574,3.255,50.0
48.097,-0.648,3.429,26.0
50.656,-0.675,3.315,24.0
61.585,-0.812,3.665,8.0
60.743,-0.793,3.261,10.0
81.215,-1.049,3.888,11.0
42.348,-0.537,3.195,45.0
48.058,-0.603,3.344,36.0
50.703,-0.629,3.231,15.0
60.772,-0.745,3.512,5.0
60.611,-0.735,3.149,12.0
81.029,-0.972,3.737,4.0
42.457,-0.499,3.127,43.0
48.015,-0.558,3.256,21.0
61.797,-0.711,3.83,9.0
60.608,-0.69,3.397,18.0
60.524,-0.681,3.038,12.0
95.517,-1.063,4.239,12.0
42.42,-0.462,3.05,44.0
51.774,-0.557,3.42,25.0
60.833,-0.647,3.662,7.0
60.547,-0.637,3.285,35.0
81.231,-0.844,3.934,16.0
104.385,-1.072,4.446,8.0
47.799,-0.48,3.35,22.0
52.046,-0.516,3.344,9.0
60.78,-0.596,3.55,19.0
60.559,-0.586,3.176,8.0
80.722,-0.772,3.763,9.0
189.79,-1.794,7.742,54.0
50.178,-0.463,3.426,8.0
60.201,-0.548,3.758,21.0
60.624,-0.545,3.429,28.0
86.074,-0.765,4.358,10.0
80.713,-0.707,3.614,9.0
190.541,-1.65,7.42,27.0
50.955,-0.43,3.385,25.0
62.622,-0.521,3.792,7.0
60.776,-0.499,3.324,14.0
95.948,-0.778,4.678,13.0
95.464,-0.763,4.097,18.0
190.56,-1.504,7.066,33.0
59.948,-0.46,3.869,9.0
74.386,-0.563,4.364,4.0
81.536,-0.608,4.307,6.0
95.846,-0.705,4.492,10.0
95.398,-0.693,3.914,10.0
190.706,-1.365,6.712,14.0
60.063,-0.417,3.762,13.0
60.748,-0.416,3.45,12.0
77.845,-0.526,3.965,9.0
95.706,-0.638,4.306,15.0
190.599,-1.251,7.46,23.0
215.647,-1.394,7.182,7.0
60.745,-0.38,3.688,26.0
60.824,-0.375,3.336,16.0
81.065,-0.492,3.973,5.0
95.411,-0.571,4.108,31.0
190.527,-1.122,7.089,35.0
206.474,-1.198,6.477,9.0
60.681,-0.34,3.567,6.0
77.671,-0.428,4.11,16.0
80.903,-0.438,3.806,13.0
189.806,-1.013,7.801,150.0
190.64,-1.0,6.722,9.0
0.0,0.0,0.0,0.0
71.887,-0.358,4.084,1.0
77.665,-0.38,3.958,10.0
103.249,-0.497,4.657,7.0
190.543,-0.901,7.462,23.0
206.726,-0.961,6.885,14.0
119.815,-0.547,3.291,26.0
78.277,-0.343,4.292,10.0
103.104,-0.444,5.05,8.0
95.502,-0.404,4.118,8.0
190.536,-0.792,7.083,24.0
70.293,-0.286,2.201,7.0
119.816,-0.479,3.053,12.0
77.859,-0.298,4.114,10.0
81.049,-0.304,3.809,13.0
117.321,-0.432,4.826,19.0
117.488,-0.425,4.135,14.0
70.218,-0.249,2.061,3.0
119.829,-0.416,2.815,43.0
81.252,-0.269,4.132,10.0
95.388,-0.31,4.292,11.0
117.346,-0.373,4.592,31.0
117.506,-0.365,3.899,21.0
119.766,-0.364,3.274,16.0
119.823,-0.356,2.574,22.0
80.852,-0.228,3.946,5.0
95.369,-0.263,4.096,11.0
117.408,-0.316,4.355,32.0
70.198,-0.184,2.185,19.0
119.828,-0.308,3.028,15.0
115.985,-0.291,2.252,9.0
80.834,-0.191,3.78,9.0
117.38,-0.27,4.799,23.0
117.408,-0.264,4.113,26.0
117.558,-0.257,3.418,8.0
119.868,-0.255,2.783,11.0
115.594,-0.24,2.007,2.0
95.338,-0.185,4.26,10.0
117.418,-0.222,4.558,21.0
117.435,-0.216,3.871,21.0
119.803,-0.214,3.236,9.0
116.081,-0.201,2.456,10.0
114.736,-0.193,1.756,7.0
117.492,-0.183,5.005,13.0
69.97,-0.106,2.57,12.0
70.148,-0.102,2.166,18.0
117.462,-0.167,2.928,19.0
114.981,-0.158,2.192,5.0
111.08,-0.147,1.469,6.0
70.196,-0.085,2.845,4.0
69.948,-0.082,2.424,16.0
70.251,-0.079,2.024,8.0
116.143,-0.126,2.653,5.0
114.674,-0.12,1.947,11.0
117.334,-0.118,1.305,12.0
70.086,-0.063,2.691,21.0
70.077,-0.06,2.281,23.0
117.418,-0.097,3.133,26.0
114.868,-0.091,2.38,7.0
111.106,-0.084,1.652,10.0
117.244,-0.084,1.057,8.0
69.941,-0.044,2.538,26.0
70.12,-0.042,2.133,30.0
117.364,-0.066,2.882,17.0
114.586,-0.061,2.133,8.0
111.09,-0.056,1.416,12.0
110.862,-0.052,0.766,12.0
69.934,-0.027,2.39,24.0
70.236,-0.025,1.988,9.0
115.041,-0.039,2.582,8.0
114.039,-0.035,1.881,7.0
117.278,-0.034,1.248,9.0
103.288,-0.027,0.493,1.0
69.954,-0.013,2.241,20.0
117.387,-0.02,3.075,23.0
114.59,-0.017,2.33,13.0
111.016,-0.014,1.597,8.0
111.113,-0.012,0.946,8.0
95.751,-0.009,0.255,1.0
70.182,-0.002,2.099,27.0
117.474,-0.001,2.826,5.0
114.088,0.0,2.075,16.0
111.117,0.001,1.359,17.0
110.63,0.003,0.705,7.0
0.0,0.0,0.0,0.0
117.41,0.01,3.261,19.0
114.714,0.012,2.513,13.0
111.101,0.012,1.782,7.0
111.164,0.013,1.122,8.0
95.655,0.012,0.404,5.0
0.0,0.0,0.0,0.0
117.412,0.021,3.01,21.0
114.153,0.021,2.257,15.0
111.1,0.021,1.544,14.0
110.861,0.021,0.879,10.0
0.0,0.0,0.0,0.0
0.0,0.0,0.0,0.0
114.865,0.026,2.694,11.0
114.0,0.026,2.006,12.0
111.19,0.025,1.304,15.0
104.285,0.024,0.602,5.0
0.0,0.0,0.0,0.0
0.0,0.0,0.0,0.0
114.418,0.027,2.436,12.0
111.14,0.026,1.716,11.0
111.231,0.025,1.065,6.0
95.558,0.021,0.346,6.0
0.0,0.0,0.0,0.0
45.569,0.009,-0.368,2.0
114.076,0.024,2.184,18.0
111.148,0.023,1.476,15.0
110.802,0.021,0.822,9.0
0.0,0.0,0.0,0.0
0.0,0.0,0.0,0.0
44.738,0.007,-0.458,0.0
114.077,0.017,1.94,7.0
111.163,0.015,1.238,15.0
95.683,0.011,0.506,2.0
0.0,0.0,0.0,0.0
0.0,0.0,0.0,0.0
38.023,0.002,-0.471,0.0
111.114,0.006,1.649,8.0
111.187,0.003,0.999,7.0
95.766,0.001,0.3,3.0
0.0,0.0,0.0,0.0
45.358,-0.001,-0.394,2.0
35.53,-0.002,-0.517,0.0
111.082,-0.009,1.409,16.0
110.598,-0.012,0.755,8.0
0.0,0.0,0.0,0.0
0.0,0.0,0.0,0.0
0.0,0.0,0.0,0.0
0.0,0.0,0.0,0.0
117.245,-0.03,1.233,9.0
97.311,-0.028,0.454,1.0
0.0,0.0,0.0,0.0
45.822,-0.016,-0.327,0.0
37.474,-0.014,-0.487,0.0
30.756,-0.013,-0.58,0.0
111.147,-0.053,0.931,14.0
95.592,-0.049,0.241,2.0
0.0,0.0,0.0,0.0
44.841,-0.026,-0.416,1.0
34.502,-0.021,-0.522,0.0
29.006,-0.019,-0.609,0.0
110.483,-0.08,0.689,4.0
0.0,0.0,0.0,0.0
0.0,0.0,0.0,0.0
40.898,-0.035,-0.467,0.0
0.0,0.0,0.0,0.0
27.202,-0.025,-0.629,0.0
0.0,0.0,0.0,0.0
0.0,0.0,0.0,0.0
45.199,-0.05,-0.342,1.0
36.617,-0.042,-0.495,0.0
30.541,-0.036,-0.593,0.0
26.09,-0.032,-0.659,0.0
0.0,0.0,0.0,0.0
0.0,0.0,0.0,0.0
42.174,-0.061,-0.41,0.0
34.317,-0.051,-0.537,0.0
28.529,-0.044,-0.614,0.0
24.569,-0.039,-0.673,0.0
0.0,0.0,0.0,0.0
0.0,0.0,0.0,0.0
39.776,-0.072,-0.47,0.0
31.946,-0.06,-0.568,0.0
26.781,-0.051,-0.633,0.0
23.45,-0.046,-0.691,0.0
0.0,0.0,0.0,0.0
45.388,-0.098,-0.366,1.0
0.0,0.0,0.0,0.0
29.897,-0.068,-0.594,0.0
25.557,-0.06,-0.657,0.0
22.165,-0.053,-0.7,0.0
0.0,0.0,0.0,0.0
41.349,-0.107,-0.42,0.0
33.253,-0.089,-0.532,0.0
28.149,-0.077,-0.618,0.0
24.157,-0.068,-0.672,0.0
21.308,-0.061,-0.717,0.0
0.0,0.0,0.0,0.0
0.0,0.0,0.0,0.0
30.949,-0.097,-0.56,0.0
26.516,-0.085,-0.637,0.0
23.264,-0.076,-0.695,0.0
20.389,-0.068,-0.729,0.0
45.187,-0.158,-0.381,1.0
0.0,0.0,0.0,0.0
29.482,-0.108,-0.593,0.0
25.394,-0.095,-0.662,0.0
22.065,-0.084,-0.705,2.0
19.66,-0.076,-0.743,0.0
0.0,0.0,0.0,0.0
0.0,0.0,0.0,0.0
27.942,-0.118,-0.62,0.0
23.828,-0.102,-0.671,0.0
20.987,-0.092,-0.713,0.0
18.797,-0.084,-0.749,0.0
0.0,0.0,0.0,0.0
30.992,-0.146,-0.57,0.0
26.421,-0.126,-0.64,0.0
22.804,-0.111,-0.688,0.0
20.33,-0.101,-0.732,0.0
18.148,-0.092,-0.76,0.0
0.0,0.0,0.0,0.0
29.473,-0.157,-0.601,0.0
25.041,-0.135,-0.657,0.0
21.933,-0.121,-0.706,0.0
19.459,-0.109,-0.74,0.0
17.547,-0.1,-0.77,0.0
0.0,0.0,0.0,0.0
27.224,-0.162,-0.609,0.0
0.0,0.0,0.0,0.0
20.948,-0.129,-0.716,0.0
18.768,-0.117,-0.751,0.0
17.017,-0.108,-0.78,0.0
30.87,-0.202,-0.572,0.0
26.328,-0.175,-0.641,0.0
22.765,-0.153,-0.687,0.0
20.152,-0.138,-0.728,0.0
18.232,-0.127,-0.765,0.0
16.493,-0.116,-0.789,0.0
29.538,-0.214,-0.604,0.0
24.775,-0.182,-0.652,0.0
21.923,-0.164,-0.705,0.0
19.455,-0.147,-0.742,0.0
17.564,-0.135,-0.772,0.0
15.892,-0.124,-0.792,0.0
27.724,-0.222,-0.622,0.0
23.796,-0.193,-0.673,0.0
21.114,-0.173,-0.72,0.0
18.854,-0.157,-0.755,0.0
16.864,-0.142,-0.774,0.0
15.508,-0.133,-0.802,0.0
26.04,-0.228,-0.634,0.0
22.598,-0.201,-0.682,0.0
20.326,-0.183,-0.732,0.0
18.108,-0.165,-0.76,0.0
16.492,-0.152,-0.788,0.0
15.088,-0.141,-0.809,0.0
24.769,-0.237,-0.65,0.0
21.836,-0.212,-0.701,0.0
19.452,-0.191,-0.737,0.0
17.668,-0.176,-0.775,0.0
16.0,-0.161,-0.795,0.0
14.738,-0.15,-0.818,0.0
23.606,-0.245,-0.664,0.0
21.022,-0.221,-0.714,0.0
18.886,-0.201,-0.751,0.0
16.892,-0.182,-0.772,0.0
15.633,-0.171,-0.806,0.0
14.277,-0.158,-0.82,0.0
22.816,-0.257,-0.684,0.0
20.365,-0.232,-0.729,0.0
18.191,-0.21,-0.757,0.0
16.615,-0.194,-0.79,0.0
15.243,-0.18,-0.814,0.0
13.963,-0.167,-0.827,0.0
21.729,-0.265,-0.691,0.0
19.492,-0.24,-0.733,0.0
17.598,-0.219,-0.765,0.0
16.106,-0.203,-0.796,0.0
14.655,-0.186,-0.809,0.0
13.607,-0.175,-0.831,0.0
21.016,-0.275,-0.706,0.0
18.817,-0.249,-0.742,0.0
17.211,-0.23,-0.779,0.0
15.632,-0.211,-0.8,0.0
14.556,-0.199,-0.83,0.0
13.354,-0.184,-0.84,0.0
20.161,-0.283,-0.713,0.0
18.322,-0.26,-0.755,0.0
16.705,-0.24,-0.786,0.0
15.22,-0.221,-0.806,0.0
14.049,-0.206,-0.826,0.0
13.079,-0.194,-0.846,0.0
19.895,-0.299,-0.739,0.0
17.772,-0.27,-0.764,0.0
16.245,-0.249,-0.793,0.0
14.779,-0.229,-0.809,0.0
13.689,-0.214,-0.829,0.0
12.677,-0.2,-0.842,0.0
19.124,-0.307,-0.743,0.0
17.187,-0.279,-0.768,0.0
15.815,-0.259,-0.799,0.0
14.481,-0.239,-0.817,0.0
13.467,-0.225,-0.839,0.0
12.397,-0.209,-0.844,0.0
18.235,-0.312,-0.74,0.0
16.814,-0.29,-0.78,0.0
15.407,-0.268,-0.804,0.0
14.125,-0.248,-0.821,0.0
13.193,-0.234,-0.843,0.0
12.196,-0.218,-0.851,0.0
18.122,-0.329,-0.765,13.0
16.399,-0.3,-0.788,0.0
15.052,-0.278,-0.81,0.0
13.779,-0.257,-0.823,0.0
12.913,-0.243,-0.847,0.0
11.901,-0.226,-0.85,0.0
17.888,-0.344,-0.784,1.0
15.86,-0.308,-0.787,0.0
14.631,-0.286,-0.811,0.0
13.55,-0.268,-0.832,0.0
12.54,-0.25,-0.843,0.0
11.639,-0.234,-0.85,0.0
17.725,-0.361,-0.806,0.0
18.174,-0.373,-0.932,0.0
14.338,-0.297,-0.818,0.0
13.366,-0.279,-0.842,0.0
12.34,-0.26,-0.849,0.0
11.475,-0.244,-0.857,0.0
17.967,-0.386,-0.845,4.0
18.151,-0.394,-0.959,4.0
18.153,-0.397,-1.065,0.0
18.15,-0.4,-1.172,0.0
12.071,-0.268,-0.85,0.0
11.319,-0.254,-0.863,0.0
18.149,-0.411,-0.882,56.0
18.138,-0.414,-0.986,8.0
18.162,-0.418,-1.093,0.0
18.148,-0.421,-1.2,1.0
11.792,-0.276,-0.848,0.0
11.106,-0.262,-0.863,0.0
18.147,-0.433,-0.909,63.0
18.149,-0.436,-1.014,4.0
18.137,-0.44,-1.119,0.0
12.48,-0.305,-0.844,0.0
11.604,-0.286,-0.852,0.0
10.991,-0.273,-0.871,0.0
18.15,-0.455,-0.936,34.0
18.142,-0.458,-1.041,0.0
18.128,-0.461,-1.145,0.0
12.297,-0.315,-0.849,0.0
11.451,-0.296,-0.858,0.0
10.839,-0.282,-0.875,0.0
18.149,-0.477,-0.962,1.0
13.962,-0.37,-0.821,0.0
13.047,-0.348,-0.842,0.0
12.049,-0.324,-0.849,0.0
11.296,-0.306,-0.862,0.0
10.652,-0.291,-0.875,0.0
21.862,-0.602,-1.189,0.0
13.743,-0.381,-0.827,0.0
21.873,-0.611,-1.443,0.0
11.832,-0.333,-0.85,0.0
11.128,-0.315,-0.864,0.0
10.515,-0.3,-0.878,0.0
14.506,-0.417,-0.808,0.0
13.535,-0.392,-0.833,0.0
12.475,-0.364,-0.84,0.0
11.66,-0.343,-0.854,0.0
10.99,-0.325,-0.869,0.0
10.384,-0.31,-0.881,0.0
14.312,-0.43,-0.817,0.0
13.412,-0.406,-0.843,0.0
12.327,-0.376,-0.846,0.0
11.459,-0.352,-0.854,0.0
10.864,-0.336,-0.873,0.0
10.291,-0.32,-0.886,0.0
14.093,-0.442,-0.822,0.0
13.098,-0.413,-0.84,0.0
12.13,-0.385,-0.848,0.0
11.319,-0.362,-0.858,0.0
10.747,-0.346,-0.877,0.0
10.168,-0.33,-0.889,0.0
13.832,-0.452,-0.824,0.0
12.864,-0.423,-0.841,0.0
11.942,-0.395,-0.85,0.0
11.187,-0.373,-0.862,0.0
10.578,-0.355,-0.876,0.0
10.006,-0.338,-0.887,0.0
13.669,-0.465,-0.831,0.0
12.665,-0.433,-0.843,0.0
11.758,-0.405,-0.851,0.0
11.038,-0.383,-0.864,0.0
10.477,-0.366,-0.881,0.0
9.914,-0.348,-0.891,0.0
13.505,-0.477,-0.837,0.0
12.439,-0.442,-0.843,0.0
11.598,-0.415,-0.853,0.0
10.939,-0.394,-0.869,0.0
10.338,-0.375,-0.881,0.0
9.835,-0.359,-0.895,0.0
13.237,-0.486,-0.836,0.0
12.302,-0.454,-0.848,0.0
11.438,-0.425,-0.854,0.0
10.81,-0.404,-0.871,0.0
10.242,-0.385,-0.884,0.0
9.77,-0.37,-0.9,0.0
13.095,-0.499,-0.841,0.0
12.143,-0.465,-0.85,0.0
11.306,-0.436,-0.856,0.0
10.675,-0.414,-0.871,0.0
10.16,-0.396,-0.888,0.0
9.652,-0.379,-0.899,0.0
12.923,-0.51,-0.844,0.0
11.95,-0.474,-0.849,0.0
11.187,-0.447,-0.859,0.0
10.579,-0.425,-0.874,0.0
10.071,-0.407,-0.891,0.0
9.589,-0.39,-0.903,0.0
12.674,-0.518,-0.84,0.0
11.822,-0.486,-0.852,0.0
11.059,-0.457,-0.86,0.0
10.484,-0.436,-0.877,0.0
9.962,-0.417,-0.891,0.0
9.488,-0.399,-0.903,0.0
12.517,-0.529,-0.842,0.0
11.673,-0.496,-0.852,0.0
10.958,-0.468,-0.863,0.0
10.42,-0.448,-0.882,0.0
9.853,-0.426,-0.891,0.0
9.388,-0.408,-0.903,0.0
12.384,-0.541,-0.845,0.0
11.537,-0.506,-0.853,0.0
10.896,-0.481,-0.868,0.0
10.324,-0.458,-0.883,0.0
9.81,-0.438,-0.896,0.0
9.323,-0.419,-0.905,0.0
12.275,-0.553,-0.848,0.0
11.433,-0.518,-0.856,0.0
10.811,-0.493,-0.871,0.0
10.225,-0.469,-0.884,0.0
9.717,-0.448,-0.896,0.0
9.195,-0.426,-0.901,0.0
12.145,-0.565,-0.85,0.0
11.327,-0.53,-0.857,0.0
10.709,-0.503,-0.872,0.0
10.186,-0.481,-0.889,0.0
9.684,-0.46,-0.901,0.0
9.201,-0.44,-0.909,0.0
12.015,-0.576,-0.85,0.0
11.255,-0.543,-0.861,0.0
10.62,-0.515,-0.873,0.0
10.098,-0.492,-0.889,0.0
9.606,-0.47,-0.901,0.0
9.119,-0.449,-0.908,0.0
11.865,-0.586,-0.849,0.0
11.151,-0.553,-0.861,0.0
10.555,-0.527,-0.876,0.0
10.027,-0.503,-0.89,0.0
9.577,-0.483,-0.905,0.0
9.07,-0.46,-0.91,0.0
11.727,-0.596,-0.847,0.0
11.071,-0.565,-0.863,0.0
10.499,-0.539,-0.878,0.0
9.959,-0.514,-0.891,0.0
9.471,-0.491,-0.902,0.0
9.065,-0.473,-0.915,0.0
11.709,-0.612,-0.854,0.0
11.014,-0.579,-0.866,0.0
10.408,-0.549,-0.878,0.0
9.877,-0.524,-0.89,0.0
9.426,-0.502,-0.904,0.0
8.984,-0.481,-0.913,0.0
11.613,-0.624,-0.854,0.0
10.96,-0.592,-0.869,0.0
10.363,-0.562,-0.88,0.0
9.828,-0.536,-0.892,0.0
9.39,-0.514,-0.906,0.0
8.913,-0.491,-0.911,0.0
11.534,-0.636,-0.855,0.0
10.905,-0.604,-0.871,0.0
10.304,-0.574,-0.881,0.0
9.785,-0.548,-0.894,0.0
9.35,-0.526,-0.908,0.0
8.972,-0.507,-0.922,0.0
11.477,-0.65,-0.857,0.0
10.869,-0.618,-0.874,0.0
10.266,-0.586,-0.883,0.0
9.751,-0.56,-0.896,0.0
9.283,-0.535,-0.906,0.0
8.89,-0.515,-0.918,0.0
11.41,-0.662,-0.858,0.0
10.843,-0.632,-0.877,0.0
10.238,-0.6,-0.886,0.0
9.744,-0.573,-0.9,0.0
9.253,-0.547,-0.907,0.0
8.849,-0.526,-0.918,0.0
11.363,-0.676,-0.86,0.0
10.813,-0.646,-0.879,0.0
10.194,-0.612,-0.887,0.0
9.693,-0.584,-0.899,0.0
9.197,-0.557,-0.906,0.0
8.818,-0.536,-0.919,0.0
11.324,-0.69,-0.861,0.0
10.721,-0.656,-0.876,0.0
10.173,-0.625,-0.889,0.0
9.65,-0.595,-0.899,0.0
9.175,-0.569,-0.907,0.0
8.836,-0.55,-0.924,0.0
11.278,-0.703,-0.862,0.0
10.677,-0.668,-0.876,0.0
10.132,-0.637,-0.889,0.0
9.594,-0.606,-0.897,0.0
9.188,-0.583,-0.912,0.0
8.764,-0.558,-0.92,0.0
11.241,-0.717,-0.863,0.0
10.66,-0.683,-0.878,0.0
10.104,-0.65,-0.89,0.0
9.588,-0.619,-0.9,0.0
9.148,-0.593,-0.91,0.0
8.739,-0.569,-0.919,0.0
11.209,-0.73,-0.863,0.0
10.604,-0.694,-0.877,0.0
10.057,-0.661,-0.888,0.0
9.628,-0.635,-0.906,0.0
9.133,-0.605,-0.911,0.0
8.656,-0.576,-0.913,0.0
11.204,-0.746,-0.866,0.0
10.593,-0.708,-0.878,0.0
10.037,-0.673,-0.889,0.0
9.58,-0.645,-0.904,0.0
9.062,-0.613,-0.906,0.0
8.762,-0.595,-0.926,0.0
11.162,-0.758,-0.865,0.0
10.607,-0.724,-0.881,0.0
10.064,-0.689,-0.893,0.0
9.557,-0.657,-0.903,0.0
9.082,-0.627,-0.91,0.0
8.721,-0.604,-0.923,0.0
11.179,-0.775,-0.868,0.0
10.585,-0.737,-0.881,0.0
10.033,-0.701,-0.892,0.0
9.531,-0.668,-0.902,0.0
9.05,-0.637,-0.907,0.0
8.652,-0.612,-0.917,0.0
11.16,-0.789,-0.867,0.0
10.542,-0.748,-0.878,0.0
10.005,-0.713,-0.89,0.0
9.534,-0.682,-0.903,0.0
9.106,-0.654,-0.914,0.0
8.661,-0.624,-0.918,0.0
11.147,-0.803,-0.867,0.0
10.54,-0.762,-0.879,0.0
10.028,-0.728,-0.893,0.0
9.548,-0.696,-0.905,0.0
9.082,-0.664,-0.912,0.0
8.679,-0.637,-0.92,0.0
11.153,-0.819,-0.868,0.0
10.525,-0.775,-0.878,0.0
9.993,-0.739,-0.89,0.0
9.575,-0.711,-0.907,0.0
9.093,-0.677,-0.913,0.0
8.658,-0.647,-0.918,0.0
11.158,-0.834,-0.868,0.0
10.575,-0.793,-0.882,0.0
10.012,-0.754,-0.891,0.0
9.513,-0.718,-0.901,0.0
9.077,-0.688,-0.911,0.0
8.674,-0.66,-0.919,0.0
11.162,-0.849,-0.867,0.0
10.587,-0.808,-0.882,0.0
10.022,-0.767,-0.891,0.0
9.577,-0.736,-0.906,0.0
9.065,-0.699,-0.908,0.0
8.687,-0.672,-0.919,0.0
11.182,-0.865,-0.868,0.0
10.595,-0.822,-0.881,0.0
10.049,-0.782,-0.892,0.0
9.543,-0.745,-0.902,0.0
9.144,-0.717,-0.915,0.0
8.677,-0.683,-0.917,0.0
11.213,-0.881,-0.869,0.0
10.646,-0.84,-0.884,0.0
10.058,-0.796,-0.891,0.0
9.595,-0.762,-0.905,0.0
9.105,-0.725,-0.91,0.0
8.671,-0.693,-0.915,0.0
11.237,-0.897,-0.868,0.0
10.654,-0.854,-0.883,0.0
10.088,-0.811,-0.892,0.0
9.644,-0.778,-0.907,0.0
9.147,-0.74,-0.912,0.0
8.715,-0.707,-0.918,0.0
11.259,-0.913,-0.867,0.0
10.699,-0.87,-0.884,0.0
10.134,-0.827,-0.893,0.0
9.639,-0.789,-0.904,0.0
9.156,-0.752,-0.91,0.0
8.755,-0.721,-0.919,0.0
11.328,-0.932,-0.87,0.0
10.726,-0.886,-0.883,0.0
10.173,-0.842,-0.894,0.0
9.671,-0.803,-0.905,0.0
9.187,-0.765,-0.911,0.0
8.797,-0.735,-0.921,0.0
11.359,-0.949,-0.868,0.0
10.764,-0.901,-0.883,0.0
10.182,-0.855,-0.891,0.0
9.682,-0.816,-0.902,0.0
9.214,-0.779,-0.91,0.0
8.796,-0.746,-0.918,0.0
11.416,-0.967,-0.869,0.0
10.813,-0.918,-0.883,0.0
10.22,-0.87,-0.891,0.0
9.717,-0.83,-0.902,0.0
9.257,-0.793,-0.911,0.0
8.811,-0.757,-0.916,0.0
11.472,-0.985,-0.869,0.0
10.837,-0.933,-0.88,0.0
10.252,-0.885,-0.89,0.0
9.747,-0.844,-0.901,0.0
9.308,-0.808,-0.912,0.0
8.883,-0.773,-0.92,0.0
11.53,-1.002,-0.868,0.0
10.881,-0.949,-0.879,0.0
10.308,-0.901,-0.89,0.0
9.781,-0.857,-0.9,0.0
9.344,-0.821,-0.911,0.0
8.91,-0.786,-0.918,0.0
11.585,-1.02,-0.867,0.0
10.968,-0.968,-0.881,0.0
10.344,-0.915,-0.888,0.0
9.825,-0.872,-0.899,0.0
9.394,-0.836,-0.911,0.0
8.928,-0.797,-0.916,0.0
11.665,-1.04,-0.867,0.0
11.024,-0.985,-0.88,0.0
10.42,-0.933,-0.889,0.0
9.899,-0.889,-0.9,0.0
9.406,-0.847,-0.907,0.0
8.964,-0.809,-0.915,0.0
11.745,-1.059,-0.866,0.0
11.111,-1.004,-0.881,0.0
10.492,-0.951,-0.889,0.0
9.937,-0.903,-0.898,0.0
9.461,-0.862,-0.907,0.0
9.001,-0.822,-0.913,0.0
11.824,-1.078,-0.865,0.0
11.206,-1.024,-0.882,0.0
10.542,-0.966,-0.887,1.0
9.983,-0.917,-0.896,0.0
9.517,-0.876,-0.907,0.0
9.067,-0.837,-0.914,0.0
11.881,-1.095,-0.862,0.0
11.273,-1.041,-0.88,0.0
10.586,-0.98,-0.885,1.0
10.076,-0.935,-0.898,0.0
9.555,-0.889,-0.905,0.0
9.126,-0.851,-0.914,0.0
12.021,-1.119,-0.865,0.0
11.314,-1.056,-0.876,0.0
10.645,-0.996,-0.882,0.0
10.164,-0.953,-0.899,0.0
9.636,-0.905,-0.906,0.0
9.17,-0.864,-0.912,0.0
12.103,-1.138,-0.862,0.0
11.369,-1.071,-0.872,0.0
10.824,-1.022,-0.89,0.0
10.225,-0.968,-0.897,0.0
9.702,-0.92,-0.905,0.0
9.248,-0.879,-0.913,0.0
12.214,-1.16,-0.861,0.0
11.45,-1.089,-0.87,0.0
10.916,-1.041,-0.889,0.0
10.31,-0.985,-0.897,0.0
9.798,-0.938,-0.906,0.0
9.314,-0.894,-0.913,0.0
12.296,-1.178,-0.858,0.0
11.561,-1.11,-0.87,0.0
10.929,-1.051,-0.882,0.0
10.394,-1.002,-0.896,0.0
9.896,-0.956,-0.908,0.0
9.374,-0.907,-0.911,0.0
12.46,-1.204,-0.86,0.0
11.667,-1.129,-0.869,0.0
11.043,-1.071,-0.882,0.0
10.44,-1.015,-0.892,0.0
9.933,-0.967,-0.903,0.0
9.46,-0.923,-0.912,0.0
12.582,-1.225,-0.858,0.0
11.78,-1.149,-0.867,0.0
11.141,-1.089,-0.881,0.0
10.542,-1.033,-0.892,0.0
10.04,-0.985,-0.905,0.0
9.526,-0.937,-0.91,0.0
12.646,-1.241,-0.852,0.0
11.824,-1.163,-0.861,0.0
11.268,-1.11,-0.881,0.0
10.631,-1.049,-0.891,0.0
10.153,-1.004,-0.906,0.0
9.664,-0.957,-0.915,0.0
12.773,-1.263,-0.849,0.0
11.973,-1.186,-0.861,0.0
11.318,-1.123,-0.875,0.0
10.771,-1.071,-0.893,0.0
10.218,-1.017,-0.902,0.0
9.718,-0.969,-0.911,0.0
13.012,-1.296,-0.853,0.0
12.12,-1.209,-0.86,0.0
11.491,-1.148,-0.878,0.0
10.858,-1.086,-0.89,0.0
10.307,-1.033,-0.901,0.0
9.803,-0.984,-0.91,0.0
13.079,-1.311,-0.845,0.0
12.293,-1.234,-0.861,0.0
11.574,-1.163,-0.873,0.0
10.963,-1.104,-0.888,0.0
10.375,-1.046,-0.897,0.0
9.873,-0.997,-0.907,0.0
13.224,-1.333,-0.842,0.0
12.442,-1.256,-0.86,0.0
11.692,-1.182,-0.871,0.0
11.071,-1.121,-0.886,0.0
10.449,-1.06,-0.893,0.0
9.978,-1.014,-0.907,0.0
13.408,-1.36,-0.841,0.0
12.589,-1.278,-0.857,0.0
11.844,-1.204,-0.871,0.0
11.185,-1.139,-0.884,0.0
10.56,-1.077,-0.892,0.0
10.098,-1.031,-0.907,0.0
13.54,-1.38,-0.835,0.0
12.702,-1.296,-0.852,0.0
11.933,-1.219,-0.865,0.0
11.303,-1.157,-0.881,0.0
10.717,-1.098,-0.894,0.0
10.172,-1.044,-0.903,0.0
13.849,-1.419,-0.84,0.0
12.867,-1.319,-0.85,0.0
12.039,-1.236,-0.86,0.0
11.391,-1.171,-0.876,0.0
10.859,-1.118,-0.894,0.0
10.275,-1.059,-0.901,0.0
13.973,-1.438,-0.833,0.0
12.979,-1.337,-0.843,0.0
12.279,-1.266,-0.864,0.0
11.585,-1.196,-0.879,0.0
10.957,-1.132,-0.89,0.0
10.379,-1.074,-0.899,0.0
14.293,-1.477,-0.836,0.0
13.232,-1.368,-0.845,0.0
12.382,-1.282,-0.858,0.0
11.673,-1.21,-0.873,0.0
11.118,-1.153,-0.891,0.0
10.442,-1.084,-0.893,0.0
14.348,-1.488,-0.824,0.0
13.377,-1.388,-0.84,0.0
12.532,-1.302,-0.854,0.0
11.774,-1.224,-0.867,0.0
11.234,-1.169,-0.888,0.0
10.561,-1.1,-0.891,0.0
14.331,-1.491,-0.807,0.0
13.73,-1.429,-0.846,0.0
12.709,-1.324,-0.852,0.0
11.951,-1.246,-0.866,0.0
11.318,-1.181,-0.881,0.0
10.755,-1.124,-0.895,0.0
14.26,-1.487,-0.786,0.0
13.87,-1.448,-0.839,0.0
12.881,-1.346,-0.848,0.0
12.119,-1.267,-0.864,0.0
11.461,-1.199,-0.879,0.0
10.869,-1.138,-0.892,0.0
14.227,-1.487,-0.768,1.0
14.018,-1.467,-0.832,0.0
13.136,-1.375,-0.85,0.0
12.344,-1.293,-0.866,0.0
11.635,-1.22,-0.879,0.0
11.054,-1.16,-0.894,0.0
14.147,-1.482,-0.747,0.0
14.084,-1.476,-0.819,0.0
13.308,-1.396,-0.845,0.0
12.425,-1.304,-0.857,0.0
11.712,-1.23,-0.87,0.0
11.19,-1.176,-0.892,0.0
14.118,-1.481,-0.728,1.0
14.092,-1.479,-0.802,0.0
13.45,-1.413,-0.838,0.0
12.642,-1.328,-0.856,0.0
11.947,-1.256,-0.873,0.0
11.309,-1.19,-0.887,0.0
14.095,-1.48,-0.71,1.0
14.059,-1.477,-0.783,0.0
13.798,-1.45,-0.842,0.0
12.857,-1.352,-0.855,0.0
12.072,-1.27,-0.867,0.0
11.397,-1.2,-0.88,0.0
14.139,-1.486,-0.695,1.0
14.065,-1.479,-0.766,0.0
13.942,-1.466,-0.834,0.0
13.098,-1.378,-0.855,0.0
12.269,-1.291,-0.866,0.0
11.589,-1.22,-0.88,0.0
14.291,-1.503,-0.685,2.0
14.042,-1.477,-0.748,1.0
13.973,-1.47,-0.818,0.0
13.269,-1.396,-0.849,0.0
12.405,-1.306,-0.86,0.0
11.692,-1.231,-0.874,0.0
14.4,-1.514,-0.672,3.0
14.062,-1.479,-0.731,0.0
14.029,-1.475,-0.804,0.0
13.376,-1.407,-0.839,0.0
12.53,-1.318,-0.853,0.0
11.889,-1.251,-0.873,0.0
14.667,-1.541,-0.666,1.0
14.071,-1.479,-0.713,1.0
14.06,-1.478,-0.788,0.0
13.712,-1.441,-0.843,0.0
12.803,-1.346,-0.855,0.0
12.052,-1.267,-0.869,0.0
15.114,-1.587,-0.666,1.0
14.155,-1.486,-0.7,1.0
14.096,-1.48,-0.772,0.0
13.937,-1.463,-0.839,0.0
13.032,-1.368,-0.854,0.0
12.245,-1.286,-0.868,0.0
15.399,-1.614,-0.659,4.0
14.294,-1.498,-0.688,1.0
14.153,-1.483,-0.756,1.0
14.069,-1.474,-0.828,0.0
13.262,-1.39,-0.851,0.0
12.413,-1.301,-0.863,0.0
15.702,-1.643,-0.652,3.0
14.406,-1.507,-0.675,2.0
14.211,-1.486,-0.741,1.0
14.174,-1.482,-0.816,0.0
13.476,-1.409,-0.847,0.0
12.541,-1.311,-0.855,0.0
16.151,-1.686,-0.649,7.0
14.704,-1.535,-0.669,1.0
14.265,-1.488,-0.725,1.0
14.249,-1.486,-0.801,0.0
13.807,-1.44,-0.85,0.0
12.753,-1.33,-0.853,0.0
16.353,-1.703,-0.636,14.0
15.109,-1.573,-0.667,1.0
14.354,-1.493,-0.71,1.0
14.327,-1.49,-0.787,0.0
13.965,-1.452,-0.841,0.0
12.999,-1.351,-0.852,0.0
16.727,-1.736,-0.628,18.0
15.395,-1.597,-0.66,2.0
14.445,-1.498,-0.696,1.0
14.425,-1.495,-0.773,0.0
14.274,-1.479,-0.841,0.0
13.17,-1.364,-0.846,0.0
17.021,-1.76,-0.617,18.0
15.755,-1.628,-0.655,2.0
14.65,-1.513,-0.686,1.0
14.551,-1.502,-0.76,1.0
14.435,-1.49,-0.831,0.0
13.464,-1.389,-0.847,0.0
17.31,-1.783,-0.605,20.0
16.284,-1.676,-0.655,4.0
14.882,-1.531,-0.677,1.0
14.686,-1.51,-0.748,1.0
14.677,-1.508,-0.826,0.0
13.806,-1.418,-0.85,0.0
17.677,-1.813,-0.594,17.0
16.458,-1.686,-0.64,11.0
15.186,-1.555,-0.671,1.0
14.856,-1.52,-0.737,1.0
14.871,-1.52,-0.817,0.0
13.967,-1.427,-0.841,0.0
18.27,-1.864,-0.589,18.0
16.869,-1.72,-0.634,9.0
15.482,-1.577,-0.664,1.0
15.047,-1.531,-0.726,1.0
15.056,-1.531,-0.807,0.0
14.208,-1.444,-0.837,0.0
18.727,-1.901,-0.58,18.0
17.272,-1.751,-0.626,13.0
15.863,-1.607,-0.659,2.0
15.287,-1.547,-0.718,1.0
15.362,-1.553,-0.803,0.0
14.408,-1.455,-0.829,0.0
19.037,-1.921,-0.564,18.0
17.617,-1.776,-0.615,15.0
16.276,-1.639,-0.655,5.0
15.487,-1.558,-0.706,2.0
15.56,-1.563,-0.792,0.0
14.838,-1.489,-0.834,0.0
19.748,-1.98,-0.559,20.0
17.99,-1.801,-0.604,16.0
16.486,-1.649,-0.641,3.0
15.696,-1.568,-0.695,2.0
15.777,-1.574,-0.782,0.0
15.103,-1.505,-0.829,0.0
20.261,-2.018,-0.547,23.0
18.407,-1.83,-0.594,16.0
17.119,-1.7,-0.643,2.0
15.958,-1.583,-0.686,1.0
16.021,-1.587,-0.773,1.0
15.39,-1.523,-0.825,0.0
20.625,-2.039,-0.529,21.0
18.805,-1.856,-0.582,16.0
17.569,-1.732,-0.637,2.0
16.263,-1.601,-0.677,1.0
16.234,-1.596,-0.762,0.0
15.585,-1.53,-0.814,1.0
21.199,-2.079,-0.516,19.0
19.237,-1.884,-0.57,15.0
18.098,-1.77,-0.632,3.0
16.568,-1.618,-0.668,1.0
16.555,-1.614,-0.755,0.0
16.047,-1.562,-0.817,0.0
22.3,-2.169,-0.514,21.0
19.622,-1.905,-0.556,18.0
18.514,-1.795,-0.623,4.0
16.937,-1.639,-0.661,1.0
16.865,-1.63,-0.748,0.0
16.182,-1.561,-0.803,0.0
23.129,-2.23,-0.503,21.0
20.262,-1.95,-0.548,17.0
19.022,-1.827,-0.615,3.0
17.358,-1.665,-0.655,2.0
17.334,-1.66,-0.746,1.0
16.569,-1.584,-0.801,0.0
23.571,-2.251,-0.482,14.0
21.014,-2.003,-0.541,17.0
19.273,-1.834,-0.598,3.0
17.754,-1.686,-0.647,2.0
17.693,-1.677,-0.739,1.0
16.769,-1.587,-0.789,0.0
23.597,-2.231,-0.452,4.0
21.869,-2.063,-0.535,18.0
20.172,-1.9,-0.6,3.0
18.242,-1.714,-0.641,2.0
18.147,-1.703,-0.734,0.0
17.461,-1.635,-0.799,0.0
23.637,-2.211,-0.423,0.0
22.578,-2.108,-0.524,19.0
20.918,-1.949,-0.596,4.0
18.734,-1.742,-0.635,2.0
18.657,-1.731,-0.731,0.0
17.552,-1.626,-0.781,0.0
28.508,-2.638,-0.474,8.0
22.953,-2.119,-0.503,10.0
21.518,-1.982,-0.586,4.0
19.306,-1.775,-0.63,2.0
19.291,-1.77,-0.732,0.0
17.776,-1.627,-0.769,0.0
28.933,-2.646,-0.446,23.0
22.799,-2.08,-0.472,5.0
22.251,-2.026,-0.578,4.0
19.887,-1.806,-0.624,2.0
19.908,-1.804,-0.731,0.0
18.321,-1.657,-0.77,0.0
29.801,-2.692,-0.422,24.0
0.0,0.0,0.0,0.0
23.024,-2.07,-0.57,6.0
20.475,-1.836,-0.618,2.0
20.528,-1.837,-0.728,0.0
18.61,-1.661,-0.759,0.0
29.874,-2.665,-0.387,7.0
0.0,0.0,0.0,0.0
23.602,-2.094,-0.556,14.0
21.263,-1.882,-0.616,2.0
21.336,-1.884,-0.731,0.0
19.15,-1.687,-0.758,0.0
29.866,-2.628,-0.351,2.0
27.986,-2.456,-0.477,27.0
24.358,-2.132,-0.545,6.0
22.086,-1.928,-0.613,2.0
22.214,-1.934,-0.735,0.0
19.705,-1.711,-0.756,0.0
35.652,-3.093,-0.377,3.0
29.015,-2.51,-0.46,22.0
25.535,-2.203,-0.541,6.0
22.956,-1.975,-0.61,1.0
22.754,-1.952,-0.726,0.0
20.222,-1.731,-0.753,0.0
35.683,-3.051,-0.336,7.0
29.535,-2.518,-0.435,8.0
26.457,-2.249,-0.529,6.0
23.886,-2.024,-0.607,3.0
23.999,-2.028,-0.738,0.0
20.376,-1.717,-0.735,0.0
35.765,-3.011,-0.295,1.0
29.909,-2.51,-0.406,5.0
27.199,-2.276,-0.513,2.0
24.986,-2.084,-0.607,1.0
25.275,-2.102,-0.748,0.0
21.089,-1.749,-0.736,0.0
40.651,-3.368,-0.289,0.0
34.95,-2.886,-0.435,11.0
28.04,-2.308,-0.498,1.0
26.294,-2.158,-0.609,1.0
24.051,-1.967,-0.685,0.0
21.426,-1.747,-0.725,0.0
40.663,-3.313,-0.245,7.0
35.506,-2.883,-0.402,20.0
29.116,-2.356,-0.485,1.0
27.878,-2.249,-0.615,1.0
0.0,0.0,0.0,0.0
22.042,-1.766,-0.721,0.0
48.913,-3.916,-0.241,3.0
35.53,-2.834,-0.364,12.0
30.092,-2.392,-0.469,1.0
29.487,-2.336,-0.619,1.0
0.0,0.0,0.0,0.0
22.35,-1.759,-0.708,0.0
40.813,-3.208,-0.158,2.0
36.422,-2.853,-0.335,13.0
31.528,-2.46,-0.458,1.0
31.666,-2.463,-0.632,0.0
0.0,0.0,0.0,0.0
23.344,-1.803,-0.715,1.0
52.037,-4.014,-0.147,1.0
39.378,-3.026,-0.322,16.0
33.363,-2.554,-0.45,2.0
31.41,-2.396,-0.594,0.0
27.074,-2.057,-0.657,0.0
23.468,-1.777,-0.695,0.0
45.323,-3.427,-0.082,1.0
40.57,-3.056,-0.29,4.0
35.81,-2.687,-0.447,1.0
0.0,0.0,0.0,0.0
27.818,-2.071,-0.647,0.0
24.37,-1.807,-0.697,0.0
48.86,-3.619,-0.04,0.0
45.089,-3.326,-0.278,12.0
39.4,-2.894,-0.453,1.0
0.0,0.0,0.0,0.0
0.0,0.0,0.0,0.0
24.456,-1.775,-0.675,0.0
52.117,-3.776,0.007,0.0
44.918,-3.241,-0.233,0.0
42.966,-3.087,-0.452,1.0
35.175,-2.516,-0.561,0.0
30.041,-2.139,-0.64,3.0
25.477,-1.807,-0.679,0.0
0.0,0.0,0.0,0.0
48.569,-3.425,-0.206,0.0
0.0,0.0,0.0,0.0
35.866,-2.507,-0.539,0.0
30.256,-2.105,-0.616,1.0
26.109,-1.808,-0.672,0.0
20.002,-1.383,0.04,0.0
20.009,-1.377,-0.066,15.0
20.012,-1.371,-0.173,16.0
20.038,-1.366,-0.283,15.0
20.053,-1.361,-0.39,14.0
20.081,-1.357,-0.498,14.0
20.001,-1.349,0.058,18.0
19.985,-1.342,-0.048,19.0
20.005,-1.337,-0.155,27.0
20.031,-1.332,-0.265,27.0
20.061,-1.327,-0.372,27.0
20.077,-1.322,-0.48,32.0
19.991,-1.314,0.076,25.0
19.981,-1.307,-0.031,14.0
19.993,-1.301,-0.138,32.0
20.021,-1.296,-0.247,28.0
20.044,-1.291,-0.355,29.0
20.071,-1.287,-0.463,29.0
19.993,-1.279,0.092,27.0
19.996,-1.273,-0.014,17.0
20.0,-1.266,-0.121,27.0
20.038,-1.262,-0.231,27.0
20.069,-1.258,-0.339,23.0
20.089,-1.252,-0.447,17.0
20.002,-1.244,0.109,28.0
20.013,-1.238,0.001,21.0
20.003,-1.231,-0.105,28.0
19.992,-1.223,-0.214,150.0
19.987,-1.217,-0.322,150.0
19.975,-1.209,-0.429,150.0
19.99,-1.207,0.124,151.0
19.991,-1.201,0.017,151.0
19.989,-1.194,-0.09,151.0
19.996,-1.188,-0.199,151.0
19.996,-1.181,-0.307,72.0
19.992,-1.174,-0.414,27.0
20.072,-1.176,0.14,7.0
20.017,-1.166,0.032,1.0
19.989,-1.157,-0.075,0.0
20.016,-1.152,-0.185,0.0
38.559,-2.207,-0.564,0.0
0.0,0.0,0.0,0.0
20.019,-1.136,0.154,23.0
19.999,-1.128,0.046,18.0
20.033,-1.123,-0.061,2.0
0.0,0.0,0.0,0.0
0.0,0.0,0.0,0.0
0.0,0.0,0.0,0.0
19.991,-1.096,0.167,23.0
19.987,-1.089,0.059,27.0
19.99,-1.083,-0.047,18.0
19.998,-1.076,-0.157,16.0
41.202,-2.203,-0.547,0.0
20.05,-1.065,-0.374,4.0
19.981,-1.058,0.18,19.0
19.991,-1.051,0.073,27.0
19.998,-1.045,-0.034,20.0
19.983,-1.037,-0.144,26.0
20.021,-1.032,-0.253,26.0
20.01,-1.024,-0.361,24.0
20.069,-1.024,0.194,17.0
20.008,-1.014,0.085,16.0
19.977,-1.005,-0.022,15.0
19.977,-0.998,-0.132,31.0
19.989,-0.991,-0.24,32.0
19.997,-0.985,-0.348,28.0
20.166,-0.99,0.206,5.0
0.0,0.0,0.0,0.0
20.004,-0.968,-0.011,6.0
19.999,-0.96,-0.121,22.0
19.988,-0.953,-0.229,26.0
20.021,-0.947,-0.338,23.0
138.261,-6.52,1.494,11.0
138.16,-6.467,0.745,5.0
0.0,0.0,0.0,0.0
20.012,-0.922,-0.11,0.0
20.023,-0.915,-0.219,5.0
0.0,0.0,0.0,0.0
138.359,-6.251,1.567,3.0
138.165,-6.193,0.816,4.0
0.0,0.0,0.0,0.0
0.0,0.0,0.0,0.0
43.189,-1.889,-0.451,0.0
35.607,-1.545,-0.565,0.0
138.226,-5.97,1.633,2.0
138.004,-5.909,0.882,15.0
0.0,0.0,0.0,0.0
0.0,0.0,0.0,0.0
0.0,0.0,0.0,0.0
0.0,0.0,0.0,0.0
0.0,0.0,0.0,0.0
138.386,-5.647,0.946,13.0
0.0,0.0,0.0,0.0
0.0,0.0,0.0,0.0
0.0,0.0,0.0,0.0
0.0,0.0,0.0,0.0
204.31,-7.999,2.592,5.0
138.481,-5.37,1.004,13.0
0.0,0.0,0.0,0.0
0.0,0.0,0.0,0.0
44.538,-1.678,-0.408,0.0
38.01,-1.418,-0.555,0.0
0.0,0.0,0.0,0.0
138.505,-5.088,1.056,18.0
0.0,0.0,0.0,0.0
0.0,0.0,0.0,0.0
46.898,-1.671,-0.413,0.0
0.0,0.0,0.0,0.0
0.0,0.0,0.0,0.0
138.626,-4.81,1.103,17.0
0.0,0.0,0.0,0.0
0.0,0.0,0.0,0.0
47.606,-1.598,-0.403,0.0
38.064,-1.264,-0.53,0.0
0.0,0.0,0.0,0.0
138.62,-4.517,1.146,24.0
0.0,0.0,0.0,0.0
0.0,0.0,0.0,0.0
47.675,-1.501,-0.39,0.0
38.087,-1.185,-0.52,0.0
138.76,-4.285,1.942,4.0
138.61,-4.228,1.183,9.0
0.0,0.0,0.0,0.0
0.0,0.0,0.0,0.0
0.0,0.0,0.0,0.0
38.081,-1.105,-0.51,0.0
138.592,-3.987,1.973,10.0
138.475,-3.931,1.214,23.0
0.0,0.0,0.0,0.0
0.0,0.0,0.0,0.0
48.131,-1.312,-0.372,0.0
38.029,-1.023,-0.502,0.0
138.859,-3.699,2.005,4.0
138.799,-3.646,1.244,22.0
0.0,0.0,0.0,0.0
0.0,0.0,0.0,0.0
47.908,-1.205,-0.362,0.0
38.162,-0.946,-0.497,0.0
138.817,-3.405,2.027,7.0
138.872,-3.356,1.267,22.0
0.0,0.0,0.0,0.0
0.0,0.0,0.0,0.0
0.0,0.0,0.0,0.0
0.0,0.0,0.0,0.0
138.888,-3.112,2.045,8.0
138.924,-3.062,1.284,20.0
0.0,0.0,0.0,0.0
0.0,0.0,0.0,0.0
0.0,0.0,0.0,0.0
0.0,0.0,0.0,0.0
138.874,-2.816,2.057,7.0
139.027,-2.767,1.296,17.0
0.0,0.0,0.0,0.0
0.0,0.0,0.0,0.0
0.0,0.0,0.0,0.0
0.0,0.0,0.0,0.0
139.019,-2.519,2.066,8.0
139.074,-2.471,1.303,20.0
113.412,-1.972,0.439,3.0
0.0,0.0,0.0,0.0
49.533,-0.825,-0.357,0.0
0.0,0.0,0.0,0.0
139.042,-2.223,2.069,10.0
138.944,-2.172,1.303,12.0
0.0,0.0,0.0,0.0
0.0,0.0,0.0,0.0
49.836,-0.723,-0.36,0.0
39.872,-0.564,-0.508,0.0
139.103,-1.925,2.066,8.0
139.234,-1.876,1.301,21.0
0.0,0.0,0.0,0.0
0.0,0.0,0.0,0.0
47.435,-0.587,-0.345,0.0
0.0,0.0,0.0,0.0
139.19,-1.629,2.059,8.0
139.27,-1.577,1.292,21.0
119.735,-1.311,0.45,2.0
0.0,0.0,0.0,0.0
0.0,0.0,0.0,0.0
38.361,-0.378,-0.494,0.0
119.748,-1.142,1.759,119.0
119.709,-1.097,1.097,17.0
0.0,0.0,0.0,0.0
0.0,0.0,0.0,0.0
47.213,-0.381,-0.354,0.0
39.901,-0.307,-0.519,0.0
119.755,-0.885,1.743,23.0
119.686,-0.841,1.08,16.0
0.0,0.0,0.0,0.0
