X,Y,Z,Reflectivity
64.222,8.035,2.177,14.0
64.181,8.03,1.807,15.0
64.135,8.025,1.431,17.0
64.075,8.018,1.062,18.0
64.047,8.016,0.695,15.0
64.181,8.042,2.471,15.0
64.156,8.038,2.102,14.0
64.089,8.03,1.732,14.0
64.044,8.025,1.357,17.0
64.009,8.021,0.99,15.0
64.019,8.023,0.622,16.0
64.102,8.041,2.396,14.0
64.08,8.038,2.027,15.0
64.024,8.03,1.658,15.0
64.008,8.028,1.285,17.0
63.976,8.025,0.917,16.0
63.934,8.02,0.549,17.0
64.076,8.044,2.322,12.0
64.029,8.038,1.952,16.0
64.01,8.034,1.585,17.0
63.95,8.026,1.21,16.0
63.944,8.026,0.842,18.0
63.917,8.023,0.476,18.0
64.058,8.046,2.247,13.0
64.03,8.041,1.878,14.0
63.962,8.031,1.509,17.0
63.926,8.026,1.136,17.0
63.925,8.025,0.769,16.0
63.902,8.023,0.402,19.0
64.036,8.043,2.173,13.0
64.032,8.041,1.805,12.0
63.97,8.032,1.437,16.0
63.952,8.029,1.062,18.0
63.942,8.027,0.696,17.0
63.901,8.021,0.33,18.0
64.066,8.044,2.101,14.0
64.023,8.037,1.732,12.0
64.001,8.032,1.364,16.0
63.969,8.027,0.99,17.0
63.945,8.023,0.623,16.0
63.927,8.02,0.256,19.0
64.09,8.042,2.028,15.0
64.056,8.035,1.659,15.0
64.037,8.031,1.291,17.0
63.987,8.023,0.917,16.0
63.987,8.022,0.551,18.0
63.963,8.018,0.184,14.0
64.103,8.035,1.954,14.0
64.115,8.034,1.587,18.0
64.066,8.025,1.218,17.0
64.032,8.019,0.844,18.0
64.027,8.017,0.477,16.0
64.019,8.014,0.11,8.0
64.183,8.034,1.883,15.0
64.169,8.029,1.515,17.0
64.149,8.024,1.146,16.0
64.11,8.016,0.771,17.0
64.111,8.015,0.404,19.0
64.084,8.009,0.037,8.0
64.244,8.027,1.81,15.0
64.232,8.022,1.441,16.0
64.206,8.015,1.073,18.0
64.189,8.011,0.698,16.0
64.195,8.009,0.329,20.0
64.134,8.0,-0.037,7.0
64.364,8.024,1.74,17.0
64.345,8.018,1.37,17.0
64.336,8.013,1.001,17.0
64.323,8.009,0.625,20.0
64.297,8.003,0.257,21.0
64.25,7.995,-0.111,3.0
64.465,8.016,1.668,19.0
64.456,8.011,1.298,19.0
64.451,8.007,0.928,21.0
64.437,8.001,0.552,21.0
64.408,7.995,0.183,15.0
45.683,5.668,-0.131,8.0
64.573,8.006,1.596,16.0
64.573,8.001,1.226,16.0
64.551,7.994,0.855,19.0
64.572,7.993,0.479,19.0
64.521,7.984,0.108,9.0
45.444,5.621,-0.183,19.0
64.734,7.999,1.527,16.0
64.744,7.996,1.156,16.0
64.724,7.989,0.784,17.0
64.705,7.982,0.407,22.0
64.681,7.976,0.035,11.0
42.095,5.188,-0.217,17.0
64.908,7.991,1.456,15.0
64.876,7.982,1.084,15.0
64.89,7.979,0.712,16.0
64.878,7.973,0.334,20.0
64.854,7.966,-0.037,10.0
41.022,5.036,-0.258,16.0
65.081,7.979,1.386,16.0
65.085,7.974,1.014,15.0
65.087,7.969,0.641,16.0
65.097,7.966,0.261,17.0
65.014,7.952,-0.11,6.0
40.112,4.903,-0.298,21.0
65.269,7.966,1.317,14.0
65.288,7.963,0.944,16.0
65.28,7.956,0.569,18.0
65.301,7.954,0.189,17.0
45.697,5.562,-0.129,5.0
39.528,4.809,-0.338,26.0
65.504,7.956,1.248,14.0
65.526,7.952,0.874,14.0
65.536,7.948,0.498,19.0
65.506,7.939,0.117,10.0
45.54,5.515,-0.179,7.0
39.147,4.738,-0.377,14.0
65.741,7.943,1.18,15.0
65.757,7.938,0.804,15.0
65.778,7.935,0.428,19.0
65.763,7.927,0.045,8.0
42.354,5.102,-0.213,16.0
38.748,4.664,-0.416,14.0
66.005,7.929,1.112,16.0
66.019,7.924,0.735,15.0
66.037,7.92,0.357,17.0
66.001,7.909,-0.026,8.0
40.757,4.88,-0.249,15.0
38.572,4.616,-0.456,7.0
66.291,7.916,1.046,14.0
66.27,7.906,0.667,15.0
66.291,7.901,0.288,12.0
66.202,7.885,-0.097,7.0
40.16,4.779,-0.288,15.0
38.588,4.588,-0.497,8.0
66.49,7.888,0.978,15.0
66.506,7.882,0.598,19.0
66.515,7.876,0.218,11.0
45.715,5.408,-0.115,4.0
39.692,4.692,-0.327,31.0
38.61,4.56,-0.538,7.0
66.335,7.816,0.906,53.0
66.336,7.808,0.527,48.0
66.342,7.801,0.148,52.0
45.472,5.342,-0.162,16.0
39.332,4.616,-0.365,24.0
38.623,4.529,-0.579,2.0
66.326,7.757,0.836,65.0
66.334,7.75,0.457,67.0
66.327,7.741,0.079,65.0
42.791,4.989,-0.197,17.0
38.976,4.54,-0.402,14.0
0.0,0.0,0.0,0.0
66.411,7.707,0.769,21.0
66.413,7.699,0.39,18.0
66.407,7.69,0.011,12.0
41.468,4.797,-0.233,19.0
38.69,4.471,-0.438,9.0
32.553,3.758,-0.554,0.0
81.272,9.356,0.86,10.0
81.262,9.343,0.395,10.0
67.252,7.724,-0.055,2.0
40.408,4.636,-0.267,16.0
38.69,4.433,-0.477,9.0
31.148,3.566,-0.561,0.0
81.638,9.317,0.783,11.0
81.041,9.237,0.315,12.0
67.034,7.632,-0.12,8.0
39.999,4.549,-0.304,23.0
38.733,4.4,-0.515,7.0
30.779,3.492,-0.585,1.0
82.028,9.278,0.707,11.0
80.72,9.118,0.236,14.0
45.652,5.15,-0.126,2.0
39.481,4.449,-0.338,30.0
38.729,4.359,-0.552,8.0
29.738,3.343,-0.593,0.0
82.451,9.238,0.633,10.0
80.902,9.052,0.16,11.0
45.494,5.084,-0.168,6.0
39.204,4.376,-0.372,15.0
38.801,4.325,-0.589,0.0
29.043,3.233,-0.606,0.0
0.0,0.0,0.0,0.0
80.92,8.964,0.085,11.0
42.836,4.739,-0.198,17.0
38.924,4.3,-0.405,12.0
32.843,3.624,-0.529,0.0
28.437,3.134,-0.619,0.0
83.416,9.159,0.487,4.0
80.836,8.863,0.013,8.0
40.876,4.475,-0.225,16.0
38.853,4.248,-0.439,9.0
32.045,3.499,-0.544,0.0
27.574,3.007,-0.625,0.0
83.942,9.118,0.417,3.0
70.386,7.634,-0.049,5.0
40.452,4.38,-0.258,16.0
38.911,4.207,-0.474,8.0
31.911,3.446,-0.57,2.0
26.989,2.91,-0.635,0.0
84.301,9.053,0.346,15.0
52.195,5.597,-0.082,3.0
40.121,4.295,-0.29,16.0
38.921,4.16,-0.506,7.0
30.831,3.291,-0.577,1.0
26.364,2.81,-0.643,0.0
84.166,8.933,0.275,64.0
45.7,4.842,-0.109,3.0
39.705,4.2,-0.321,25.0
38.966,4.116,-0.539,3.0
30.276,3.193,-0.591,1.0
26.023,2.74,-0.656,0.0
85.332,8.946,0.209,13.0
0.0,0.0,0.0,0.0
39.44,4.121,-0.35,16.0
39.039,4.072,-0.572,0.0
29.656,3.089,-0.602,0.0
25.565,2.658,-0.664,0.0
80.728,8.358,0.135,8.0
43.44,4.489,-0.173,13.0
39.267,4.05,-0.379,14.0
33.507,3.45,-0.516,0.0
28.723,2.953,-0.605,0.0
25.073,2.573,-0.67,0.0
86.524,8.838,0.078,9.0
42.94,4.378,-0.203,18.0
39.154,3.985,-0.407,8.0
33.53,3.406,-0.542,1.0
28.339,2.874,-0.618,0.0
24.73,2.504,-0.68,0.0
73.414,7.397,0.013,1.0
0.0,0.0,0.0,0.0
39.185,3.933,-0.436,7.0
33.663,3.372,-0.568,0.0
27.44,2.744,-0.618,0.0
24.08,2.403,-0.679,0.0
45.763,4.545,-0.024,3.0
40.791,4.043,-0.252,16.0
39.254,3.883,-0.464,8.0
31.527,3.113,-0.554,1.0
27.187,2.679,-0.631,0.0
23.79,2.34,-0.687,0.0
45.624,4.464,-0.054,12.0
40.364,3.942,-0.276,16.0
39.288,3.829,-0.49,7.0
31.296,3.044,-0.57,1.0
26.783,2.6,-0.639,0.0
23.342,2.261,-0.689,0.0
45.265,4.362,-0.083,20.0
40.179,3.863,-0.3,17.0
39.383,3.779,-0.516,3.0
30.874,2.956,-0.582,1.0
26.394,2.522,-0.646,0.0
23.168,2.209,-0.698,0.0
44.912,4.259,-0.11,20.0
40.027,3.787,-0.323,15.0
35.392,3.342,-0.485,0.0
30.078,2.834,-0.585,0.0
25.997,2.444,-0.652,0.0
22.741,2.133,-0.698,0.0
44.562,4.157,-0.135,20.0
39.897,3.713,-0.345,15.0
35.621,3.307,-0.509,2.0
29.714,2.753,-0.595,0.0
25.777,2.383,-0.661,0.0
22.553,2.08,-0.705,0.0
44.276,4.061,-0.158,20.0
39.754,3.637,-0.366,10.0
35.739,3.262,-0.53,1.0
29.379,2.675,-0.604,0.0
25.289,2.297,-0.662,0.0
22.305,2.021,-0.709,0.0
43.896,3.954,-0.18,19.0
39.714,3.568,-0.386,7.0
33.459,2.999,-0.513,0.0
28.866,2.581,-0.608,0.0
25.174,2.245,-0.672,0.0
22.004,1.958,-0.711,0.0
43.58,3.854,-0.2,19.0
39.798,3.51,-0.406,6.0
33.407,2.939,-0.528,0.0
28.516,2.502,-0.614,0.0
24.666,2.159,-0.67,0.0
21.989,1.92,-0.72,0.0
0.0,0.0,0.0,0.0
39.888,3.452,-0.425,7.0
33.058,2.853,-0.538,1.0
28.034,2.413,-0.616,0.0
24.508,2.104,-0.676,0.0
21.808,1.867,-0.724,0.0
42.651,3.629,-0.233,20.0
39.967,3.39,-0.442,11.0
32.949,2.788,-0.549,0.0
27.695,2.337,-0.619,0.0
24.368,2.05,-0.681,0.0
21.396,1.795,-0.718,0.0
0.0,0.0,0.0,0.0
40.041,3.328,-0.458,7.0
32.398,2.686,-0.552,0.0
27.61,2.282,-0.628,0.0
24.049,1.982,-0.681,0.0
21.289,1.75,-0.722,0.0
40.71,3.323,-0.252,13.0
39.735,3.234,-0.468,3.0
32.203,2.613,-0.56,0.0
27.167,2.198,-0.627,0.0
23.89,1.927,-0.685,0.0
21.251,1.709,-0.728,0.0
40.809,3.26,-0.266,16.0
39.983,3.184,-0.484,2.0
31.935,2.535,-0.565,0.0
27.075,2.142,-0.633,0.0
23.756,1.874,-0.688,0.0
20.926,1.645,-0.723,0.0
40.902,3.194,-0.278,16.0
40.302,3.137,-0.499,1.0
31.631,2.453,-0.568,0.0
27.005,2.088,-0.638,0.0
23.617,1.82,-0.69,0.0
20.857,1.602,-0.726,0.0
41.157,3.14,-0.29,16.0
0.0,0.0,0.0,0.0
31.556,2.391,-0.574,0.0
26.418,1.995,-0.63,0.0
23.393,1.761,-0.688,0.0
20.746,1.557,-0.726,0.0
41.547,3.094,-0.301,12.0
37.208,2.761,-0.477,1.0
31.153,2.304,-0.573,0.0
26.595,1.96,-0.639,0.0
23.337,1.714,-0.691,0.0
20.701,1.515,-0.728,0.0
41.953,3.047,-0.311,4.0
37.203,2.692,-0.483,1.0
30.84,2.224,-0.572,0.0
26.531,1.906,-0.642,0.0
23.335,1.67,-0.694,0.0
20.639,1.472,-0.729,0.0
42.311,2.995,-0.32,4.0
37.218,2.624,-0.488,1.0
30.861,2.167,-0.576,0.0
26.36,1.844,-0.641,0.0
23.084,1.609,-0.689,0.0
20.645,1.433,-0.731,0.0
42.959,2.96,-0.329,2.0
37.335,2.562,-0.493,1.0
30.636,2.094,-0.574,0.0
26.471,1.802,-0.645,0.0
23.17,1.571,-0.693,0.0
20.557,1.388,-0.729,1.0
43.602,2.921,-0.336,9.0
37.299,2.489,-0.494,0.0
30.736,2.042,-0.577,0.0
26.306,1.741,-0.643,0.0
23.096,1.522,-0.692,0.0
20.497,1.345,-0.728,0.0
44.266,2.882,-0.343,9.0
37.111,2.406,-0.492,0.0
30.64,1.977,-0.576,0.0
26.428,1.699,-0.646,0.0
23.269,1.489,-0.697,0.0
20.516,1.307,-0.728,0.0
44.922,2.839,-0.347,5.0
37.466,2.357,-0.496,1.0
31.07,1.946,-0.583,0.0
26.464,1.65,-0.645,0.0
23.332,1.448,-0.698,0.0
20.578,1.271,-0.729,0.0
45.662,2.796,-0.35,10.0
37.851,2.307,-0.499,1.0
31.07,1.885,-0.581,0.0
26.538,1.603,-0.645,0.0
23.224,1.396,-0.693,0.0
20.64,1.235,-0.73,0.0
46.319,2.747,-0.351,11.0
37.858,2.234,-0.495,1.0
0.0,0.0,0.0,0.0
26.688,1.559,-0.646,0.0
23.207,1.35,-0.689,0.0
20.647,1.195,-0.727,0.0
47.133,2.703,-0.35,7.0
37.485,2.139,-0.485,0.0
0.0,0.0,0.0,0.0
26.655,1.505,-0.641,0.0
23.348,1.312,-0.69,0.0
20.797,1.163,-0.729,0.0
47.959,2.657,-0.348,1.0
37.88,2.088,-0.483,0.0
0.0,0.0,0.0,0.0
26.696,1.456,-0.637,0.0
23.419,1.27,-0.687,0.0
20.923,1.129,-0.729,0.0
48.973,2.619,-0.346,1.0
38.374,2.04,-0.481,0.0
31.499,1.665,-0.568,0.0
26.944,1.417,-0.637,0.0
23.539,1.231,-0.685,0.0
20.99,1.092,-0.726,0.0
49.911,2.571,-0.34,1.0
0.0,0.0,0.0,0.0
31.756,1.617,-0.565,0.0
27.273,1.381,-0.637,0.0
23.736,1.194,-0.684,0.0
21.185,1.06,-0.727,0.0
50.537,2.504,-0.33,1.0
40.425,1.991,-0.485,1.0
0.0,0.0,0.0,0.0
27.382,1.332,-0.631,0.0
24.018,1.161,-0.685,0.0
21.269,1.022,-0.723,0.0
51.867,2.467,-0.322,3.0
39.542,1.868,-0.461,0.0
32.685,1.534,-0.56,0.0
27.711,1.292,-0.629,0.0
24.239,1.123,-0.683,0.0
21.499,0.99,-0.723,0.0
52.727,2.402,-0.308,5.0
0.0,0.0,0.0,0.0
33.054,1.486,-0.554,0.0
0.0,0.0,0.0,0.0
24.317,1.079,-0.675,0.0
21.577,0.951,-0.717,0.0
53.598,2.337,-0.292,1.0
40.641,1.759,-0.443,0.0
33.313,1.431,-0.544,0.0
28.078,1.198,-0.615,0.0
25.027,1.06,-0.684,0.0
21.78,0.916,-0.714,0.0
55.035,2.289,-0.275,5.0
41.472,1.713,-0.433,0.0
0.0,0.0,0.0,0.0
28.665,1.166,-0.614,0.0
25.153,1.016,-0.676,0.0
22.061,0.884,-0.713,0.0
56.092,2.222,-0.253,0.0
44.609,1.753,-0.444,0.0
35.111,1.368,-0.54,0.0
28.929,1.119,-0.605,0.0
25.136,0.964,-0.663,0.0
22.435,0.854,-0.714,0.0
57.364,2.158,-0.229,1.0
44.625,1.665,-0.421,1.0
35.401,1.31,-0.526,0.0
29.722,1.09,-0.606,0.0
25.688,0.934,-0.663,0.0
22.465,0.81,-0.702,0.0
58.613,2.088,-0.201,4.0
46.693,1.649,-0.414,0.0
0.0,0.0,0.0,0.0
30.038,1.042,-0.595,0.0
25.997,0.894,-0.656,0.0
22.677,0.773,-0.695,0.0
60.039,2.02,-0.171,2.0
45.62,1.521,-0.377,1.0
37.462,1.237,-0.512,0.0
30.634,1.002,-0.588,0.0
26.37,0.855,-0.649,0.0
23.352,0.75,-0.701,0.0
61.46,1.947,-0.136,4.0
48.962,1.535,-0.373,0.0
37.828,1.174,-0.493,0.0
31.208,0.96,-0.579,0.0
26.689,0.812,-0.639,0.0
23.492,0.707,-0.689,0.0
62.946,1.87,-0.097,5.0
0.0,0.0,0.0,0.0
39.296,1.143,-0.485,0.0
32.331,0.93,-0.577,0.0
28.178,0.801,-0.655,0.0
23.932,0.673,-0.685,0.0
64.613,1.792,-0.054,5.0
0.0,0.0,0.0,0.0
39.983,1.083,-0.464,0.0
32.653,0.874,-0.558,0.0
28.265,0.747,-0.636,0.0
24.298,0.635,-0.678,0.0
66.167,1.704,-0.005,6.0
0.0,0.0,0.0,0.0
40.635,1.021,-0.441,0.0
34.045,0.844,-0.556,0.0
0.0,0.0,0.0,0.0
25.008,0.605,-0.678,0.0
67.6,1.609,0.047,5.0
0.0,0.0,0.0,0.0
0.0,0.0,0.0,0.0
0.0,0.0,0.0,0.0
29.444,0.664,-0.615,0.0
25.531,0.568,-0.671,0.0
71.5,1.563,0.108,10.0
0.0,0.0,0.0,0.0
0.0,0.0,0.0,0.0
35.565,0.745,-0.523,0.0
29.976,0.618,-0.601,0.0
26.049,0.529,-0.662,0.0
73.687,1.468,0.174,3.0
0.0,0.0,0.0,0.0
0.0,0.0,0.0,0.0
36.91,0.701,-0.51,0.0
30.843,0.576,-0.591,0.0
26.499,0.487,-0.65,0.0
77.736,1.401,0.253,5.0
0.0,0.0,0.0,0.0
0.0,0.0,0.0,0.0
0.0,0.0,0.0,0.0
31.635,0.53,-0.577,0.0
27.06,0.445,-0.639,0.0
81.049,1.305,0.339,7.0
0.0,0.0,0.0,0.0
0.0,0.0,0.0,0.0
41.377,0.628,-0.494,0.0
32.813,0.487,-0.567,0.0
0.0,0.0,0.0,0.0
85.349,1.212,0.439,13.0
74.935,1.041,-0.014,0.0
0.0,0.0,0.0,0.0
41.035,0.544,-0.45,0.0
33.78,0.438,-0.551,0.0
28.904,0.366,-0.626,0.0
97.957,1.206,0.603,5.0
79.585,0.956,0.065,2.0
0.0,0.0,0.0,0.0
0.0,0.0,0.0,0.0
35.318,0.392,-0.54,0.0
29.498,0.318,-0.608,0.0
98.368,1.027,0.707,15.0
81.956,0.83,0.153,1.0
0.0,0.0,0.0,0.0
46.574,0.443,-0.414,0.0
36.425,0.336,-0.517,0.0
30.675,0.273,-0.599,0.0
104.756,0.9,0.865,15.0
85.228,0.706,0.25,4.0
0.0,0.0,0.0,0.0
48.479,0.372,-0.378,0.0
0.0,0.0,0.0,0.0
31.371,0.221,-0.578,0.0
105.009,0.711,0.982,15.0
92.108,0.595,0.372,1.0
0.0,0.0,0.0,0.0
48.164,0.282,-0.322,0.0
39.889,0.222,-0.479,0.0
0.0,0.0,0.0,0.0
111.053,0.55,1.164,22.0
104.077,0.484,0.539,3.0
0.0,0.0,0.0,0.0
0.0,0.0,0.0,0.0
42.826,0.16,-0.464,0.0
35.049,0.12,-0.565,0.0
119.733,0.376,1.396,12.0
104.307,0.297,0.662,9.0
0.0,0.0,0.0,0.0
0.0,0.0,0.0,0.0
45.3,0.089,-0.437,0.0
35.909,0.059,-0.536,0.0
111.131,0.152,1.428,20.0
110.86,0.119,0.837,8.0
95.546,0.075,0.215,3.0
0.0,0.0,0.0,0.0
45.546,0.009,-0.384,6.0
37.48,-0.003,-0.514,0.0
111.414,-0.043,1.569,15.0
117.332,-0.081,1.032,12.0
0.0,0.0,0.0,0.0
0.0,0.0,0.0,0.0
47.579,-0.074,-0.34,0.0
0.0,0.0,0.0,0.0
113.948,-0.242,1.748,2.0
114.471,-0.277,1.152,20.0
0.0,0.0,0.0,0.0
0.0,0.0,0.0,0.0
0.0,0.0,0.0,0.0
41.963,-0.149,-0.468,0.0
119.827,-0.461,1.994,27.0
119.71,-0.496,1.361,12.0
110.877,-0.489,0.674,4.0
0.0,0.0,0.0,0.0
0.0,0.0,0.0,0.0
0.0,0.0,0.0,0.0
193.904,-1.074,3.483,16.0
119.687,-0.697,1.519,16.0
119.681,-0.729,0.887,6.0
0.0,0.0,0.0,0.0
0.0,0.0,0.0,0.0
46.683,-0.323,-0.396,0.0
119.726,-0.862,2.311,25.0
119.748,-0.895,1.68,43.0
119.669,-0.927,1.049,19.0
0.0,0.0,0.0,0.0
0.0,0.0,0.0,0.0
49.672,-0.426,-0.353,0.0
119.746,-1.059,2.477,150.0
119.753,-1.092,1.846,150.0
119.754,-1.124,1.216,150.0
119.683,-1.156,0.574,21.0
0.0,0.0,0.0,0.0
0.0,0.0,0.0,0.0
210.428,-2.2,4.646,13.0
204.309,-2.192,3.438,8.0
139.448,-1.534,1.614,3.0
139.219,-1.567,0.864,7.0
0.0,0.0,0.0,0.0
0.0,0.0,0.0,0.0
210.834,-2.538,4.956,6.0
0.0,0.0,0.0,0.0
0.0,0.0,0.0,0.0
139.113,-1.784,1.063,18.0
0.0,0.0,0.0,0.0
0.0,0.0,0.0,0.0
205.975,-2.799,5.139,7.0
194.576,-2.696,3.834,9.0
138.913,-1.961,2.009,11.0
138.819,-1.994,1.265,17.0
0.0,0.0,0.0,0.0
0.0,0.0,0.0,0.0
112.619,-1.702,2.976,15.0
0.0,0.0,0.0,0.0
139.099,-2.174,2.217,3.0
139.166,-2.21,1.475,8.0
138.99,-2.243,0.745,8.0
0.0,0.0,0.0,0.0
112.874,-1.878,3.154,18.0
206.401,-3.484,4.685,21.0
193.638,-3.318,3.382,16.0
0.0,0.0,0.0,0.0
139.036,-2.45,0.957,16.0
0.0,0.0,0.0,0.0
113.079,-2.047,3.331,23.0
205.839,-3.775,4.986,8.0
193.38,-3.595,3.673,22.0
138.997,-2.619,1.899,3.0
139.033,-2.653,1.172,23.0
0.0,0.0,0.0,0.0
112.742,-2.204,3.496,25.0
113.069,-2.238,2.915,6.0
193.563,-3.875,3.977,20.0
138.908,-2.815,2.115,3.0
138.956,-2.849,1.389,12.0
138.918,-2.88,0.662,4.0
112.772,-2.363,3.674,24.0
209.444,-4.438,5.728,11.0
193.625,-4.146,4.282,6.0
193.07,-4.18,3.243,22.0
0.0,0.0,0.0,0.0
138.931,-3.071,0.881,15.0
113.221,-2.527,3.866,21.0
207.467,-4.678,6.001,11.0
117.93,-2.686,2.796,16.0
193.011,-4.442,3.55,15.0
0.0,0.0,0.0,0.0
138.892,-3.258,1.105,19.0
106.514,-2.522,3.81,15.0
210.217,-5.024,6.421,7.0
118.016,-2.846,2.988,19.0
193.265,-4.703,3.866,5.0
138.845,-3.409,2.053,6.0
138.892,-3.44,1.33,18.0
105.963,-2.648,3.963,13.0
120.884,-3.047,3.889,22.0
207.36,-5.272,5.591,7.0
0.0,0.0,0.0,0.0
193.23,-4.995,3.176,5.0
0.0,0.0,0.0,0.0
106.266,-2.792,4.15,17.0
120.608,-3.194,4.08,25.0
207.184,-5.53,5.928,10.0
0.0,0.0,0.0,0.0
204.026,-5.53,3.691,5.0
0.0,0.0,0.0,0.0
94.658,-2.606,3.854,7.0
120.306,-3.337,4.272,11.0
205.224,-5.732,6.217,10.0
194.364,-5.468,4.855,8.0
194.586,-5.515,3.851,16.0
138.511,-3.952,2.018,18.0
94.752,-2.723,4.017,15.0
101.887,-2.948,3.788,6.0
120.23,-3.502,3.844,9.0
194.025,-5.689,5.174,22.0
194.689,-5.748,4.18,13.0
193.773,-5.757,3.151,9.0
81.294,-2.432,3.584,14.0
101.793,-3.064,3.958,13.0
120.312,-3.644,4.051,17.0
193.942,-5.911,5.501,21.0
194.142,-5.954,4.499,22.0
0.0,0.0,0.0,0.0
81.386,-2.527,3.728,24.0
101.229,-3.162,4.109,22.0
101.864,-3.201,3.605,6.0
194.619,-6.15,5.856,15.0
194.067,-6.169,4.832,23.0
194.125,-6.207,3.826,18.0
94.354,-3.036,4.486,17.0
94.512,-3.056,4.0,5.0
119.509,-3.886,4.437,17.0
0.0,0.0,0.0,0.0
187.384,-6.157,4.988,16.0
187.452,-6.193,4.017,30.0
81.144,-2.697,3.998,25.0
94.415,-3.155,4.162,11.0
101.132,-3.395,3.931,29.0
194.045,-6.548,6.516,9.0
193.233,-6.553,5.484,20.0
193.419,-6.59,4.484,21.0
66.374,-2.275,3.387,8.0
94.27,-3.246,4.321,20.0
101.392,-3.507,4.119,18.0
101.278,-3.519,3.578,12.0
193.008,-6.739,5.816,22.0
193.244,-6.779,4.821,17.0
66.245,-2.336,3.497,33.0
81.036,-2.87,3.856,15.0
103.825,-3.694,4.402,16.0
117.572,-4.201,4.362,9.0
193.45,-6.941,6.172,15.0
193.0,-6.955,5.157,17.0
66.261,-2.401,3.616,27.0
81.225,-2.954,4.009,24.0
94.249,-3.442,4.162,13.0
103.744,-3.803,4.031,28.0
0.0,0.0,0.0,0.0
193.243,-7.141,5.505,16.0
59.671,-2.216,3.362,24.0
81.017,-3.021,4.144,12.0
94.392,-3.532,4.336,13.0
103.755,-3.897,4.217,23.0
0.0,0.0,0.0,0.0
193.668,-7.328,5.862,23.0
59.711,-2.27,3.471,31.0
66.329,-2.531,3.51,19.0
81.171,-3.107,3.873,32.0
103.797,-3.986,4.403,10.0
104.083,-4.011,3.875,19.0
193.789,-7.495,6.211,18.0
0.0,0.0,0.0,0.0
59.969,-2.338,3.282,12.0
81.014,-3.169,4.013,43.0
95.442,-3.745,4.221,17.0
104.053,-4.094,4.061,21.0
207.089,-8.175,7.009,7.0
58.146,-2.307,3.59,17.0
60.007,-2.388,3.392,32.0
67.243,-2.683,3.451,6.0
80.971,-3.24,3.727,12.0
100.293,-4.025,4.096,7.0
104.155,-4.191,3.713,30.0
57.279,-2.316,3.64,22.0
59.842,-2.426,3.49,30.0
67.307,-2.735,3.575,23.0
80.902,-3.296,3.869,38.0
100.332,-4.099,4.278,5.0
104.122,-4.264,3.898,19.0
57.263,-2.356,3.741,15.0
0.0,0.0,0.0,0.0
59.927,-2.478,3.292,32.0
80.914,-3.353,4.015,32.0
94.672,-3.933,4.205,10.0
100.353,-4.179,3.938,20.0
0.0,0.0,0.0,0.0
0.0,0.0,0.0,0.0
60.093,-2.524,3.408,32.0
80.76,-3.399,4.153,18.0
80.888,-3.412,3.738,17.0
100.226,-4.237,4.113,16.0
44.359,-1.884,3.058,36.0
66.775,-2.841,4.256,10.0
60.196,-2.566,3.522,19.0
67.177,-2.87,3.575,12.0
80.854,-3.46,3.882,34.0
94.849,-4.067,4.061,13.0
44.544,-1.919,3.151,23.0
59.323,-2.559,3.888,33.0
59.654,-2.578,3.599,33.0
67.194,-2.909,3.698,34.0
80.796,-3.503,4.025,33.0
94.368,-4.099,4.212,17.0
44.383,-1.936,3.22,25.0
58.233,-2.544,3.921,29.0
58.396,-2.555,3.628,14.0
67.316,-2.95,3.825,23.0
80.694,-3.542,4.165,26.0
80.852,-3.553,3.753,13.0
46.047,-2.033,3.425,30.0
0.0,0.0,0.0,0.0
58.398,-2.585,3.734,16.0
67.295,-2.982,3.945,16.0
67.224,-2.983,3.591,18.0
80.839,-3.592,3.898,32.0
44.192,-1.972,3.366,31.0
59.224,-2.646,4.202,24.0
58.472,-2.615,3.843,26.0
58.158,-2.604,3.514,23.0
79.105,-3.545,4.368,27.0
80.737,-3.623,4.037,22.0
44.127,-1.989,3.441,39.0
45.998,-2.075,3.347,19.0
0.0,0.0,0.0,0.0
58.41,-2.639,3.634,22.0
67.396,-3.048,3.842,10.0
73.283,-3.318,3.796,10.0
44.084,-2.004,3.517,35.0
56.78,-2.583,4.233,27.0
59.716,-2.719,4.139,16.0
58.204,-2.652,3.725,31.0
58.143,-2.651,3.418,28.0
79.152,-3.611,4.24,29.0
44.059,-2.019,3.593,46.0
57.993,-2.658,4.426,31.0
57.354,-2.631,4.077,11.0
58.255,-2.673,3.831,32.0
58.141,-2.669,3.52,31.0
79.111,-3.634,4.377,18.0
78.731,1.374,3.338,8.0
70.02,1.212,2.561,2.0
91.936,1.578,2.829,15.0
91.891,1.563,2.283,33.0
91.882,1.549,1.749,41.0
91.875,1.536,1.216,12.0
120.456,2.0,4.875,18.0
70.013,1.151,2.426,9.0
91.988,1.5,2.653,14.0
91.984,1.485,2.109,21.0
91.948,1.47,1.574,36.0
91.928,1.455,1.04,33.0
69.871,1.098,2.694,17.0
120.131,1.869,3.934,19.0
119.928,1.846,3.229,8.0
119.931,1.827,2.52,17.0
92.048,1.388,1.401,9.0
92.076,1.373,0.866,13.0
120.057,1.775,4.399,14.0
98.489,1.44,3.037,20.0
98.602,1.426,2.467,26.0
98.652,1.41,1.886,25.0
98.616,1.394,1.314,26.0
98.467,1.375,0.741,10.0
98.396,1.36,3.42,16.0
98.487,1.345,2.852,30.0
98.565,1.33,2.281,27.0
98.555,1.313,1.7,28.0
98.547,1.295,1.127,30.0
85.394,1.108,0.481,13.0
98.433,1.262,3.236,23.0
98.536,1.246,2.667,28.0
98.543,1.229,2.095,29.0
98.511,1.211,1.513,31.0
98.512,1.194,0.941,20.0
85.121,1.017,0.32,5.0
98.644,1.163,3.06,24.0
98.555,1.145,2.485,23.0
98.564,1.127,1.913,26.0
98.561,1.109,1.331,28.0
98.293,1.089,0.759,11.0
80.533,0.877,0.154,4.0
98.696,1.058,2.879,23.0
98.669,1.039,2.305,25.0
98.638,1.021,1.732,24.0
98.629,1.003,1.15,27.0
98.093,0.979,0.575,5.0
0.0,0.0,0.0,0.0
104.735,1.006,2.861,30.0
100.054,0.942,2.152,2.0
99.836,0.922,1.569,4.0
98.683,0.892,0.969,13.0
84.886,0.751,0.342,8.0
0.0,0.0,0.0,0.0
104.716,0.888,2.672,22.0
0.0,0.0,0.0,0.0
100.498,0.813,1.399,2.0
104.741,0.826,0.84,13.0
85.129,0.655,0.19,1.0
0.0,0.0,0.0,0.0
104.819,0.767,2.487,23.0
104.895,0.747,1.882,12.0
111.071,0.769,1.349,2.0
104.53,0.703,0.654,3.0
0.0,0.0,0.0,0.0
0.0,0.0,0.0,0.0
111.045,0.68,2.438,26.0
111.095,0.657,1.795,30.0
111.027,0.634,1.152,20.0
92.417,0.509,0.414,1.0
0.0,0.0,0.0,0.0
47.386,0.241,-0.335,0.0
111.117,0.544,2.245,22.0
111.095,0.52,1.601,27.0
110.934,0.495,0.956,14.0
89.491,0.38,0.244,1.0
0.0,0.0,0.0,0.0
42.855,0.164,-0.378,0.0
119.873,0.433,2.211,114.0
119.741,0.408,1.518,16.0
110.727,0.353,0.762,3.0
0.0,0.0,0.0,0.0
0.0,0.0,0.0,0.0
42.768,0.108,-0.451,0.0
119.876,0.278,2.007,25.0
111.132,0.233,1.217,19.0
103.675,0.194,0.535,2.0
0.0,0.0,0.0,0.0
49.571,0.071,-0.321,0.0
0.0,0.0,0.0,0.0
111.125,0.111,1.673,18.0
111.147,0.086,1.03,10.0
95.641,0.052,0.333,5.0
0.0,0.0,0.0,0.0
45.456,0.004,-0.371,2.0
36.907,-0.004,-0.514,0.0
73.036,-8.79,1.954,11.0
73.19,-8.795,1.564,18.0
73.172,-8.78,1.17,12.0
91.447,-10.957,0.96,6.0
83.366,-9.975,0.428,7.0
46.545,-5.561,-0.011,21.0
78.769,-9.416,2.185,7.0
73.494,-8.771,1.643,11.0
73.146,-8.716,1.241,11.0
107.678,-12.811,1.237,9.0
83.884,-9.965,0.511,15.0
46.93,-5.567,0.034,6.0
78.676,-9.337,2.259,16.0
101.517,-12.028,2.368,10.0
73.24,-8.663,1.313,8.0
112.574,-13.293,1.401,8.0
85.029,-10.025,0.6,11.0
0.0,0.0,0.0,0.0
78.666,-9.265,2.333,9.0
73.371,-8.626,1.781,7.0
73.33,-8.606,1.384,8.0
113.235,-13.267,1.515,17.0
75.216,-8.797,0.601,29.0
51.383,-6.0,0.133,25.0
74.686,-8.726,2.285,8.0
73.358,-8.555,1.848,8.0
73.301,-8.532,1.451,29.0
75.199,-8.737,1.075,26.0
75.195,-8.721,0.669,29.0
51.689,-5.984,0.182,3.0
74.388,-8.617,2.344,8.0
73.362,-8.482,1.915,8.0
73.215,-8.449,1.515,20.0
75.196,-8.661,1.143,32.0
75.205,-8.646,0.736,28.0
75.155,-8.625,0.331,13.0
75.321,-8.648,2.44,16.0
0.0,0.0,0.0,0.0
75.169,-8.596,1.622,23.0
75.203,-8.583,1.209,31.0
75.249,-8.571,0.803,24.0
75.301,-8.561,0.397,17.0
75.215,-8.556,2.502,55.0
74.592,-8.467,2.078,16.0
74.979,-8.493,1.682,35.0
75.227,-8.504,1.273,24.0
75.341,-8.5,0.868,8.0
79.022,-8.897,0.483,3.0
74.26,-8.365,2.532,13.0
74.626,-8.388,2.141,24.0
74.985,-8.41,1.745,33.0
118.948,-13.312,2.113,24.0
112.395,-12.552,1.387,8.0
85.471,-9.525,0.594,8.0
72.481,-8.082,2.531,11.0
74.906,-8.334,2.21,17.0
75.148,-8.342,1.809,23.0
118.89,-13.168,2.206,6.0
114.201,-12.62,1.501,16.0
85.555,-9.434,0.662,7.0
33.168,-3.659,1.184,75.0
33.16,-3.649,1.004,56.0
33.134,-3.638,0.824,48.0
33.125,-3.628,0.64,43.0
33.139,-3.621,0.461,42.0
33.142,-3.614,0.282,39.0
33.151,-3.617,1.209,85.0
33.139,-3.607,1.029,80.0
33.146,-3.599,0.849,81.0
33.128,-3.588,0.665,79.0
33.121,-3.579,0.486,80.0
33.114,-3.569,0.306,72.0
33.182,-3.579,1.235,75.0
33.17,-3.568,1.054,70.0
33.153,-3.557,0.873,72.0
33.135,-3.547,0.689,73.0
33.13,-3.537,0.51,76.0
33.109,-3.527,0.329,81.0
72.42,-7.719,2.746,13.0
87.816,-9.335,2.853,12.0
78.753,-8.35,2.13,15.0
33.145,-3.505,0.712,8.0
33.14,-3.495,0.532,28.0
33.146,-3.487,0.352,60.0
74.909,-7.885,2.892,15.0
78.186,-8.207,2.593,16.0
78.448,-8.212,2.175,21.0
104.486,-10.909,2.317,9.0
119.225,-12.416,1.995,23.0
104.664,-10.87,1.183,8.0
74.749,-7.768,2.934,27.0
78.281,-8.111,2.647,10.0
78.386,-8.099,2.224,17.0
74.883,-7.716,1.708,21.0
135.377,-13.911,2.35,19.0
104.733,-10.733,1.249,6.0
14.986,0.53,-0.81,0.0
13.723,0.486,-0.822,0.0
12.901,0.457,-0.847,0.0
11.824,0.42,-0.847,0.0
11.165,0.397,-0.865,1.0
10.485,0.374,-0.873,0.0
14.53,0.516,-0.812,0.0
13.588,0.483,-0.839,0.0
12.457,0.444,-0.841,0.0
11.562,0.413,-0.849,0.0
10.963,0.392,-0.869,0.0
10.322,0.369,-0.879,0.0
14.202,0.506,-0.82,0.0
13.249,0.473,-0.842,0.0
12.174,0.435,-0.844,0.0
11.374,0.407,-0.856,0.0
10.776,0.386,-0.874,0.0
10.155,0.364,-0.883,0.0
13.849,0.495,-0.825,0.0
13.016,0.466,-0.851,0.0
11.833,0.424,-0.842,0.0
11.177,0.401,-0.862,0.0
10.496,0.377,-0.87,0.0
10.017,0.36,-0.889,0.0
13.619,0.488,-0.835,0.0
12.525,0.449,-0.841,0.0
11.63,0.417,-0.848,0.0
11.001,0.395,-0.868,0.0
10.364,0.373,-0.878,0.0
9.866,0.355,-0.893,0.0
13.271,0.476,-0.837,0.0
12.236,0.439,-0.843,0.0
11.386,0.409,-0.851,0.0
10.811,0.388,-0.872,0.0
10.2,0.367,-0.882,0.0
9.733,0.35,-0.899,0.0
13.032,0.467,-0.845,0.0
11.895,0.426,-0.841,0.0
11.238,0.403,-0.86,0.0
10.586,0.38,-0.872,0.0
10.072,0.362,-0.889,0.0
9.588,0.345,-0.902,0.0
12.557,0.449,-0.836,0.0
11.693,0.418,-0.847,0.0
11.065,0.396,-0.865,0.0
10.394,0.372,-0.875,0.0
9.928,0.356,-0.893,0.0
9.468,0.339,-0.907,0.0
12.338,0.44,-0.843,0.0
11.454,0.409,-0.849,0.0
10.876,0.388,-0.869,0.0
10.277,0.367,-0.882,0.0
9.821,0.351,-0.901,0.0
9.294,0.332,-0.907,0.0
12.02,0.427,-0.842,0.0
11.322,0.402,-0.859,0.0
10.687,0.38,-0.873,0.0
10.091,0.359,-0.884,0.0
9.616,0.342,-0.898,0.0
9.214,0.328,-0.915,0.0
11.751,0.415,-0.843,0.0
11.124,0.393,-0.862,1.0
10.435,0.369,-0.869,0.0
9.973,0.353,-0.89,0.0
9.538,0.337,-0.907,0.0
8.999,0.318,-0.908,0.0
11.544,0.406,-0.847,0.0
10.953,0.385,-0.867,0.0
10.315,0.362,-0.877,0.0
9.835,0.345,-0.894,0.0
9.384,0.33,-0.908,0.0
8.926,0.314,-0.916,0.0
11.376,0.397,-0.853,0.0
10.763,0.375,-0.87,0.0
10.182,0.355,-0.882,0.0
9.724,0.339,-0.9,0.0
9.21,0.321,-0.906,0.0
8.773,0.306,-0.915,0.0
11.204,0.388,-0.858,0.0
10.559,0.365,-0.87,0.0
10.072,0.348,-0.889,0.0
9.494,0.328,-0.894,0.0
9.099,0.314,-0.91,0.0
8.671,0.3,-0.918,0.0
11.047,0.379,-0.864,0.0
10.411,0.357,-0.875,0.0
9.885,0.339,-0.888,0.0
9.4,0.322,-0.9,0.0
8.981,0.307,-0.913,0.0
8.565,0.293,-0.92,0.0
10.887,0.37,-0.869,0.0
10.277,0.348,-0.879,0.0
9.769,0.331,-0.893,0.0
9.31,0.315,-0.906,0.0
8.836,0.299,-0.912,0.0
8.49,0.287,-0.926,0.0
10.716,0.36,-0.871,0.0
10.123,0.339,-0.882,0.0
9.636,0.323,-0.896,0.0
9.148,0.306,-0.905,0.0
8.768,0.293,-0.918,0.0
8.382,0.28,-0.927,0.0
10.48,0.347,-0.868,0.0
9.984,0.33,-0.885,0.0
9.523,0.315,-0.9,0.0
9.097,0.3,-0.913,0.0
8.66,0.286,-0.92,0.0
8.295,0.273,-0.93,0.0
10.374,0.339,-0.875,0.0
9.876,0.322,-0.89,0.0
9.414,0.307,-0.903,0.0
0.0,0.0,0.0,0.0
8.578,0.279,-0.924,0.0
8.226,0.267,-0.934,0.0
10.245,0.33,-0.879,0.0
9.763,0.314,-0.894,0.0
9.348,0.3,-0.91,0.0
8.869,0.284,-0.916,0.0
8.47,0.271,-0.925,0.0
8.108,0.259,-0.933,0.0
10.124,0.321,-0.883,0.0
9.662,0.305,-0.899,0.0
9.15,0.289,-0.904,0.0
0.0,0.0,0.0,0.0
8.357,0.263,-0.924,0.0
7.969,0.25,-0.928,0.0
10.014,0.311,-0.888,0.0
9.561,0.297,-0.903,0.0
9.102,0.282,-0.912,0.0
0.0,0.0,0.0,0.0
8.311,0.257,-0.931,0.0
7.893,0.243,-0.93,0.0
9.881,0.302,-0.889,0.0
9.396,0.286,-0.9,0.0
8.934,0.272,-0.908,0.0
8.528,0.259,-0.917,0.0
8.166,0.247,-0.926,0.0
7.86,0.238,-0.937,0.0
9.753,0.292,-0.891,0.0
9.296,0.277,-0.903,0.0
8.901,0.265,-0.916,0.0
8.438,0.251,-0.918,0.0
0.0,0.0,0.0,0.0
7.742,0.229,-0.933,0.0
9.725,0.285,-0.901,0.0
9.191,0.268,-0.905,0.0
8.71,0.254,-0.908,0.0
8.393,0.244,-0.925,0.0
8.044,0.233,-0.933,0.0
7.701,0.223,-0.938,0.0
9.569,0.274,-0.899,0.0
9.144,0.261,-0.912,0.0
0.0,0.0,0.0,0.0
8.316,0.236,-0.926,0.0
7.957,0.225,-0.933,0.0
7.618,0.215,-0.938,0.0
9.474,0.264,-0.901,0.0
9.012,0.251,-0.91,0.0
0.0,0.0,0.0,0.0
0.0,0.0,0.0,0.0
7.873,0.217,-0.933,0.0
7.574,0.208,-0.941,0.0
9.387,0.255,-0.904,0.0
8.896,0.241,-0.909,0.0
8.534,0.23,-0.921,0.0
0.0,0.0,0.0,0.0
7.818,0.21,-0.935,0.0
7.517,0.201,-0.943,0.0
9.279,0.245,-0.905,0.0
8.838,0.232,-0.913,0.0
8.481,0.222,-0.925,0.0
0.0,0.0,0.0,0.0
7.762,0.202,-0.938,0.0
7.387,0.192,-0.935,0.0
9.182,0.235,-0.906,0.0
8.775,0.224,-0.916,0.0
8.389,0.213,-0.924,0.0
0.0,0.0,0.0,0.0
7.694,0.194,-0.938,0.0
7.368,0.185,-0.941,0.0
9.115,0.226,-0.909,0.0
0.0,0.0,0.0,0.0
8.338,0.205,-0.928,0.0
0.0,0.0,0.0,0.0
7.69,0.188,-0.946,0.0
7.321,0.178,-0.943,0.0
9.053,0.217,-0.912,0.0
8.622,0.206,-0.919,0.0
8.262,0.196,-0.928,0.0
0.0,0.0,0.0,0.0
7.55,0.178,-0.937,0.0
7.264,0.17,-0.943,0.0
8.962,0.207,-0.912,0.0
8.51,0.196,-0.915,0.0
0.0,0.0,0.0,0.0
0.0,0.0,0.0,0.0
7.472,0.169,-0.934,0.0
7.22,0.163,-0.945,0.0
8.834,0.197,-0.908,0.0
8.443,0.187,-0.916,0.0
0.0,0.0,0.0,0.0
0.0,0.0,0.0,0.0
7.506,0.163,-0.946,0.0
7.184,0.156,-0.947,0.0
8.782,0.188,-0.911,0.0
8.452,0.18,-0.925,0.0
0.0,0.0,0.0,0.0
0.0,0.0,0.0,0.0
7.386,0.154,-0.938,0.0
0.0,0.0,0.0,0.0
8.792,0.18,-0.92,0.0
8.38,0.17,-0.925,0.0
8.024,0.162,-0.932,0.0
0.0,0.0,0.0,0.0
7.419,0.148,-0.948,0.0
0.0,0.0,0.0,0.0
8.677,0.169,-0.915,0.0
8.335,0.161,-0.927,0.0
8.013,0.154,-0.937,0.0
0.0,0.0,0.0,0.0
7.322,0.139,-0.942,0.0
7.026,0.132,-0.945,0.0
8.624,0.16,-0.916,0.0
8.324,0.153,-0.932,0.0
0.0,0.0,0.0,0.0
0.0,0.0,0.0,0.0
0.0,0.0,0.0,0.0
7.026,0.126,-0.95,0.0
8.56,0.15,-0.916,0.0
8.222,0.143,-0.927,0.0
7.887,0.136,-0.935,0.0
0.0,0.0,0.0,0.0
0.0,0.0,0.0,0.0
6.976,0.118,-0.949,0.0
8.53,0.141,-0.919,0.0
8.228,0.135,-0.934,0.0
7.84,0.128,-0.935,0.0
0.0,0.0,0.0,0.0
0.0,0.0,0.0,0.0
6.935,0.11,-0.948,0.0
8.471,0.132,-0.919,0.0
0.0,0.0,0.0,0.0
7.783,0.119,-0.933,0.0
0.0,0.0,0.0,0.0
0.0,0.0,0.0,0.0
0.0,0.0,0.0,0.0
8.414,0.122,-0.918,0.0
8.06,0.116,-0.926,0.0
7.708,0.109,-0.929,0.0
0.0,0.0,0.0,0.0
0.0,0.0,0.0,0.0
0.0,0.0,0.0,0.0
8.36,0.113,-0.917,0.0
8.049,0.107,-0.929,0.0
7.758,0.102,-0.94,0.0
0.0,0.0,0.0,0.0
0.0,0.0,0.0,0.0
0.0,0.0,0.0,0.0
8.348,0.104,-0.921,0.0
8.018,0.098,-0.93,0.0
7.642,0.092,-0.93,0.0
0.0,0.0,0.0,0.0
0.0,0.0,0.0,0.0
0.0,0.0,0.0,0.0
8.305,0.094,-0.92,0.0
8.031,0.09,-0.936,0.0
7.622,0.084,-0.932,0.0
0.0,0.0,0.0,0.0
7.111,0.076,-0.951,0.0
0.0,0.0,0.0,0.0
8.275,0.085,-0.921,0.0
7.952,0.08,-0.93,0.0
7.589,0.075,-0.931,0.0
0.0,0.0,0.0,0.0
7.044,0.068,-0.946,0.0
0.0,0.0,0.0,0.0
8.285,0.076,-0.925,0.0
7.926,0.071,-0.93,0.0
7.637,0.067,-0.94,0.0
0.0,0.0,0.0,0.0
0.0,0.0,0.0,0.0
0.0,0.0,0.0,0.0
8.249,0.067,-0.924,0.0
7.946,0.063,-0.936,0.0
7.547,0.058,-0.932,0.0
0.0,0.0,0.0,0.0
0.0,0.0,0.0,0.0
0.0,0.0,0.0,0.0
8.253,0.057,-0.928,0.0
7.911,0.054,-0.934,0.0
7.592,0.05,-0.94,0.0
0.0,0.0,0.0,0.0
0.0,0.0,0.0,0.0
0.0,0.0,0.0,0.0
8.168,0.048,-0.92,0.0
7.889,0.045,-0.934,0.0
7.568,0.042,-0.939,0.0
0.0,0.0,0.0,0.0
0.0,0.0,0.0,0.0
0.0,0.0,0.0,0.0
8.201,0.039,-0.926,0.0
7.809,0.035,-0.926,0.0
7.534,0.033,-0.936,0.0
0.0,0.0,0.0,0.0
0.0,0.0,0.0,0.0
0.0,0.0,0.0,0.0
8.185,0.03,-0.926,0.0
7.867,0.027,-0.934,0.0
7.55,0.024,-0.94,0.0
0.0,0.0,0.0,0.0
0.0,0.0,0.0,0.0
0.0,0.0,0.0,0.0
8.193,0.02,-0.928,0.0
7.888,0.018,-0.938,0.0
7.503,0.016,-0.935,0.0
0.0,0.0,0.0,0.0
0.0,0.0,0.0,0.0
0.0,0.0,0.0,0.0
8.137,0.011,-0.922,0.0
7.781,0.009,-0.926,0.0
7.548,0.007,-0.941,0.0
0.0,0.0,0.0,0.0
0.0,0.0,0.0,0.0
0.0,0.0,0.0,0.0
8.188,0.002,-0.929,0.0
7.893,0.0,-0.94,0.0
7.564,0.0,-0.943,0.0
0.0,0.0,0.0,0.0
0.0,0.0,0.0,0.0
0.0,0.0,0.0,0.0
8.174,-0.007,-0.927,0.0
7.866,-0.008,-0.936,0.0
7.494,-0.009,-0.935,0.0
0.0,0.0,0.0,0.0
0.0,0.0,0.0,0.0
0.0,0.0,0.0,0.0
8.159,-0.016,-0.925,0.0
7.813,-0.017,-0.93,0.0
7.553,-0.017,-0.941,0.0
0.0,0.0,0.0,0.0
0.0,0.0,0.0,0.0
0.0,0.0,0.0,0.0
8.17,-0.025,-0.926,0.0
7.828,-0.025,-0.931,0.0
7.546,-0.026,-0.94,0.0
0.0,0.0,0.0,0.0
0.0,0.0,0.0,0.0
0.0,0.0,0.0,0.0
8.185,-0.034,-0.926,0.0
7.836,-0.034,-0.931,0.0
7.531,-0.034,-0.937,0.0
0.0,0.0,0.0,0.0
0.0,0.0,0.0,0.0
6.731,-0.035,-0.952,0.0
8.18,-0.043,-0.924,0.0
7.831,-0.043,-0.929,0.0
7.51,-0.043,-0.933,0.0
0.0,0.0,0.0,0.0
0.0,0.0,0.0,0.0
0.0,0.0,0.0,0.0
8.261,-0.053,-0.932,0.0
7.879,-0.052,-0.933,0.0
7.549,-0.051,-0.936,0.0
0.0,0.0,0.0,0.0
0.0,0.0,0.0,0.0
6.767,-0.05,-0.954,0.0
8.18,-0.062,-0.92,0.0
7.913,-0.061,-0.934,0.0
7.627,-0.06,-0.943,0.0
0.0,0.0,0.0,0.0
0.0,0.0,0.0,0.0
0.0,0.0,0.0,0.0
8.261,-0.071,-0.927,0.0
7.911,-0.07,-0.932,0.0
7.599,-0.069,-0.937,0.0
0.0,0.0,0.0,0.0
0.0,0.0,0.0,0.0
0.0,0.0,0.0,0.0
8.275,-0.08,-0.925,0.0
7.921,-0.079,-0.93,0.0
7.594,-0.077,-0.934,0.0
0.0,0.0,0.0,0.0
0.0,0.0,0.0,0.0
0.0,0.0,0.0,0.0
8.307,-0.09,-0.926,0.0
7.919,-0.087,-0.926,0.0
0.0,0.0,0.0,0.0
0.0,0.0,0.0,0.0
0.0,0.0,0.0,0.0
0.0,0.0,0.0,0.0
8.354,-0.1,-0.927,0.0
8.015,-0.097,-0.934,0.0
0.0,0.0,0.0,0.0
0.0,0.0,0.0,0.0
0.0,0.0,0.0,0.0
6.877,-0.089,-0.955,0.0
8.344,-0.108,-0.922,0.0
7.998,-0.105,-0.928,0.0
0.0,0.0,0.0,0.0
0.0,0.0,0.0,0.0
7.162,-0.099,-0.951,0.0
0.0,0.0,0.0,0.0
8.404,-0.118,-0.924,0.0
8.013,-0.114,-0.925,0.0
7.755,-0.112,-0.938,0.0
0.0,0.0,0.0,0.0
0.0,0.0,0.0,0.0
6.95,-0.104,-0.958,0.0
8.427,-0.127,-0.922,0.0
8.127,-0.124,-0.934,0.0
7.773,-0.12,-0.936,0.0
0.0,0.0,0.0,0.0
0.0,0.0,0.0,0.0
6.87,-0.11,-0.942,0.0
8.474,-0.137,-0.921,0.0
8.119,-0.132,-0.928,0.0
7.85,-0.129,-0.94,0.0
0.0,0.0,0.0,0.0
0.0,0.0,0.0,0.0
0.0,0.0,0.0,0.0
8.509,-0.146,-0.919,0.0
8.195,-0.142,-0.931,0.0
7.827,-0.137,-0.932,0.0
0.0,0.0,0.0,0.0
7.283,-0.13,-0.948,0.0
6.986,-0.126,-0.949,0.0
8.591,-0.156,-0.922,0.0
8.192,-0.15,-0.924,0.0
7.876,-0.146,-0.932,0.0
0.0,0.0,0.0,0.0
0.0,0.0,0.0,0.0
6.99,-0.133,-0.944,0.0
8.64,-0.165,-0.921,0.0
8.245,-0.159,-0.924,0.0
7.946,-0.155,-0.934,0.0
0.0,0.0,0.0,0.0
0.0,0.0,0.0,0.0
7.051,-0.142,-0.946,0.0
8.65,-0.174,-0.915,0.0
8.301,-0.168,-0.924,0.0
8.05,-0.165,-0.94,0.0
0.0,0.0,0.0,0.0
7.401,-0.154,-0.946,0.0
7.128,-0.15,-0.951,0.0
8.738,-0.184,-0.917,0.0
8.347,-0.177,-0.922,0.0
8.031,-0.172,-0.931,0.0
0.0,0.0,0.0,0.0
0.0,0.0,0.0,0.0
7.171,-0.158,-0.95,0.0
8.782,-0.193,-0.914,0.0
8.446,-0.187,-0.925,0.0
8.048,-0.18,-0.925,0.0
0.0,0.0,0.0,0.0
7.512,-0.171,-0.947,0.0
7.214,-0.165,-0.949,0.0
8.869,-0.203,-0.915,0.0
8.479,-0.195,-0.921,0.0
8.134,-0.189,-0.928,0.0
7.818,-0.183,-0.935,0.0
7.538,-0.178,-0.943,0.0
7.243,-0.172,-0.946,0.0
8.953,-0.213,-0.915,0.0
8.573,-0.205,-0.922,0.0
8.185,-0.197,-0.925,0.0
7.855,-0.191,-0.932,0.0
7.563,-0.185,-0.938,0.0
7.28,-0.18,-0.943,0.0
8.988,-0.221,-0.909,0.0
8.734,-0.217,-0.931,0.0
8.223,-0.205,-0.921,0.0
7.95,-0.2,-0.935,0.0
0.0,0.0,0.0,0.0
7.369,-0.188,-0.947,0.0
9.117,-0.232,-0.913,0.0
8.721,-0.223,-0.92,0.0
8.331,-0.215,-0.924,0.0
7.964,-0.207,-0.928,0.0
0.0,0.0,0.0,0.0
7.464,-0.197,-0.951,0.0
9.176,-0.241,-0.909,0.0
8.803,-0.233,-0.919,0.0
8.376,-0.223,-0.92,0.0
8.047,-0.215,-0.929,0.0
0.0,0.0,0.0,0.0
7.462,-0.202,-0.942,0.0
9.266,-0.251,-0.907,0.0
8.862,-0.241,-0.916,0.0
8.519,-0.233,-0.926,0.0
8.155,-0.225,-0.932,0.0
7.86,-0.218,-0.941,0.0
7.525,-0.21,-0.942,0.0
9.341,-0.26,-0.904,0.0
8.858,-0.248,-0.905,0.0
8.572,-0.241,-0.922,0.0
8.228,-0.233,-0.93,0.0
7.881,-0.224,-0.934,0.0
7.632,-0.219,-0.946,0.0
9.455,-0.27,-0.904,0.0
9.055,-0.26,-0.914,0.0
8.649,-0.25,-0.92,0.0
8.276,-0.24,-0.926,0.0
7.972,-0.233,-0.935,0.0
7.622,-0.224,-0.935,0.0
9.595,-0.281,-0.905,0.0
9.095,-0.267,-0.907,0.0
8.758,-0.259,-0.921,0.0
8.419,-0.25,-0.931,0.0
8.032,-0.24,-0.932,0.0
7.743,-0.233,-0.94,0.0
9.683,-0.29,-0.901,0.0
9.232,-0.278,-0.909,0.0
8.875,-0.268,-0.921,0.0
8.504,-0.258,-0.93,0.0
8.158,-0.249,-0.936,0.0
7.854,-0.241,-0.943,0.0
9.783,-0.299,-0.898,0.0
9.331,-0.287,-0.907,0.0
8.92,-0.275,-0.914,0.0
0.0,0.0,0.0,0.0
8.209,-0.256,-0.931,0.0
7.951,-0.249,-0.944,0.0
9.863,-0.308,-0.892,0.0
9.428,-0.296,-0.903,0.0
9.035,-0.284,-0.914,0.0
0.0,0.0,0.0,0.0
8.316,-0.264,-0.932,0.0
7.975,-0.255,-0.936,0.0
10.009,-0.318,-0.892,0.0
9.581,-0.306,-0.905,0.0
9.148,-0.293,-0.913,0.0
8.807,-0.284,-0.927,0.0
8.4,-0.272,-0.929,0.0
8.067,-0.262,-0.936,0.0
10.159,-0.329,-0.891,0.0
9.681,-0.314,-0.901,0.0
9.263,-0.302,-0.911,0.0
0.0,0.0,0.0,0.0
8.504,-0.28,-0.929,0.0
8.185,-0.27,-0.938,0.0
10.28,-0.338,-0.887,0.0
9.798,-0.323,-0.898,0.0
9.297,-0.308,-0.901,0.0
0.0,0.0,0.0,0.0
8.606,-0.287,-0.927,0.0
8.245,-0.276,-0.933,0.0
10.384,-0.347,-0.881,0.0
9.908,-0.332,-0.893,0.0
9.472,-0.318,-0.905,0.0
9.072,-0.306,-0.916,0.0
8.724,-0.295,-0.927,0.0
8.322,-0.283,-0.929,0.0
10.555,-0.357,-0.88,0.0
10.077,-0.342,-0.894,0.0
9.579,-0.326,-0.901,0.0
9.206,-0.314,-0.915,0.0
8.824,-0.303,-0.925,0.0
8.467,-0.291,-0.932,0.0
10.697,-0.366,-0.876,0.0
10.196,-0.35,-0.889,0.0
9.731,-0.335,-0.9,0.0
9.279,-0.321,-0.909,0.0
8.968,-0.311,-0.926,0.0
8.526,-0.297,-0.926,0.0
10.883,-0.377,-0.875,0.0
10.326,-0.359,-0.884,0.0
9.845,-0.343,-0.895,0.0
9.4,-0.329,-0.906,0.0
9.004,-0.316,-0.915,0.0
8.695,-0.306,-0.93,0.0
11.03,-0.386,-0.869,0.0
10.479,-0.368,-0.881,0.0
10.035,-0.353,-0.897,0.0
9.588,-0.338,-0.909,0.0
9.15,-0.324,-0.916,0.0
8.809,-0.313,-0.928,0.0
11.19,-0.395,-0.864,0.0
10.643,-0.377,-0.878,0.0
10.167,-0.361,-0.892,0.0
9.702,-0.345,-0.904,0.0
9.277,-0.331,-0.913,0.0
8.902,-0.318,-0.924,0.0
11.388,-0.406,-0.861,0.0
10.848,-0.387,-0.877,0.0
10.29,-0.368,-0.886,0.0
9.811,-0.352,-0.898,0.0
9.449,-0.34,-0.915,0.0
9.007,-0.325,-0.92,0.0
11.572,-0.415,-0.856,0.0
10.977,-0.395,-0.87,0.0
10.454,-0.377,-0.883,0.0
9.952,-0.359,-0.894,0.0
9.543,-0.345,-0.908,0.0
9.143,-0.331,-0.918,0.0
11.825,-0.427,-0.855,0.0
11.149,-0.403,-0.865,0.0
10.612,-0.384,-0.879,0.0
10.141,-0.368,-0.894,0.0
9.695,-0.352,-0.906,0.0
9.268,-0.338,-0.915,0.0
12.083,-0.438,-0.854,0.0
11.366,-0.413,-0.862,0.0
10.803,-0.393,-0.876,0.0
10.275,-0.374,-0.889,0.0
9.826,-0.359,-0.902,0.0
9.38,-0.343,-0.91,0.0
12.369,-0.45,-0.853,0.0
11.582,-0.422,-0.859,0.0
10.981,-0.401,-0.872,0.0
10.435,-0.382,-0.885,0.0
9.96,-0.365,-0.897,0.0
9.554,-0.35,-0.911,0.0
12.586,-0.46,-0.846,0.0
11.81,-0.432,-0.856,0.0
11.135,-0.407,-0.865,0.0
10.636,-0.39,-0.883,0.0
10.134,-0.372,-0.895,0.0
9.684,-0.356,-0.906,0.0
13.07,-0.478,-0.856,0.0
12.13,-0.444,-0.858,0.0
11.363,-0.416,-0.863,0.0
10.829,-0.397,-0.88,0.0
10.294,-0.378,-0.891,0.0
9.804,-0.361,-0.9,0.0
13.241,-0.485,-0.844,0.0
12.382,-0.453,-0.854,0.0
11.571,-0.424,-0.858,0.0
10.963,-0.402,-0.872,0.0
10.446,-0.384,-0.885,0.0
9.969,-0.366,-0.897,0.0
13.638,-0.499,-0.845,0.0
12.62,-0.462,-0.848,0.0
11.827,-0.433,-0.856,0.0
11.194,-0.41,-0.87,0.0
10.624,-0.39,-0.882,0.0
10.117,-0.371,-0.893,0.0
13.898,-0.508,-0.836,0.0
12.984,-0.475,-0.849,0.0
12.134,-0.444,-0.857,0.0
11.377,-0.416,-0.864,0.0
10.843,-0.397,-0.88,0.0
10.307,-0.377,-0.891,0.0
14.23,-0.518,-0.831,0.0
13.267,-0.483,-0.844,0.0
12.387,-0.451,-0.852,0.0
11.593,-0.423,-0.859,0.0
11.003,-0.401,-0.873,0.0
10.489,-0.383,-0.887,0.0
14.609,-0.53,-0.827,0.0
13.635,-0.495,-0.842,0.0
12.724,-0.462,-0.852,0.0
11.891,-0.432,-0.86,0.0
11.211,-0.407,-0.869,0.0
10.657,-0.387,-0.882,0.0
14.981,-0.541,-0.821,0.0
13.946,-0.504,-0.836,0.0
13.097,-0.473,-0.853,0.0
12.182,-0.44,-0.859,0.0
11.405,-0.412,-0.863,0.0
10.869,-0.392,-0.88,0.0
15.271,-0.549,-0.809,0.0
14.331,-0.515,-0.833,0.0
13.422,-0.482,-0.85,0.0
12.426,-0.446,-0.853,0.0
11.643,-0.418,-0.86,0.0
11.044,-0.396,-0.874,0.0
15.858,-0.566,-0.811,0.0
14.59,-0.52,-0.822,0.0
13.657,-0.487,-0.84,0.0
12.716,-0.453,-0.85,0.0
11.944,-0.425,-0.86,0.0
11.283,-0.401,-0.871,0.0
16.288,-0.576,-0.802,0.0
14.98,-0.529,-0.816,0.0
14.038,-0.496,-0.837,0.0
13.097,-0.462,-0.851,0.0
12.224,-0.431,-0.858,0.0
11.462,-0.404,-0.864,0.0
16.768,-0.588,-0.795,0.0
15.333,-0.537,-0.806,0.0
14.384,-0.503,-0.831,0.0
13.452,-0.47,-0.849,0.0
12.501,-0.436,-0.854,0.0
11.736,-0.409,-0.863,0.0
17.358,-0.602,-0.791,0.0
15.905,-0.551,-0.807,0.0
14.759,-0.511,-0.825,0.0
13.741,-0.475,-0.841,0.0
12.766,-0.44,-0.848,0.0
12.017,-0.414,-0.861,0.0
17.804,-0.61,-0.778,0.0
16.359,-0.56,-0.799,0.0
15.13,-0.517,-0.818,0.0
14.021,-0.478,-0.832,0.0
13.228,-0.45,-0.854,0.0
12.332,-0.419,-0.86,0.0
18.359,-0.621,-0.767,0.0
16.859,-0.569,-0.792,0.0
15.651,-0.527,-0.816,0.0
14.401,-0.484,-0.827,0.0
13.562,-0.455,-0.849,0.0
12.579,-0.421,-0.853,0.0
19.12,-0.637,-0.763,0.0
17.5,-0.582,-0.789,0.0
16.045,-0.532,-0.807,0.0
14.858,-0.492,-0.826,0.0
13.919,-0.46,-0.846,0.0
12.882,-0.425,-0.85,0.0
19.643,-0.644,-0.747,0.0
17.967,-0.588,-0.777,0.0
16.486,-0.538,-0.798,0.0
15.257,-0.497,-0.819,0.0
14.17,-0.46,-0.834,0.0
13.43,-0.435,-0.861,0.0
20.416,-0.658,-0.739,0.0
18.411,-0.592,-0.761,0.0
16.999,-0.545,-0.791,0.0
15.688,-0.501,-0.813,0.0
14.604,-0.466,-0.832,0.0
13.598,-0.432,-0.846,0.0
21.833,-0.69,-0.749,1.0
19.297,-0.608,-0.762,0.0
17.568,-0.552,-0.784,0.0
16.191,-0.507,-0.808,0.0
14.941,-0.467,-0.823,0.0
14.025,-0.437,-0.846,0.0
21.89,-0.678,-0.71,9.0
19.75,-0.61,-0.743,0.0
18.195,-0.56,-0.778,0.0
16.646,-0.51,-0.8,0.0
15.429,-0.471,-0.821,0.0
14.322,-0.436,-0.837,0.0
21.915,-0.663,-0.67,5.0
21.716,-0.655,-0.776,0.0
18.396,-0.553,-0.753,0.0
17.178,-0.514,-0.793,0.0
15.889,-0.474,-0.816,0.0
14.618,-0.435,-0.827,0.0
21.911,-0.647,-0.628,31.0
21.812,-0.642,-0.738,4.0
21.918,-0.643,-0.856,2.0
17.942,-0.524,-0.795,0.0
16.313,-0.474,-0.807,0.0
15.169,-0.439,-0.829,0.0
21.883,-0.629,-0.586,157.0
21.873,-0.627,-0.7,54.0
21.872,-0.624,-0.813,20.0
21.906,-0.622,-0.93,1.0
21.905,-0.62,-1.044,1.0
21.904,-0.617,-1.157,0.0
21.862,-0.611,-0.545,206.0
21.88,-0.609,-0.659,150.0
21.869,-0.606,-0.772,13.0
21.895,-0.604,-0.888,53.0
21.905,-0.601,-1.002,1.0
21.877,-0.597,-1.115,0.0
21.881,-0.593,-0.505,159.0
21.896,-0.591,-0.619,155.0
21.839,-0.586,-0.73,15.0
21.885,-0.584,-0.847,1.0
18.057,-0.48,-0.793,6.0
18.146,-0.479,-0.891,0.0
21.906,-0.575,-0.465,16.0
21.851,-0.57,-0.577,165.0
21.853,-0.567,-0.69,50.0
18.15,-0.468,-0.669,150.0
18.083,-0.464,-0.761,15.0
18.031,-0.46,-0.852,4.0
30.763,-0.779,-0.597,0.0
21.915,-0.551,-0.538,151.0
21.9,-0.548,-0.652,7.0
18.106,-0.45,-0.634,165.0
18.123,-0.447,-0.729,60.0
18.1,-0.444,-0.822,2.0
32.961,-0.803,-0.579,0.0
0.0,0.0,0.0,0.0
18.162,-0.436,-0.507,29.0
18.116,-0.432,-0.602,183.0
18.134,-0.43,-0.696,67.0
18.1,-0.426,-0.789,7.0
33.382,-0.78,-0.526,0.0
29.669,-0.688,-0.621,0.0
18.125,-0.417,-0.473,0.0
18.16,-0.415,-0.57,152.0
18.128,-0.411,-0.663,154.0
18.109,-0.408,-0.757,43.0
37.204,-0.831,-0.519,0.0
31.351,-0.695,-0.6,0.0
26.906,-0.591,-0.654,0.0
18.156,-0.396,-0.537,7.0
18.103,-0.391,-0.63,156.0
18.129,-0.389,-0.725,42.0
0.0,0.0,0.0,0.0
33.546,-0.707,-0.582,0.0
28.696,-0.6,-0.646,0.0
24.68,-0.511,-0.687,0.0
18.146,-0.372,-0.599,11.0
18.141,-0.369,-0.693,4.0
44.942,-0.906,-0.466,0.0
0.0,0.0,0.0,0.0
29.524,-0.584,-0.612,0.0
26.09,-0.511,-0.679,0.0
22.896,-0.444,-0.715,0.0
20.354,-0.391,-0.741,0.0
45.632,-0.867,-0.392,2.0
36.998,-0.696,-0.51,0.0
31.619,-0.589,-0.6,0.0
0.0,0.0,0.0,0.0
23.894,-0.436,-0.704,0.0
21.265,-0.384,-0.737,0.0
50.387,-0.899,-0.345,0.0
0.0,0.0,0.0,0.0
35.041,-0.611,-0.604,0.0
28.626,-0.493,-0.645,0.0
24.85,-0.423,-0.689,0.0
21.948,-0.369,-0.723,0.0
0.0,0.0,0.0,0.0
42.717,-0.701,-0.44,0.0
0.0,0.0,0.0,0.0
0.0,0.0,0.0,0.0
26.045,-0.411,-0.677,0.0
22.933,-0.357,-0.716,0.0
0.0,0.0,0.0,0.0
46.666,-0.707,-0.4,3.0
37.8,-0.565,-0.521,0.0
31.404,-0.462,-0.599,0.0
26.779,-0.388,-0.65,0.0
23.834,-0.34,-0.702,0.0
0.0,0.0,0.0,0.0
49.601,-0.688,-0.34,0.0
0.0,0.0,0.0,0.0
0.0,0.0,0.0,0.0
28.853,-0.381,-0.652,0.0
24.809,-0.322,-0.69,0.0
0.0,0.0,0.0,0.0
0.0,0.0,0.0,0.0
42.825,-0.528,-0.445,0.0
34.935,-0.423,-0.549,0.0
29.884,-0.355,-0.625,0.0
25.947,-0.302,-0.678,0.0
0.0,0.0,0.0,0.0
0.0,0.0,0.0,0.0
45.42,-0.498,-0.397,0.0
0.0,0.0,0.0,0.0
31.374,-0.33,-0.605,0.0
26.899,-0.276,-0.659,0.0
0.0,0.0,0.0,0.0
0.0,0.0,0.0,0.0
49.295,-0.472,-0.35,0.0
0.0,0.0,0.0,0.0
33.113,-0.301,-0.584,0.0
28.287,-0.251,-0.647,0.0
114.225,-0.987,0.565,2.0
0.0,0.0,0.0,0.0
0.0,0.0,0.0,0.0
0.0,0.0,0.0,0.0
0.0,0.0,0.0,0.0
29.634,-0.22,-0.631,0.0
113.895,-0.821,0.744,8.0
83.021,-0.579,0.108,1.0
0.0,0.0,0.0,0.0
46.495,-0.301,-0.43,0.0
0.0,0.0,0.0,0.0
31.101,-0.186,-0.613,0.0
119.683,-0.688,0.97,11.0
0.0,0.0,0.0,0.0
0.0,0.0,0.0,0.0
47.648,-0.238,-0.366,0.0
0.0,0.0,0.0,0.0
32.471,-0.145,-0.59,0.0
119.731,-0.507,1.158,16.0
103.875,-0.415,0.459,1.0
0.0,0.0,0.0,0.0
0.0,0.0,0.0,0.0
0.0,0.0,0.0,0.0
33.982,-0.101,-0.566,0.0
119.738,-0.327,1.338,14.0
110.955,-0.275,0.657,9.0
0.0,0.0,0.0,0.0
0.0,0.0,0.0,0.0
45.42,-0.077,-0.45,1.0
0.0,0.0,0.0,0.0
111.1,-0.133,1.406,8.0
111.233,-0.105,0.823,8.0
95.402,-0.064,0.205,1.0
0.0,0.0,0.0,0.0
45.723,-0.007,-0.386,1.0
39.556,0.004,-0.542,3.0
111.126,0.04,1.569,17.0
111.204,0.07,0.986,13.0
103.488,0.093,0.374,1.0
0.0,0.0,0.0,0.0
49.715,0.07,-0.348,0.0
40.087,0.068,-0.491,0.0
119.864,0.236,1.867,15.0
111.178,0.25,1.147,12.0
103.932,0.26,0.524,9.0
0.0,0.0,0.0,0.0
52.353,0.159,-0.292,0.0
42.835,0.142,-0.464,0.0
119.87,0.431,2.036,102.0
111.168,0.429,1.302,18.0
104.509,0.432,0.672,8.0
87.693,0.387,0.093,1.0
0.0,0.0,0.0,0.0
45.723,0.227,-0.433,1.0
111.051,0.582,2.04,25.0
111.062,0.614,1.455,29.0
104.972,0.609,0.82,14.0
86.754,0.527,0.212,4.0
0.0,0.0,0.0,0.0
48.692,0.322,-0.395,0.0
104.862,0.725,2.069,16.0
0.0,0.0,0.0,0.0
104.807,0.784,0.96,15.0
90.775,0.705,0.343,5.0
0.0,0.0,0.0,0.0
49.489,0.412,-0.335,0.0
0.0,0.0,0.0,0.0
100.01,0.891,1.577,4.0
98.757,0.908,1.036,19.0
97.998,0.929,0.499,7.0
81.425,0.795,-0.016,1.0
0.0,0.0,0.0,0.0
98.666,1.021,2.206,24.0
98.602,1.047,1.682,27.0
98.555,1.075,1.158,29.0
98.13,1.099,0.624,9.0
79.756,0.915,0.084,3.0
0.0,0.0,0.0,0.0
98.556,1.191,2.328,29.0
98.527,1.219,1.805,29.0
98.507,1.248,1.282,26.0
98.492,1.276,0.749,22.0
80.974,1.072,0.186,5.0
60.834,0.822,-0.182,0.0
98.569,1.363,2.449,26.0
98.643,1.393,1.927,22.0
98.631,1.422,1.403,21.0
92.099,1.354,0.811,9.0
84.787,1.271,0.296,5.0
75.074,1.147,-0.136,0.0
119.927,1.873,3.124,23.0
91.93,1.462,1.905,22.0
91.919,1.488,1.416,40.0
91.839,1.514,0.917,16.0
84.982,1.425,0.396,6.0
73.366,1.252,-0.047,4.0
91.822,1.599,2.498,28.0
91.799,1.625,2.009,17.0
87.375,1.572,1.446,23.0
91.899,1.68,1.022,28.0
85.378,1.586,0.495,10.0
71.913,1.357,0.034,3.0
91.805,1.764,2.601,28.0
87.054,1.698,2.002,52.0
91.994,1.821,1.624,4.0
85.433,1.716,1.044,15.0
85.221,1.737,0.587,16.0
72.132,1.491,0.112,6.0
85.334,1.795,2.511,28.0
85.293,1.818,2.054,33.0
85.265,1.843,1.598,39.0
85.245,1.868,1.133,41.0
85.223,1.893,0.678,25.0
72.056,1.622,0.188,11.0
85.254,1.95,2.599,34.0
85.26,1.976,2.143,34.0
85.242,2.0,1.686,34.0
85.246,2.026,1.222,35.0
85.258,2.051,0.766,25.0
72.154,1.758,0.263,8.0
85.37,2.112,2.69,10.0
120.0,3.003,3.139,24.0
78.998,2.001,1.643,10.0
78.971,2.023,1.211,29.0
78.917,2.045,0.788,33.0
78.715,2.064,0.364,8.0
78.82,2.097,2.562,28.0
78.844,2.121,2.139,33.0
78.751,2.142,1.714,6.0
76.699,2.109,1.251,5.0
75.445,2.098,0.826,6.0
78.721,2.213,0.439,11.0
78.811,2.246,2.637,27.0
78.84,2.271,2.214,23.0
75.204,2.188,1.708,5.0
78.876,2.318,1.36,3.0
78.917,2.343,0.936,21.0
78.843,2.364,0.512,11.0
78.912,2.397,2.712,8.0
0.0,0.0,0.0,0.0
119.979,3.717,2.833,12.0
120.069,3.754,2.176,3.0
72.465,2.288,0.923,28.0
72.348,2.305,0.533,31.0
72.506,2.34,2.555,25.0
72.465,2.36,2.163,32.0
72.41,2.379,1.771,32.0
72.383,2.4,1.373,37.0
72.366,2.421,0.983,40.0
72.357,2.443,0.593,27.0
72.402,2.475,2.612,33.0
72.393,2.497,2.222,35.0
72.378,2.517,1.83,35.0
72.366,2.538,1.432,33.0
72.358,2.56,1.042,28.0
72.369,2.582,0.652,24.0
72.481,2.617,2.674,23.0
72.473,2.638,2.281,26.0
72.53,2.662,1.891,17.0
120.098,4.444,2.471,19.0
120.045,4.479,1.822,11.0
119.978,4.511,1.172,15.0
190.692,7.253,7.18,16.0
210.31,8.063,6.781,7.0
120.09,4.64,3.222,5.0
194.04,7.553,4.135,22.0
63.025,2.472,1.002,6.0
60.984,2.41,0.64,3.0
66.104,2.641,2.536,22.0
66.144,2.663,2.179,18.0
66.163,2.684,1.822,5.0
63.194,2.582,1.391,7.0
66.197,2.723,1.098,10.0
66.09,2.738,0.738,28.0
66.014,2.765,2.578,29.0
66.043,2.786,2.22,29.0
63.575,2.7,1.792,11.0
61.202,2.618,1.387,10.0
66.08,2.847,1.14,32.0
66.057,2.865,0.78,26.0
66.038,2.894,2.622,10.0
66.095,2.916,2.265,20.0
61.857,2.748,1.783,6.0
66.099,2.955,1.539,23.0
66.092,2.974,1.18,20.0
66.099,2.995,0.821,10.0
52.808,2.416,2.128,18.0
0.0,0.0,0.0,0.0
128.711,5.967,3.786,3.0
120.107,5.602,2.868,9.0
50.747,2.382,0.935,6.0
48.788,2.305,0.634,3.0
52.783,2.519,2.157,5.0
0.0,0.0,0.0,0.0
125.817,6.077,3.771,2.0
120.121,5.836,2.933,19.0
50.211,2.454,0.952,21.0
48.522,2.386,0.656,10.0
59.462,2.952,2.461,19.0
59.488,2.971,2.138,27.0
59.503,2.989,1.813,17.0
50.736,2.563,1.264,14.0
48.813,2.48,0.95,5.0
48.239,2.465,0.675,11.0
59.399,3.065,2.488,27.0
59.403,3.082,2.163,43.0
59.403,3.1,1.839,35.0
50.515,2.65,1.282,25.0
48.435,2.555,0.965,6.0
48.024,2.547,0.694,16.0
59.426,3.181,2.515,24.0
59.458,3.199,2.191,26.0
59.423,3.214,1.865,25.0
50.342,2.737,1.299,13.0
48.125,2.63,0.978,16.0
47.854,2.629,0.711,28.0
119.669,6.637,5.115,31.0
119.687,6.671,4.458,32.0
50.817,2.846,1.614,3.0
48.988,2.758,1.283,8.0
47.909,2.711,0.992,21.0
47.649,2.71,0.725,43.0
119.179,6.839,5.137,16.0
118.815,6.851,4.469,14.0
50.806,2.944,1.632,22.0
48.178,2.805,1.278,4.0
47.717,2.792,1.004,30.0
114.588,6.737,1.783,8.0
115.436,6.847,5.014,22.0
115.446,6.878,4.379,36.0
50.061,2.996,1.623,5.0
47.81,2.875,1.283,10.0
47.509,2.87,1.013,57.0
111.11,6.744,1.76,43.0
111.02,6.796,4.854,23.0
111.07,6.828,4.243,51.0
49.136,3.035,1.606,12.0
47.565,2.95,1.289,21.0
111.233,6.93,2.401,10.0
110.979,6.946,1.785,7.0
89.94,5.676,3.954,6.0
110.975,7.032,4.266,28.0
48.347,3.076,1.592,7.0
