X,Y,Z,Reflectivity
7.925,0.005,-0.932,0.0
7.584,0.003,-0.936,0.0
0.0,0.0,0.0,0.0
6.989,0.001,-0.944,0.0
8.616,0.0,-0.92,0.0
8.244,-0.002,-0.928,0.0
7.906,-0.003,-0.935,0.0
0.0,0.0,0.0,0.0
7.255,-0.005,-0.942,0.0
6.994,-0.006,-0.949,0.0
8.5,-0.01,-0.913,0.0
8.167,-0.011,-0.924,0.0
7.861,-0.012,-0.935,0.0
0.0,0.0,0.0,0.0
0.0,0.0,0.0,0.0
6.955,-0.014,-0.948,0.0
8.504,-0.019,-0.919,0.0
8.132,-0.019,-0.925,0.0
7.829,-0.02,-0.936,0.0
0.0,0.0,0.0,0.0
0.0,0.0,0.0,0.0
6.896,-0.021,-0.944,0.0
8.463,-0.028,-0.919,0.0
8.097,-0.028,-0.926,0.0
7.802,-0.029,-0.937,0.0
0.0,0.0,0.0,0.0
0.0,0.0,0.0,0.0
0.0,0.0,0.0,0.0
8.429,-0.037,-0.92,0.0
8.126,-0.037,-0.933,0.0
7.789,-0.037,-0.939,0.0
0.0,0.0,0.0,0.0
0.0,0.0,0.0,0.0
0.0,0.0,0.0,0.0
8.38,-0.046,-0.919,0.0
8.053,-0.046,-0.929,0.0
7.73,-0.046,-0.936,0.0
0.0,0.0,0.0,0.0
0.0,0.0,0.0,0.0
0.0,0.0,0.0,0.0
8.383,-0.056,-0.923,0.0
8.022,-0.055,-0.929,0.0
7.694,-0.054,-0.935,0.0
0.0,0.0,0.0,0.0
0.0,0.0,0.0,0.0
0.0,0.0,0.0,0.0
8.359,-0.065,-0.923,0.0
7.992,-0.064,-0.928,0.0
7.653,-0.062,-0.933,0.0
0.0,0.0,0.0,0.0
0.0,0.0,0.0,0.0
0.0,0.0,0.0,0.0
8.319,-0.074,-0.922,0.0
7.967,-0.073,-0.928,0.0
7.658,-0.071,-0.936,0.0
0.0,0.0,0.0,0.0
0.0,0.0,0.0,0.0
0.0,0.0,0.0,0.0
8.321,-0.084,-0.925,0.0
7.955,-0.082,-0.929,0.0
7.615,-0.079,-0.933,0.0
0.0,0.0,0.0,0.0
0.0,0.0,0.0,0.0
0.0,0.0,0.0,0.0
8.314,-0.093,-0.926,0.0
7.934,-0.09,-0.929,0.0
7.639,-0.088,-0.938,0.0
0.0,0.0,0.0,0.0
0.0,0.0,0.0,0.0
6.789,-0.083,-0.95,0.0
8.278,-0.102,-0.924,0.0
7.892,-0.099,-0.925,0.0
7.635,-0.097,-0.939,0.0
0.0,0.0,0.0,0.0
7.03,-0.092,-0.945,0.0
6.754,-0.09,-0.946,0.0
8.283,-0.112,-0.926,0.0
7.94,-0.109,-0.932,0.0
7.604,-0.105,-0.936,0.0
0.0,0.0,0.0,0.0
0.0,0.0,0.0,0.0
6.775,-0.098,-0.95,0.0
8.241,-0.121,-0.922,0.0
7.902,-0.117,-0.929,0.0
7.594,-0.114,-0.935,0.0
0.0,0.0,0.0,0.0
0.0,0.0,0.0,0.0
6.789,-0.106,-0.953,0.0
8.228,-0.13,-0.921,0.0
7.895,-0.126,-0.928,0.0
7.634,-0.123,-0.941,0.0
0.0,0.0,0.0,0.0
0.0,0.0,0.0,0.0
6.804,-0.114,-0.955,0.0
8.216,-0.139,-0.92,0.0
7.878,-0.135,-0.926,0.0
7.632,-0.132,-0.941,0.0
0.0,0.0,0.0,0.0
0.0,0.0,0.0,0.0
0.0,0.0,0.0,0.0
8.243,-0.149,-0.923,0.0
7.887,-0.144,-0.927,0.0
7.613,-0.141,-0.938,0.0
0.0,0.0,0.0,0.0
0.0,0.0,0.0,0.0
0.0,0.0,0.0,0.0
8.231,-0.158,-0.921,0.0
7.948,-0.154,-0.934,0.0
7.584,-0.149,-0.934,0.0
0.0,0.0,0.0,0.0
0.0,0.0,0.0,0.0
0.0,0.0,0.0,0.0
8.252,-0.168,-0.922,0.0
7.939,-0.163,-0.932,0.0
0.0,0.0,0.0,0.0
0.0,0.0,0.0,0.0
0.0,0.0,0.0,0.0
0.0,0.0,0.0,0.0
8.293,-0.178,-0.926,0.0
7.933,-0.172,-0.93,0.0
7.595,-0.166,-0.933,0.0
0.0,0.0,0.0,0.0
7.106,-0.158,-0.953,0.0
0.0,0.0,0.0,0.0
8.303,-0.187,-0.925,0.0
7.973,-0.181,-0.933,0.0
7.648,-0.176,-0.938,0.0
0.0,0.0,0.0,0.0
0.0,0.0,0.0,0.0
0.0,0.0,0.0,0.0
8.322,-0.197,-0.925,0.0
8.002,-0.191,-0.934,0.0
0.0,0.0,0.0,0.0
0.0,0.0,0.0,0.0
7.093,-0.174,-0.948,0.0
0.0,0.0,0.0,0.0
8.327,-0.206,-0.923,0.0
7.978,-0.199,-0.929,0.0
0.0,0.0,0.0,0.0
0.0,0.0,0.0,0.0
0.0,0.0,0.0,0.0
0.0,0.0,0.0,0.0
8.331,-0.215,-0.921,0.0
8.005,-0.208,-0.929,0.0
0.0,0.0,0.0,0.0
0.0,0.0,0.0,0.0
0.0,0.0,0.0,0.0
0.0,0.0,0.0,0.0
8.401,-0.226,-0.925,0.0
8.05,-0.218,-0.931,0.0
0.0,0.0,0.0,0.0
0.0,0.0,0.0,0.0
0.0,0.0,0.0,0.0
0.0,0.0,0.0,0.0
8.413,-0.235,-0.923,0.0
8.087,-0.228,-0.932,0.0
0.0,0.0,0.0,0.0
0.0,0.0,0.0,0.0
7.145,-0.206,-0.944,0.0
6.923,-0.201,-0.953,0.0
8.397,-0.244,-0.917,0.0
8.069,-0.236,-0.926,0.0
7.798,-0.229,-0.938,0.0
0.0,0.0,0.0,0.0
0.0,0.0,0.0,0.0
6.942,-0.209,-0.952,0.0
8.459,-0.254,-0.919,0.0
8.136,-0.246,-0.929,0.0
7.79,-0.237,-0.933,0.0
0.0,0.0,0.0,0.0
0.0,0.0,0.0,0.0
6.948,-0.216,-0.949,0.0
8.476,-0.263,-0.917,0.0
8.182,-0.256,-0.93,0.0
7.819,-0.246,-0.932,0.0
0.0,0.0,0.0,0.0
0.0,0.0,0.0,0.0
6.993,-0.224,-0.951,0.0
8.493,-0.272,-0.913,0.0
8.156,-0.263,-0.922,0.0
7.859,-0.255,-0.932,0.0
0.0,0.0,0.0,0.0
7.261,-0.239,-0.942,0.0
7.012,-0.232,-0.949,0.0
8.61,-0.285,-0.92,0.0
8.219,-0.273,-0.924,0.0
7.919,-0.265,-0.934,0.0
7.577,-0.255,-0.936,0.0
0.0,0.0,0.0,0.0
7.06,-0.24,-0.95,0.0
8.619,-0.293,-0.915,0.0
8.279,-0.283,-0.925,0.0
7.942,-0.273,-0.931,0.0
7.643,-0.264,-0.939,0.0
0.0,0.0,0.0,0.0
7.045,-0.246,-0.943,0.0
8.724,-0.305,-0.92,0.0
8.295,-0.291,-0.92,0.0
7.987,-0.282,-0.93,0.0
0.0,0.0,0.0,0.0
7.379,-0.264,-0.941,0.0
7.088,-0.254,-0.944,0.0
8.792,-0.315,-0.921,0.0
8.415,-0.303,-0.927,0.0
8.029,-0.291,-0.929,0.0
7.7,-0.281,-0.934,0.0
7.409,-0.271,-0.939,0.0
7.108,-0.262,-0.94,0.0
8.814,-0.324,-0.916,0.0
8.456,-0.312,-0.925,0.0
8.08,-0.3,-0.928,0.0
7.768,-0.29,-0.935,0.0
7.446,-0.279,-0.938,0.0
7.233,-0.273,-0.951,0.0
8.897,-0.335,-0.917,0.0
8.508,-0.322,-0.923,0.0
8.125,-0.309,-0.926,0.0
7.808,-0.298,-0.933,0.0
7.516,-0.289,-0.94,0.0
7.258,-0.28,-0.947,0.0
8.937,-0.344,-0.913,0.0
8.518,-0.329,-0.916,0.0
8.183,-0.318,-0.925,0.0
7.87,-0.307,-0.933,0.0
7.539,-0.296,-0.935,0.0
7.311,-0.288,-0.947,0.0
8.972,-0.353,-0.908,0.0
8.66,-0.342,-0.923,0.0
8.246,-0.327,-0.924,0.0
7.897,-0.315,-0.929,0.0
7.59,-0.304,-0.934,0.0
7.361,-0.296,-0.947,0.0
9.095,-0.365,-0.912,0.0
8.737,-0.352,-0.923,0.0
8.34,-0.338,-0.927,0.0
7.99,-0.325,-0.932,0.0
7.675,-0.313,-0.937,0.0
7.429,-0.305,-0.948,0.0
9.163,-0.375,-0.909,0.0
8.808,-0.362,-0.922,0.0
8.406,-0.347,-0.925,0.0
8.09,-0.335,-0.935,0.0
7.786,-0.324,-0.943,0.0
7.419,-0.31,-0.939,0.0
9.223,-0.384,-0.905,0.0
8.812,-0.369,-0.913,0.0
8.499,-0.357,-0.926,0.0
8.164,-0.344,-0.935,0.0
7.823,-0.331,-0.938,0.0
7.486,-0.318,-0.939,0.0
9.346,-0.396,-0.907,0.0
9.004,-0.383,-0.923,0.0
8.551,-0.365,-0.923,0.0
8.174,-0.351,-0.927,0.0
7.883,-0.339,-0.937,0.0
7.549,-0.326,-0.938,0.0
9.394,-0.405,-0.901,0.0
9.01,-0.39,-0.913,0.0
8.694,-0.377,-0.928,0.0
8.268,-0.36,-0.928,0.0
7.958,-0.348,-0.937,0.0
7.654,-0.336,-0.943,0.0
9.535,-0.417,-0.904,0.0
9.088,-0.399,-0.911,0.0
0.0,0.0,0.0,0.0
8.324,-0.368,-0.925,0.0
7.994,-0.355,-0.931,0.0
7.717,-0.344,-0.941,0.0
9.623,-0.427,-0.901,0.0
9.148,-0.407,-0.906,0.0
8.793,-0.393,-0.918,0.0
8.451,-0.379,-0.929,0.0
8.064,-0.363,-0.93,0.0
7.764,-0.35,-0.937,0.0
9.72,-0.438,-0.898,0.0
9.237,-0.417,-0.903,0.0
8.913,-0.404,-0.919,0.0
8.515,-0.387,-0.925,0.0
8.178,-0.373,-0.933,0.0
7.884,-0.36,-0.942,0.0
9.827,-0.448,-0.896,0.0
9.375,-0.429,-0.905,0.0
8.995,-0.412,-0.916,0.0
0.0,0.0,0.0,0.0
8.265,-0.381,-0.932,0.0
7.968,-0.369,-0.941,0.0
9.924,-0.458,-0.892,0.0
9.513,-0.44,-0.906,0.0
9.071,-0.421,-0.912,0.0
0.0,0.0,0.0,0.0
8.367,-0.39,-0.932,0.0
8.003,-0.374,-0.935,0.0
10.079,-0.47,-0.892,0.0
9.605,-0.449,-0.902,0.0
9.128,-0.428,-0.906,0.0
8.798,-0.414,-0.921,0.0
8.45,-0.398,-0.93,0.0
8.108,-0.383,-0.936,0.0
10.184,-0.48,-0.888,0.0
9.707,-0.458,-0.898,0.0
9.342,-0.442,-0.915,0.0
8.893,-0.422,-0.919,0.0
8.491,-0.404,-0.923,0.0
8.201,-0.391,-0.936,0.0
10.308,-0.49,-0.885,0.0
9.838,-0.469,-0.897,0.0
9.408,-0.449,-0.908,0.0
8.986,-0.43,-0.916,0.0
8.577,-0.412,-0.92,0.0
8.283,-0.399,-0.933,0.0
10.45,-0.501,-0.882,0.0
9.938,-0.478,-0.892,0.0
9.489,-0.457,-0.902,0.0
9.089,-0.439,-0.914,0.0
8.756,-0.424,-0.927,0.0
8.341,-0.404,-0.928,0.0
10.594,-0.512,-0.879,0.0
10.094,-0.489,-0.892,0.0
9.65,-0.468,-0.904,0.0
0.0,0.0,0.0,0.0
8.846,-0.431,-0.924,0.0
8.473,-0.414,-0.93,0.0
10.739,-0.522,-0.876,0.0
10.22,-0.498,-0.888,0.0
9.764,-0.477,-0.9,0.0
9.377,-0.459,-0.915,0.0
8.936,-0.438,-0.92,0.0
8.523,-0.419,-0.923,0.0
10.907,-0.534,-0.873,0.0
10.365,-0.508,-0.885,0.0
9.883,-0.486,-0.896,0.0
9.48,-0.467,-0.911,0.0
9.076,-0.448,-0.92,0.0
8.716,-0.431,-0.93,0.0
11.037,-0.543,-0.867,0.0
10.506,-0.518,-0.881,0.0
10.038,-0.496,-0.895,0.0
9.528,-0.471,-0.901,0.0
9.155,-0.453,-0.914,0.0
8.766,-0.435,-0.922,0.0
11.224,-0.555,-0.865,0.0
10.656,-0.528,-0.877,0.0
10.164,-0.504,-0.891,0.0
9.698,-0.482,-0.902,0.0
9.287,-0.462,-0.913,0.0
8.902,-0.443,-0.923,0.0
11.392,-0.565,-0.86,0.0
10.847,-0.539,-0.876,0.0
10.292,-0.512,-0.886,0.0
9.817,-0.489,-0.898,0.0
9.388,-0.468,-0.908,0.0
9.03,-0.451,-0.922,0.0
11.646,-0.58,-0.861,0.0
11.016,-0.549,-0.873,0.0
10.492,-0.523,-0.887,0.0
9.99,-0.499,-0.898,0.0
9.547,-0.477,-0.909,0.0
9.114,-0.456,-0.916,0.0
11.84,-0.591,-0.857,0.0
11.171,-0.558,-0.867,0.0
10.628,-0.531,-0.881,0.0
10.11,-0.506,-0.893,0.0
9.663,-0.484,-0.904,0.0
9.192,-0.461,-0.909,0.0
12.101,-0.604,-0.856,0.0
11.377,-0.569,-0.865,0.0
10.823,-0.542,-0.88,0.0
10.266,-0.514,-0.89,0.0
9.799,-0.491,-0.901,0.0
9.371,-0.47,-0.911,0.0
12.345,-0.617,-0.854,0.0
11.577,-0.579,-0.861,0.0
10.985,-0.55,-0.875,0.0
10.429,-0.522,-0.887,0.0
9.955,-0.499,-0.899,0.0
9.52,-0.478,-0.91,0.0
12.608,-0.63,-0.851,0.0
11.789,-0.59,-0.857,0.0
11.141,-0.557,-0.869,0.0
10.59,-0.53,-0.883,0.0
10.111,-0.506,-0.896,0.0
9.651,-0.484,-0.906,0.0
19.991,-0.999,-1.316,0.0
12.064,-0.603,-0.857,0.0
11.348,-0.567,-0.866,0.0
10.78,-0.539,-0.88,0.0
10.267,-0.513,-0.893,0.0
9.792,-0.49,-0.903,0.0
20.018,-0.998,-1.285,0.0
12.332,-0.615,-0.856,0.0
11.542,-0.576,-0.861,0.0
10.947,-0.546,-0.876,0.0
10.443,-0.521,-0.89,0.0
9.95,-0.497,-0.901,0.0
13.525,-0.672,-0.845,0.0
12.604,-0.627,-0.853,0.0
11.793,-0.586,-0.86,0.0
11.127,-0.553,-0.871,0.0
10.578,-0.526,-0.884,0.0
10.115,-0.503,-0.898,0.0
13.823,-0.685,-0.84,0.0
20.054,-0.994,-1.324,0.0
12.056,-0.597,-0.859,0.0
11.316,-0.561,-0.866,0.0
10.764,-0.533,-0.881,0.0
10.253,-0.508,-0.893,0.0
14.111,-0.696,-0.834,0.0
19.972,-0.985,-1.284,0.0
12.338,-0.609,-0.858,0.0
11.53,-0.569,-0.863,0.0
10.971,-0.541,-0.879,0.0
10.42,-0.514,-0.889,0.0
14.421,-0.708,-0.827,0.0
13.465,-0.661,-0.842,0.0
12.565,-0.616,-0.852,0.0
11.775,-0.577,-0.861,0.0
11.125,-0.545,-0.872,0.0
10.572,-0.518,-0.884,0.0
14.811,-0.723,-0.824,0.0
13.808,-0.674,-0.84,0.0
20.006,-0.976,-1.322,0.0
12.058,-0.588,-0.861,0.0
11.333,-0.552,-0.868,0.0
10.775,-0.524,-0.882,0.0
15.161,-0.735,-0.817,0.0
14.097,-0.683,-0.833,0.0
13.216,-0.64,-0.85,0.0
12.318,-0.596,-0.858,0.0
11.546,-0.558,-0.864,0.0
10.969,-0.53,-0.879,0.0
20.071,-0.966,-1.046,0.0
14.473,-0.696,-0.83,0.0
13.536,-0.65,-0.847,0.0
12.541,-0.602,-0.851,0.0
11.801,-0.566,-0.863,0.0
11.118,-0.532,-0.871,0.0
20.074,-0.958,-1.011,0.0
14.778,-0.704,-0.821,0.0
13.805,-0.657,-0.839,0.0
20.092,-0.955,-1.328,0.0
12.083,-0.574,-0.862,0.0
11.336,-0.538,-0.868,0.0
16.505,-0.78,-0.802,0.0
15.212,-0.718,-0.819,0.0
14.151,-0.667,-0.835,0.0
13.265,-0.624,-0.853,0.0
12.374,-0.582,-0.861,0.0
11.568,-0.543,-0.865,0.0
16.877,-0.789,-0.791,0.0
15.64,-0.73,-0.814,0.0
14.453,-0.674,-0.827,0.0
13.51,-0.629,-0.845,0.0
12.578,-0.584,-0.853,0.0
11.829,-0.549,-0.863,0.0
17.434,-0.806,-0.786,0.0
15.959,-0.736,-0.802,0.0
14.807,-0.682,-0.821,0.0
13.875,-0.638,-0.843,0.0
12.999,-0.597,-0.858,0.0
12.126,-0.556,-0.863,0.0
17.955,-0.82,-0.777,0.0
16.526,-0.753,-0.801,0.0
15.238,-0.693,-0.818,0.0
14.12,-0.641,-0.833,0.0
13.262,-0.601,-0.852,0.0
12.344,-0.558,-0.857,0.0
18.364,-0.827,-0.763,0.0
16.917,-0.76,-0.79,0.0
15.523,-0.696,-0.806,0.0
14.419,-0.645,-0.825,0.0
13.57,-0.606,-0.847,0.0
12.592,-0.561,-0.852,0.0
19.164,-0.85,-0.762,0.0
17.53,-0.776,-0.788,0.0
16.01,-0.707,-0.803,0.0
14.893,-0.656,-0.826,0.0
13.895,-0.611,-0.843,0.0
13.052,-0.572,-0.86,0.0
19.834,-0.866,-0.753,0.0
17.996,-0.784,-0.777,0.0
16.516,-0.718,-0.799,0.0
15.278,-0.662,-0.82,0.0
14.193,-0.613,-0.835,0.0
13.39,-0.577,-0.858,0.0
20.479,-0.879,-0.741,0.0
18.392,-0.787,-0.761,0.0
17.008,-0.726,-0.792,0.0
15.723,-0.669,-0.816,0.0
14.602,-0.62,-0.834,0.0
13.633,-0.577,-0.849,0.0
21.263,-0.896,-0.732,0.0
19.134,-0.804,-0.758,0.0
17.503,-0.733,-0.784,0.0
16.029,-0.669,-0.803,0.0
14.961,-0.623,-0.828,0.0
13.918,-0.578,-0.842,0.0
21.942,-0.907,-0.716,0.0
19.682,-0.811,-0.745,0.0
18.063,-0.742,-0.777,0.0
16.572,-0.678,-0.801,0.0
15.276,-0.623,-0.818,0.0
14.254,-0.58,-0.837,0.0
22.754,-0.921,-0.703,0.0
20.485,-0.826,-0.739,0.0
18.643,-0.749,-0.77,0.0
17.075,-0.683,-0.795,0.0
15.738,-0.628,-0.815,0.0
14.614,-0.581,-0.833,0.0
23.897,-0.945,-0.696,0.0
21.2,-0.836,-0.728,0.0
19.139,-0.751,-0.756,0.0
17.59,-0.688,-0.788,0.0
16.135,-0.629,-0.807,0.0
14.915,-0.579,-0.824,0.0
0.0,0.0,0.0,0.0
22.041,-0.848,-0.718,0.0
19.999,-0.766,-0.755,0.0
18.045,-0.689,-0.777,0.0
16.632,-0.632,-0.803,0.0
15.298,-0.579,-0.818,0.0
26.063,-0.982,-0.669,0.0
0.0,0.0,0.0,0.0
20.528,-0.766,-0.74,0.0
18.569,-0.69,-0.768,0.0
17.079,-0.632,-0.795,0.0
15.784,-0.581,-0.817,0.0
27.286,-1.0,-0.653,0.0
23.841,-0.87,-0.694,0.0
21.224,-0.77,-0.728,0.0
19.266,-0.696,-0.763,0.0
17.566,-0.632,-0.787,0.0
16.144,-0.578,-0.808,0.0
0.0,0.0,0.0,0.0
0.0,0.0,0.0,0.0
22.072,-0.778,-0.72,0.0
19.719,-0.691,-0.747,0.0
17.987,-0.627,-0.775,0.0
16.686,-0.579,-0.806,0.0
0.0,0.0,0.0,0.0
26.29,-0.902,-0.676,0.0
23.052,-0.787,-0.712,0.0
20.513,-0.696,-0.743,0.0
18.538,-0.626,-0.768,0.0
17.095,-0.574,-0.797,0.0
31.134,-1.039,-0.585,0.0
26.969,-0.895,-0.647,0.0
23.801,-0.785,-0.695,0.0
21.773,-0.714,-0.752,0.0
19.242,-0.627,-0.765,0.0
17.586,-0.57,-0.79,0.0
33.686,-1.085,-0.577,0.0
28.61,-0.916,-0.639,0.0
24.885,-0.792,-0.685,0.0
21.903,-0.692,-0.719,9.0
19.685,-0.618,-0.749,0.0
17.971,-0.561,-0.778,0.0
0.0,0.0,0.0,0.0
29.751,-0.917,-0.615,0.0
21.882,-0.67,-0.566,2.0
21.902,-0.666,-0.683,4.0
20.51,-0.619,-0.746,0.0
18.258,-0.547,-0.76,0.0
37.992,-1.131,-0.524,0.0
0.0,0.0,0.0,0.0
21.917,-0.643,-0.531,151.0
21.89,-0.638,-0.646,40.0
21.808,-0.631,-0.758,3.0
21.893,-0.628,-0.875,21.0
41.547,-1.184,-0.505,0.0
0.0,0.0,0.0,0.0
21.924,-0.615,-0.495,152.0
21.841,-0.608,-0.61,162.0
21.836,-0.603,-0.723,41.0
21.891,-0.6,-0.839,26.0
43.276,-1.177,-0.456,0.0
34.842,-0.939,-0.549,0.0
21.912,-0.586,-0.459,24.0
21.861,-0.58,-0.575,181.0
21.869,-0.575,-0.689,82.0
18.143,-0.473,-0.666,150.0
44.358,-1.147,-0.396,0.0
37.992,-0.974,-0.538,0.0
30.838,-0.783,-0.598,0.0
21.906,-0.551,-0.541,150.0
18.141,-0.452,-0.543,46.0
18.114,-0.447,-0.637,175.0
48.067,-1.178,-0.354,0.0
0.0,0.0,0.0,0.0
0.0,0.0,0.0,0.0
27.723,-0.659,-0.641,0.0
18.149,-0.427,-0.515,64.0
18.108,-0.422,-0.608,181.0
54.492,-1.259,-0.317,0.0
0.0,0.0,0.0,0.0
34.772,-0.786,-0.565,0.0
0.0,0.0,0.0,0.0
18.16,-0.401,-0.487,0.0
18.149,-0.397,-0.582,151.0
0.0,0.0,0.0,0.0
44.783,-0.959,-0.425,1.0
0.0,0.0,0.0,0.0
30.868,-0.646,-0.619,0.0
26.626,-0.55,-0.674,0.0
23.115,-0.472,-0.706,0.0
0.0,0.0,0.0,0.0
46.392,-0.925,-0.371,0.0
0.0,0.0,0.0,0.0
33.561,-0.652,-0.623,0.0
27.464,-0.526,-0.653,0.0
0.0,0.0,0.0,0.0
0.0,0.0,0.0,0.0
0.0,0.0,0.0,0.0
0.0,0.0,0.0,0.0
33.479,-0.599,-0.571,0.0
0.0,0.0,0.0,0.0
25.018,-0.435,-0.689,0.0
0.0,0.0,0.0,0.0
0.0,0.0,0.0,0.0
0.0,0.0,0.0,0.0
0.0,0.0,0.0,0.0
29.826,-0.48,-0.622,0.0
26.023,-0.412,-0.679,0.0
0.0,0.0,0.0,0.0
0.0,0.0,0.0,0.0
46.665,-0.703,-0.411,1.0
37.665,-0.557,-0.534,0.0
31.195,-0.453,-0.606,0.0
26.606,-0.379,-0.657,0.0
0.0,0.0,0.0,0.0
0.0,0.0,0.0,0.0
0.0,0.0,0.0,0.0
0.0,0.0,0.0,0.0
0.0,0.0,0.0,0.0
28.376,-0.359,-0.66,0.0
0.0,0.0,0.0,0.0
0.0,0.0,0.0,0.0
0.0,0.0,0.0,0.0
0.0,0.0,0.0,0.0
34.979,-0.394,-0.582,0.0
29.089,-0.32,-0.637,0.0
119.747,-1.288,0.704,64.0
0.0,0.0,0.0,0.0
0.0,0.0,0.0,0.0
0.0,0.0,0.0,0.0
35.03,-0.338,-0.536,0.0
30.156,-0.282,-0.62,0.0
119.644,-1.089,0.863,8.0
0.0,0.0,0.0,0.0
0.0,0.0,0.0,0.0
0.0,0.0,0.0,0.0
37.589,-0.299,-0.525,0.0
31.106,-0.238,-0.598,0.0
119.705,-0.885,1.023,19.0
0.0,0.0,0.0,0.0
0.0,0.0,0.0,0.0
0.0,0.0,0.0,0.0
0.0,0.0,0.0,0.0
0.0,0.0,0.0,0.0
119.712,-0.68,1.177,17.0
111.041,-0.598,0.505,2.0
0.0,0.0,0.0,0.0
0.0,0.0,0.0,0.0
41.346,-0.186,-0.471,0.0
34.782,-0.146,-0.58,0.0
119.675,-0.47,1.329,12.0
111.123,-0.402,0.647,9.0
0.0,0.0,0.0,0.0
0.0,0.0,0.0,0.0
44.921,-0.124,-0.456,1.0
35.307,-0.087,-0.545,0.0
114.845,-0.249,1.416,2.0
111.112,-0.21,0.78,15.0
0.0,0.0,0.0,0.0
0.0,0.0,0.0,0.0
45.175,-0.044,-0.405,1.0
37.486,-0.026,-0.534,0.0
111.098,-0.043,1.503,10.0
111.206,-0.009,0.915,7.0
95.629,0.019,0.279,7.0
0.0,0.0,0.0,0.0
49.583,0.04,-0.385,0.0
0.0,0.0,0.0,0.0
111.104,0.157,1.633,13.0
111.138,0.191,1.044,12.0
94.488,0.191,0.386,1.0
0.0,0.0,0.0,0.0
0.0,0.0,0.0,0.0
40.442,0.118,-0.483,0.0
119.884,0.389,1.899,111.0
111.184,0.394,1.17,12.0
104.166,0.402,0.543,7.0
0.0,0.0,0.0,0.0
0.0,0.0,0.0,0.0
42.984,0.205,-0.466,1.0
111.074,0.566,1.883,31.0
111.052,0.601,1.292,26.0
104.728,0.597,0.66,12.0
86.552,0.52,0.075,4.0
0.0,0.0,0.0,0.0
45.973,0.304,-0.449,0.0
111.052,0.771,2.0,4.0
100.919,0.733,1.28,1.0
104.787,0.793,0.771,16.0
84.54,0.665,0.162,4.0
0.0,0.0,0.0,0.0
46.567,0.396,-0.406,0.0
100.042,0.883,1.906,4.0
104.763,0.957,1.437,12.0
98.591,0.931,0.826,16.0
83.005,0.81,0.244,5.0
0.0,0.0,0.0,0.0
49.434,0.513,-0.382,0.0
98.583,1.057,1.977,28.0
98.556,1.087,1.45,26.0
98.514,1.118,0.923,25.0
85.286,0.994,0.334,13.0
78.929,0.945,-0.111,0.0
0.0,0.0,0.0,0.0
98.57,1.245,2.073,32.0
98.55,1.275,1.545,26.0
98.562,1.307,1.018,30.0
85.394,1.159,0.416,11.0
76.776,1.066,-0.036,0.0
0.0,0.0,0.0,0.0
119.939,1.746,2.634,107.0
99.074,1.473,1.645,17.0
91.998,1.397,1.034,30.0
91.791,1.422,0.531,10.0
74.534,1.178,0.031,3.0
0.0,0.0,0.0,0.0
91.913,1.516,2.101,33.0
91.869,1.545,1.608,35.0
87.554,1.502,1.063,6.0
91.783,1.602,0.612,21.0
73.594,1.307,0.096,6.0
0.0,0.0,0.0,0.0
88.819,1.639,2.108,1.0
87.242,1.637,1.601,40.0
92.01,1.755,1.194,17.0
85.483,1.658,0.642,21.0
72.352,1.427,0.154,3.0
0.0,0.0,0.0,0.0
85.39,1.743,2.097,20.0
85.327,1.769,1.636,33.0
85.288,1.796,1.177,36.0
85.242,1.821,0.708,26.0
72.059,1.562,0.211,9.0
0.0,0.0,0.0,0.0
85.251,1.91,2.162,33.0
85.245,1.937,1.702,38.0
85.247,1.963,1.242,33.0
85.224,1.99,0.775,27.0
72.071,1.705,0.266,9.0
66.816,1.602,-0.112,4.0
85.305,2.08,2.227,25.0
85.359,2.109,1.768,10.0
120.048,3.003,1.839,12.0
74.516,1.887,0.732,27.0
78.713,2.018,0.348,6.0
65.427,1.697,-0.063,5.0
78.878,2.079,2.116,31.0
75.042,2.002,1.607,0.0
78.872,2.128,1.263,26.0
78.868,2.153,0.829,29.0
78.661,2.173,0.402,10.0
65.23,1.822,-0.019,8.0
78.802,2.234,2.167,13.0
78.844,2.26,1.742,26.0
78.876,2.286,1.315,27.0
78.916,2.311,0.881,23.0
78.711,2.33,0.453,8.0
0.0,0.0,0.0,0.0
73.992,2.246,2.082,4.0
120.02,3.681,2.728,16.0
120.054,3.721,2.078,7.0
72.502,2.269,0.855,25.0
72.365,2.288,0.461,27.0
65.469,2.091,0.062,5.0
72.481,2.347,2.084,30.0
72.425,2.369,1.69,34.0
72.385,2.39,1.296,40.0
72.351,2.411,0.895,34.0
72.331,2.433,0.503,25.0
65.478,2.223,0.099,8.0
72.396,2.491,2.123,33.0
72.369,2.513,1.729,33.0
72.365,2.536,1.336,29.0
72.344,2.557,0.934,29.0
72.322,2.579,0.541,18.0
65.77,2.366,0.135,8.0
72.486,2.642,2.164,24.0
72.506,2.665,1.77,7.0
120.102,4.453,2.279,27.0
61.672,2.305,0.828,18.0
62.735,2.365,0.501,7.0
65.791,2.5,0.168,14.0
195.471,7.521,5.933,8.0
49.427,1.916,1.23,9.0
61.359,2.398,1.193,15.0
64.208,2.53,0.893,12.0
64.297,2.554,0.544,14.0
65.873,2.636,0.198,17.0
66.168,2.679,2.038,13.0
49.183,2.007,1.246,12.0
64.673,2.659,1.286,10.0
65.994,2.733,0.945,41.0
66.077,2.757,0.586,30.0
65.929,2.772,0.225,15.0
66.003,2.805,2.06,10.0
48.969,2.096,1.26,10.0
48.494,2.091,0.983,19.0
66.06,2.869,0.972,31.0
66.055,2.889,0.611,27.0
65.984,2.906,0.25,16.0
50.528,2.25,1.596,11.0
48.829,2.189,1.275,16.0
48.312,2.18,0.997,20.0
66.122,3.005,0.996,22.0
66.159,3.026,0.635,18.0
66.104,3.044,0.273,11.0
50.395,2.345,1.608,13.0
48.633,2.277,1.285,20.0
48.138,2.269,1.008,19.0
47.947,2.274,0.737,19.0
120.048,5.731,1.189,15.0
71.326,3.427,0.315,3.0
50.426,2.448,1.624,15.0
48.363,2.362,1.292,13.0
47.985,2.357,1.019,45.0
47.789,2.362,0.748,44.0
120.035,5.97,1.22,17.0
59.543,2.979,0.278,2.0
50.383,2.546,1.635,18.0
48.165,2.449,1.299,14.0
47.874,2.448,1.028,40.0
59.453,3.057,0.944,22.0
59.407,3.073,0.617,31.0
59.34,3.088,0.29,24.0
50.182,2.637,1.64,18.0
47.967,2.534,1.303,19.0
47.739,2.536,1.034,42.0
59.347,3.17,0.954,32.0
59.344,3.187,0.627,29.0
59.311,3.203,0.301,22.0
49.655,2.708,1.631,15.0
47.79,2.619,1.306,31.0
47.605,2.623,1.039,47.0
59.381,3.289,0.964,24.0
59.389,3.307,0.636,21.0
59.397,3.325,0.31,16.0
49.261,2.784,1.625,20.0
47.666,2.707,1.31,40.0
47.549,2.714,1.044,10.0
115.991,6.655,1.896,8.0
115.553,6.663,1.252,10.0
59.23,3.433,0.315,2.0
48.837,2.856,1.616,18.0
47.523,2.792,1.31,36.0
114.386,6.755,2.522,6.0
113.99,6.763,1.872,7.0
113.604,6.772,1.239,8.0
113.265,6.784,0.61,4.0
48.409,2.925,1.604,11.0
47.409,2.878,1.309,54.0
111.064,6.772,2.453,88.0
111.093,6.806,1.829,83.0
111.139,6.841,1.215,36.0
111.211,6.877,0.602,7.0
47.77,2.979,1.584,22.0
47.36,2.966,1.309,3.0
110.945,6.981,2.452,4.0
110.278,6.971,1.816,5.0
109.992,6.984,1.202,7.0
52.36,3.34,0.282,21.0
47.331,3.044,1.569,40.0
52.368,3.382,1.446,10.0
52.319,3.394,1.155,28.0
52.293,3.407,0.859,33.0
52.275,3.42,0.569,36.0
52.216,3.432,0.279,19.0
52.269,3.464,1.73,6.0
52.224,3.475,1.439,40.0
52.212,3.488,1.148,43.0
52.204,3.501,0.853,45.0
52.214,3.517,0.564,32.0
52.183,3.528,0.274,18.0
52.21,3.559,1.723,40.0
52.203,3.573,1.433,37.0
52.184,3.585,1.143,41.0
52.195,3.6,0.847,30.0
52.194,3.614,0.557,35.0
52.183,3.628,0.268,17.0
52.284,3.663,1.719,20.0
52.257,3.675,1.427,22.0
52.262,3.689,1.136,23.0
52.261,3.703,0.841,24.0
52.25,3.716,0.55,22.0
52.201,3.727,0.259,14.0
102.083,7.345,3.339,55.0
102.119,7.373,2.771,38.0
102.204,7.405,2.204,15.0
102.067,7.422,1.623,12.0
101.857,7.434,1.053,8.0
52.32,3.832,0.249,9.0
101.966,7.525,3.314,30.0
101.55,7.52,2.735,2.0
101.043,7.507,2.157,6.0
100.896,7.522,1.582,8.0
100.717,7.535,1.018,9.0
77.892,5.848,0.352,15.0
102.003,7.713,3.291,35.0
100.178,7.599,2.673,5.0
100.037,7.613,2.111,8.0
99.84,7.624,1.54,7.0
99.631,7.632,0.98,9.0
97.161,7.468,0.414,5.0
101.153,7.831,3.236,14.0
99.062,7.694,2.616,7.0
98.969,7.711,2.059,10.0
98.767,7.719,1.494,8.0
98.572,7.73,0.94,6.0
45.884,3.61,0.181,22.0
45.916,3.637,1.454,32.0
45.912,3.649,1.197,34.0
45.894,3.658,0.94,35.0
45.849,3.665,0.678,40.0
45.83,3.675,0.421,42.0
45.763,3.681,0.165,26.0
45.829,3.711,1.435,41.0
45.81,3.721,1.178,42.0
45.791,3.73,0.921,43.0
45.775,3.74,0.66,41.0
45.769,3.75,0.404,40.0
45.723,3.758,0.147,26.0
45.796,3.789,1.417,36.0
45.781,3.799,1.16,41.0
45.764,3.808,0.903,40.0
45.76,3.818,0.641,34.0
45.751,3.829,0.385,29.0
45.687,3.835,0.128,20.0
45.814,3.871,1.398,29.0
45.793,3.879,1.14,26.0
45.79,3.889,0.883,29.0
45.771,3.898,0.621,27.0
45.777,3.909,0.365,25.0
45.685,3.912,0.108,15.0
45.924,3.957,1.381,7.0
45.891,3.964,1.122,14.0
45.865,3.972,0.864,14.0
93.149,8.089,1.222,42.0
45.897,3.996,0.344,12.0
45.787,3.997,0.086,12.0
93.147,8.183,2.756,35.0
93.233,8.211,2.233,16.0
93.22,8.229,1.709,14.0
93.025,8.233,1.174,11.0
92.908,8.244,0.65,10.0
45.703,4.065,0.062,15.0
92.629,8.289,2.693,9.0
92.551,8.302,2.17,7.0
92.43,8.31,1.646,5.0
92.17,8.308,1.113,7.0
92.046,8.317,0.595,10.0
45.705,4.14,0.038,12.0
91.778,8.362,2.617,13.0
91.71,8.375,2.098,10.0
91.523,8.378,1.578,10.0
91.397,8.385,1.053,10.0
91.249,8.392,0.536,11.0
45.598,4.203,0.011,1.0
91.015,8.438,2.542,7.0
90.892,8.444,2.026,10.0
90.733,8.449,1.51,10.0
90.635,8.458,0.989,11.0
90.461,8.462,0.477,10.0
45.651,4.28,-0.016,3.0
90.29,8.512,2.466,12.0
90.14,8.516,1.953,10.0
90.011,8.522,1.442,10.0
89.848,8.525,0.924,11.0
89.699,8.529,0.416,9.0
45.614,4.347,-0.045,7.0
89.533,8.578,2.388,12.0
89.401,8.582,1.879,10.0
89.27,8.587,1.372,11.0
89.084,8.587,0.857,12.0
89.008,8.598,0.354,11.0
45.584,4.412,-0.076,9.0
88.802,8.641,2.309,11.0
88.679,8.645,1.805,10.0
88.592,8.653,1.301,10.0
88.467,8.658,0.79,11.0
88.353,8.665,0.29,10.0
45.63,4.484,-0.107,16.0
88.115,8.702,2.229,7.0
88.0,8.707,1.729,9.0
87.852,8.708,1.228,11.0
87.722,8.711,0.722,11.0
87.35,8.692,0.224,11.0
45.422,4.528,-0.14,19.0
87.459,8.762,2.149,6.0
87.327,8.764,1.652,9.0
87.224,8.769,1.156,11.0
87.137,8.776,0.652,11.0
86.915,8.771,0.158,11.0
0.0,0.0,0.0,0.0
86.832,8.82,2.068,11.0
86.718,8.823,1.574,10.0
86.628,8.828,1.081,11.0
86.521,8.833,0.581,10.0
86.36,8.833,0.09,9.0
43.439,4.451,-0.2,18.0
86.204,8.873,1.986,11.0
86.136,8.88,1.496,11.0
85.998,8.88,1.005,11.0
85.888,8.884,0.508,11.0
80.832,8.375,0.021,1.0
42.834,4.446,-0.231,18.0
85.629,8.927,1.903,10.0
85.556,8.934,1.416,10.0
85.412,8.933,0.929,10.0
84.202,8.82,0.43,16.0
84.165,8.831,-0.048,10.0
40.742,4.282,-0.254,15.0
84.184,8.886,1.801,41.0
84.18,8.898,1.322,67.0
84.169,8.91,0.844,150.0
84.158,8.923,0.358,150.0
69.734,7.404,-0.098,5.0
40.247,4.28,-0.285,16.0
84.197,8.992,1.729,33.0
84.283,9.014,1.251,20.0
84.302,9.029,0.773,16.0
84.249,9.036,0.285,11.0
52.051,5.591,-0.119,4.0
39.962,4.299,-0.318,22.0
84.041,9.078,1.651,9.0
83.967,9.082,1.172,6.0
81.212,8.795,0.672,5.0
83.703,9.078,0.208,9.0
45.887,4.984,-0.146,6.0
39.472,4.293,-0.35,28.0
83.553,9.123,1.566,8.0
83.446,9.123,1.089,10.0
81.206,8.89,0.598,7.0
81.109,8.891,0.127,13.0
0.0,0.0,0.0,0.0
39.255,4.315,-0.384,14.0
83.052,9.163,1.48,11.0
82.942,9.162,1.005,10.0
0.0,0.0,0.0,0.0
80.923,8.962,0.051,8.0
42.628,4.727,-0.215,17.0
38.916,4.321,-0.418,12.0
82.591,9.203,1.393,11.0
82.511,9.204,0.922,11.0
79.881,8.922,0.437,5.0
67.279,7.523,-0.02,5.0
0.0,0.0,0.0,0.0
38.786,4.348,-0.454,7.0
82.205,9.247,1.307,11.0
82.101,9.245,0.838,11.0
81.95,9.238,0.369,5.0
67.163,7.58,-0.086,10.0
40.404,4.565,-0.282,15.0
38.734,4.382,-0.491,7.0
81.777,9.282,1.219,11.0
81.672,9.28,0.751,11.0
81.03,9.217,0.284,11.0
45.817,5.217,-0.105,0.0
39.959,4.555,-0.32,30.0
38.702,4.418,-0.53,9.0
81.36,9.314,1.131,10.0
81.265,9.313,0.667,10.0
81.146,9.308,0.202,9.0
45.674,5.245,-0.151,7.0
39.431,4.533,-0.355,28.0
38.666,4.45,-0.569,3.0
67.612,7.803,0.871,16.0
66.416,7.673,0.476,11.0
66.387,7.677,0.097,33.0
42.904,4.966,-0.186,8.0
39.136,4.535,-0.393,14.0
38.689,4.488,-0.61,0.0
66.344,7.717,0.785,58.0
66.343,7.723,0.406,62.0
66.355,7.732,0.027,63.0
0.0,0.0,0.0,0.0
38.764,4.526,-0.431,11.0
32.596,3.81,-0.548,0.0
66.328,7.771,0.714,64.0
66.337,7.779,0.335,48.0
66.358,7.788,-0.043,32.0
40.701,4.781,-0.263,16.0
38.62,4.541,-0.47,9.0
31.111,3.662,-0.556,0.0
66.45,7.84,0.644,22.0
66.526,7.854,0.264,12.0
66.27,7.83,-0.114,8.0
39.994,4.729,-0.302,27.0
38.581,4.566,-0.511,8.0
30.296,3.589,-0.575,2.0
66.369,7.88,0.571,15.0
66.315,7.879,0.191,11.0
45.733,5.438,-0.129,6.0
39.479,4.698,-0.341,33.0
38.571,4.594,-0.554,6.0
30.145,3.594,-0.605,8.0
66.085,7.894,0.497,17.0
66.055,7.896,0.119,8.0
45.48,5.44,-0.178,11.0
39.11,4.681,-0.38,15.0
38.595,4.623,-0.596,1.0
29.876,3.582,-0.632,2.0
65.868,7.912,0.423,15.0
65.764,7.905,0.046,7.0
42.325,5.09,-0.212,17.0
38.75,4.664,-0.42,14.0
30.133,3.629,-0.499,0.0
27.729,3.342,-0.618,0.0
65.62,7.923,0.347,20.0
65.531,7.917,-0.026,7.0
41.039,4.961,-0.252,16.0
38.535,4.661,-0.461,9.0
30.048,3.637,-0.531,7.0
27.22,3.297,-0.637,0.0
65.372,7.931,0.273,19.0
65.244,7.92,-0.101,3.0
40.228,4.886,-0.292,16.0
38.513,4.681,-0.504,9.0
29.931,3.64,-0.563,6.0
26.382,3.211,-0.647,1.0
65.167,7.942,0.197,17.0
45.689,5.571,-0.122,7.0
39.592,4.83,-0.333,30.0
38.494,4.699,-0.548,5.0
29.801,3.64,-0.594,5.0
25.723,3.144,-0.661,0.0
64.958,7.948,0.123,9.0
0.0,0.0,0.0,0.0
39.145,4.794,-0.374,14.0
29.96,3.671,-0.461,3.0
29.606,3.63,-0.625,2.0
25.059,3.074,-0.672,0.0
64.773,7.954,0.049,10.0
42.15,5.178,-0.209,17.0
38.757,4.763,-0.414,14.0
29.773,3.661,-0.492,2.0
27.667,3.403,-0.615,0.0
24.364,2.999,-0.681,0.0
64.668,7.967,-0.024,8.0
41.07,5.062,-0.251,16.0
38.483,4.744,-0.455,8.0
29.679,3.661,-0.524,2.0
27.107,3.345,-0.634,0.0
23.621,2.916,-0.688,0.0
45.699,5.646,-0.07,3.0
40.162,4.964,-0.292,16.0
38.481,4.758,-0.5,7.0
29.495,3.648,-0.555,5.0
26.276,3.251,-0.645,1.0
23.001,2.847,-0.697,0.0
45.711,5.662,-0.123,8.0
39.425,4.884,-0.332,15.0
38.467,4.767,-0.544,3.0
29.31,3.633,-0.586,10.0
25.635,3.179,-0.659,0.0
22.599,2.804,-0.711,0.0
45.133,5.602,-0.173,20.0
39.011,4.843,-0.374,23.0
29.726,3.691,-0.455,2.0
29.274,3.636,-0.619,8.0
25.014,3.108,-0.672,0.0
21.936,2.727,-0.716,0.0
41.97,5.218,-0.21,17.0
38.651,4.806,-0.415,14.0
29.562,3.677,-0.487,2.0
0.0,0.0,0.0,0.0
24.192,3.011,-0.678,0.0
21.283,2.65,-0.719,0.0
40.914,5.094,-0.253,17.0
38.47,4.79,-0.458,9.0
29.515,3.676,-0.52,2.0
26.977,3.36,-0.633,1.0
23.667,2.949,-0.691,0.0
20.714,2.582,-0.724,0.0
40.19,5.009,-0.294,21.0
38.462,4.794,-0.502,7.0
29.349,3.658,-0.551,7.0
26.247,3.272,-0.646,1.0
22.99,2.867,-0.698,0.0
20.311,2.533,-0.733,0.0
39.444,4.919,-0.334,39.0
30.214,3.768,-0.429,5.0
29.304,3.655,-0.584,14.0
25.526,3.184,-0.658,0.0
22.503,2.807,-0.709,0.0
19.89,2.482,-0.741,0.0
38.97,4.861,-0.375,21.0
29.753,3.711,-0.457,3.0
29.243,3.648,-0.617,6.0
24.871,3.102,-0.67,0.0
21.869,2.728,-0.714,0.0
19.519,2.436,-0.749,0.0
38.642,4.819,-0.416,14.0
29.522,3.681,-0.487,2.0
29.136,3.633,-0.648,0.0
24.155,3.012,-0.678,0.0
21.334,2.661,-0.721,0.0
18.973,2.367,-0.75,0.0
38.454,4.793,-0.458,8.0
29.494,3.676,-0.52,3.0
26.95,3.359,-0.63,1.0
23.529,2.932,-0.687,0.0
20.758,2.587,-0.725,0.0
18.593,2.318,-0.757,0.0
38.451,4.789,-0.502,6.0
29.351,3.655,-0.551,8.0
26.28,3.272,-0.644,1.0
22.922,2.854,-0.696,0.0
20.351,2.534,-0.734,0.0
18.286,2.277,-0.765,0.0
30.065,3.739,-0.426,3.0
29.292,3.643,-0.583,15.0
25.648,3.189,-0.657,0.0
22.437,2.79,-0.706,0.0
19.894,2.473,-0.74,0.0
17.92,2.228,-0.77,0.0
29.682,3.686,-0.454,2.0
29.276,3.635,-0.616,6.0
24.968,3.099,-0.668,0.0
21.884,2.716,-0.713,0.0
19.56,2.427,-0.75,0.0
17.615,2.186,-0.776,0.0
29.638,3.673,-0.486,2.0
27.607,3.421,-0.611,0.0
24.305,3.011,-0.677,0.0
21.313,2.64,-0.718,0.0
18.981,2.351,-0.748,0.0
17.214,2.132,-0.777,0.0
29.665,3.668,-0.519,2.0
26.921,3.327,-0.625,0.0
23.609,2.917,-0.683,0.0
20.72,2.56,-0.72,0.0
18.565,2.293,-0.752,0.0
16.97,2.096,-0.785,0.0
29.708,3.663,-0.552,2.0
26.216,3.231,-0.637,1.0
23.068,2.843,-0.693,0.0
20.332,2.505,-0.729,0.0
18.223,2.244,-0.758,0.0
16.703,2.057,-0.791,0.0
29.721,3.653,-0.584,4.0
25.74,3.163,-0.653,1.0
22.565,2.772,-0.702,0.0
20.009,2.457,-0.739,0.0
18.018,2.212,-0.769,0.0
16.326,2.004,-0.79,0.0
29.583,3.624,-0.613,1.0
25.055,3.068,-0.663,0.0
22.033,2.697,-0.709,0.0
19.56,2.393,-0.743,0.0
17.675,2.162,-0.773,0.0
16.16,1.976,-0.799,0.0
27.79,3.391,-0.604,0.0
24.395,2.975,-0.67,0.0
21.384,2.607,-0.71,0.0
19.188,2.338,-0.749,0.0
17.332,2.111,-0.776,0.0
15.857,1.931,-0.801,0.0
27.253,3.311,-0.621,1.0
23.839,2.895,-0.679,0.0
20.893,2.536,-0.715,0.0
18.778,2.278,-0.752,0.0
17.002,2.062,-0.778,0.0
15.59,1.89,-0.803,0.0
26.57,3.213,-0.632,1.0
23.265,2.812,-0.687,0.0
20.585,2.487,-0.725,0.0
18.389,2.221,-0.755,0.0
16.815,2.03,-0.787,0.0
15.354,1.853,-0.806,0.0
25.953,3.123,-0.643,0.0
22.895,2.754,-0.698,0.0
20.203,2.429,-0.732,0.0
18.066,2.171,-0.76,0.0
16.434,1.974,-0.785,0.0
15.17,1.821,-0.811,0.0
25.374,3.038,-0.654,0.0
22.431,2.683,-0.706,0.0
19.77,2.364,-0.735,0.0
17.698,2.115,-0.761,0.0
16.264,1.942,-0.793,0.0
15.036,1.795,-0.819,0.0
25.007,2.976,-0.668,0.0
21.793,2.592,-0.706,0.0
19.419,2.308,-0.74,0.0
17.464,2.074,-0.768,0.0
16.001,1.9,-0.795,0.0
14.738,1.749,-0.816,0.0
24.302,2.875,-0.672,0.0
21.437,2.534,-0.715,0.0
19.096,2.256,-0.746,0.0
17.26,2.037,-0.775,0.0
15.874,1.873,-0.803,0.0
14.562,1.717,-0.82,0.0
23.675,2.782,-0.676,0.0
21.044,2.471,-0.721,0.0
18.815,2.208,-0.752,0.0
17.017,1.995,-0.779,0.0
15.63,1.832,-0.805,0.0
14.392,1.686,-0.823,0.0
23.285,2.718,-0.685,0.0
20.591,2.402,-0.723,0.0
18.521,2.158,-0.756,0.0
16.771,1.953,-0.782,0.0
15.423,1.795,-0.808,0.0
14.222,1.654,-0.826,0.0
22.889,2.653,-0.693,0.0
20.253,2.345,-0.729,0.0
18.168,2.102,-0.758,0.0
16.541,1.912,-0.786,0.0
15.236,1.76,-0.811,0.0
14.06,1.623,-0.828,0.0
22.464,2.583,-0.699,0.0
19.899,2.286,-0.733,0.0
17.991,2.065,-0.765,0.0
16.363,1.877,-0.791,0.0
15.037,1.723,-0.813,0.0
13.927,1.595,-0.832,0.0
22.056,2.516,-0.705,0.0
19.7,2.245,-0.741,0.0
17.722,2.018,-0.768,0.0
16.16,1.838,-0.794,0.0
14.885,1.692,-0.816,0.0
13.799,1.567,-0.836,0.0
21.652,2.449,-0.709,0.0
19.363,2.188,-0.744,0.0
17.602,1.987,-0.776,0.0
15.978,1.802,-0.798,0.0
14.703,1.656,-0.818,0.0
13.731,1.546,-0.842,0.0
21.326,2.391,-0.714,0.0
19.108,2.14,-0.749,0.0
17.271,1.932,-0.775,0.0
15.733,1.758,-0.797,0.0
14.589,1.629,-0.822,0.0
13.551,1.512,-0.841,0.0
20.895,2.321,-0.715,0.0
18.779,2.084,-0.749,0.0
16.989,1.883,-0.774,0.0
15.583,1.725,-0.8,0.0
14.431,1.596,-0.824,0.0
13.429,1.484,-0.843,0.0
20.594,2.266,-0.719,0.0
18.471,2.03,-0.75,0.0
16.918,1.857,-0.783,0.0
15.461,1.695,-0.805,0.0
14.309,1.567,-0.826,0.0
13.289,1.454,-0.843,0.0
20.335,2.215,-0.724,0.0
18.282,1.989,-0.754,0.0
16.74,1.819,-0.786,0.0
15.292,1.659,-0.806,0.0
14.18,1.537,-0.828,0.0
13.161,1.425,-0.844,0.0
20.071,2.163,-0.727,0.0
18.08,1.946,-0.757,0.0
16.571,1.781,-0.788,0.0
15.124,1.624,-0.807,0.0
14.032,1.505,-0.828,0.0
13.152,1.409,-0.851,0.0
19.9,2.121,-0.733,0.0
17.906,1.906,-0.761,0.0
16.391,1.743,-0.79,0.0
15.038,1.597,-0.811,0.0
13.938,1.478,-0.831,0.0
12.929,1.369,-0.844,0.0
19.661,2.073,-0.736,0.0
17.827,1.877,-0.768,0.0
16.292,1.712,-0.794,0.0
14.944,1.569,-0.815,0.0
13.881,1.455,-0.835,0.0
12.848,1.345,-0.846,0.0
19.53,2.035,-0.741,0.0
17.637,1.835,-0.769,0.0
16.179,1.681,-0.797,0.0
14.828,1.538,-0.816,0.0
13.762,1.425,-0.835,0.0
12.724,1.316,-0.845,0.0
19.342,1.991,-0.744,0.0
17.443,1.792,-0.77,0.0
16.012,1.643,-0.797,0.0
14.703,1.506,-0.817,0.0
13.668,1.398,-0.837,0.0
12.719,1.299,-0.851,0.0
19.111,1.942,-0.745,0.0
17.43,1.768,-0.777,0.0
15.947,1.615,-0.801,0.0
14.646,1.481,-0.82,0.0
13.609,1.374,-0.839,0.0
12.544,1.265,-0.845,0.0
18.864,1.892,-0.743,0.0
17.237,1.726,-0.776,0.0
15.736,1.573,-0.797,0.0
14.555,1.453,-0.821,0.0
13.577,1.353,-0.843,0.0
12.499,1.244,-0.847,0.0
18.835,1.864,-0.75,0.0
17.129,1.692,-0.779,0.0
15.574,1.536,-0.796,0.0
14.462,1.424,-0.822,0.0
13.43,1.32,-0.839,0.0
12.442,1.221,-0.848,0.0
18.726,1.827,-0.753,0.0
17.052,1.661,-0.781,0.0
15.556,1.512,-0.8,0.0
14.342,1.392,-0.82,0.0
13.414,1.3,-0.843,0.0
12.412,1.201,-0.85,0.0
18.556,1.785,-0.752,0.0
16.86,1.619,-0.778,0.0
15.549,1.49,-0.805,0.0
14.267,1.364,-0.821,0.0
13.4,1.279,-0.846,0.0
12.341,1.176,-0.849,0.0
18.548,1.757,-0.757,0.0
16.797,1.588,-0.78,0.0
15.513,1.464,-0.808,0.0
14.263,1.343,-0.825,0.0
13.27,1.247,-0.842,0.0
12.325,1.156,-0.851,0.0
18.335,1.71,-0.754,0.0
16.77,1.561,-0.784,0.0
15.391,1.43,-0.806,0.0
14.286,1.324,-0.829,0.0
13.248,1.226,-0.844,0.0
12.287,1.135,-0.852,0.0
18.299,1.68,-0.757,0.0
16.683,1.528,-0.783,0.0
15.36,1.404,-0.807,0.0
14.22,1.297,-0.829,0.0
13.246,1.206,-0.846,0.0
12.266,1.114,-0.853,0.0
18.258,1.649,-0.758,0.0
16.623,1.498,-0.784,0.0
15.334,1.378,-0.809,0.0
14.103,1.265,-0.824,0.0
13.221,1.183,-0.847,0.0
12.256,1.094,-0.854,0.0
18.209,1.616,-0.759,0.0
16.565,1.467,-0.783,0.0
15.305,1.352,-0.809,0.0
14.129,1.246,-0.828,0.0
13.169,1.158,-0.845,0.0
12.267,1.076,-0.856,0.0
18.173,1.585,-0.76,0.0
16.612,1.445,-0.787,0.0
15.229,1.322,-0.807,0.0
14.049,1.216,-0.824,0.0
13.127,1.134,-0.844,0.0
12.235,1.054,-0.855,0.0
18.144,1.554,-0.76,0.0
16.564,1.415,-0.786,0.0
15.208,1.296,-0.807,0.0
14.002,1.19,-0.822,0.0
13.158,1.116,-0.846,0.0
12.278,1.039,-0.859,0.0
18.136,1.524,-0.76,0.0
16.604,1.392,-0.789,0.0
15.18,1.269,-0.805,0.0
14.016,1.169,-0.823,0.0
13.092,1.089,-0.842,0.0
12.278,1.019,-0.859,0.0
18.111,1.493,-0.759,0.0
16.431,1.351,-0.78,0.0
15.237,1.249,-0.808,0.0
14.013,1.146,-0.823,0.0
13.124,1.07,-0.844,0.0
12.213,0.993,-0.854,0.0
18.156,1.467,-0.76,0.0
16.576,1.336,-0.786,0.0
15.2,1.221,-0.805,0.0
14.185,1.137,-0.832,0.0
13.146,1.051,-0.844,0.0
12.219,0.974,-0.853,0.0
18.198,1.441,-0.76,0.0
16.627,1.313,-0.787,0.0
15.331,1.207,-0.811,0.0
14.099,1.107,-0.825,0.0
13.166,1.031,-0.844,0.0
12.212,0.953,-0.851,0.0
18.282,1.418,-0.762,0.0
16.675,1.289,-0.787,0.0
15.291,1.179,-0.807,0.0
14.153,1.088,-0.827,0.0
13.227,1.013,-0.846,0.0
12.263,0.937,-0.852,0.0
18.26,1.386,-0.758,0.0
16.658,1.26,-0.783,0.0
15.36,1.158,-0.807,0.0
14.203,1.068,-0.827,0.0
13.268,0.995,-0.846,0.0
12.266,0.917,-0.85,0.0
18.302,1.359,-0.756,0.0
16.747,1.239,-0.784,0.0
15.327,1.13,-0.802,0.0
14.236,1.047,-0.826,0.0
13.296,0.974,-0.845,0.0
12.398,0.906,-0.856,0.0
18.405,1.335,-0.755,0.0
16.943,1.225,-0.789,0.0
15.458,1.114,-0.805,0.0
14.297,1.027,-0.825,0.0
13.356,0.956,-0.845,0.0
12.345,0.881,-0.849,0.0
18.417,1.305,-0.75,0.0
16.93,1.195,-0.783,0.0
15.521,1.092,-0.804,0.0
14.352,1.006,-0.824,0.0
13.423,0.938,-0.845,0.0
12.425,0.865,-0.851,0.0
18.692,1.293,-0.756,0.0
16.956,1.168,-0.779,0.0
15.596,1.071,-0.802,0.0
14.436,0.987,-0.824,0.0
13.475,0.918,-0.843,0.0
12.441,0.845,-0.847,0.0
18.698,1.261,-0.749,0.0
17.078,1.147,-0.778,0.0
15.683,1.05,-0.8,0.0
14.486,0.966,-0.821,0.0
13.569,0.902,-0.844,0.0
12.445,0.824,-0.842,0.0
18.971,1.247,-0.752,0.0
17.225,1.128,-0.777,0.0
15.769,1.029,-0.798,0.0
14.569,0.947,-0.819,0.0
13.64,0.883,-0.842,0.0
12.637,0.815,-0.85,0.0
19.334,1.238,-0.757,0.0
17.315,1.104,-0.773,0.0
15.842,1.006,-0.794,0.0
14.641,0.926,-0.816,0.0
13.672,0.862,-0.837,0.0
12.683,0.796,-0.846,0.0
19.291,1.202,-0.746,0.0
17.504,1.086,-0.773,0.0
16.209,1.001,-0.805,0.0
14.726,0.906,-0.813,0.0
13.78,0.845,-0.837,0.0
12.877,0.786,-0.853,0.0
19.525,1.183,-0.745,0.0
17.706,1.068,-0.772,0.0
16.082,0.966,-0.789,0.0
14.936,0.893,-0.816,0.0
13.815,0.823,-0.831,0.0
12.863,0.763,-0.844,0.0
19.715,1.16,-0.741,0.0
17.779,1.042,-0.765,0.0
16.236,0.947,-0.787,0.0
15.016,0.872,-0.812,0.0
13.971,0.808,-0.832,0.0
13.018,0.749,-0.846,0.0
19.918,1.138,-0.736,0.0
18.053,1.026,-0.766,0.0
16.463,0.932,-0.788,0.0
15.16,0.854,-0.81,0.0
14.056,0.788,-0.828,0.0
13.219,0.738,-0.851,0.0
20.249,1.122,-0.735,0.0
18.267,1.007,-0.762,0.0
16.658,0.914,-0.786,0.0
15.312,0.836,-0.808,0.0
14.311,0.778,-0.833,0.0
13.269,0.718,-0.845,0.0
20.482,1.099,-0.729,0.0
18.481,0.987,-0.758,0.0
16.805,0.893,-0.781,0.0
15.473,0.818,-0.805,0.0
14.321,0.754,-0.823,0.0
13.398,0.701,-0.843,0.0
20.696,1.075,-0.721,0.0
18.418,0.952,-0.742,0.0
17.027,0.875,-0.778,0.0
15.652,0.801,-0.802,0.0
14.556,0.741,-0.825,0.0
13.573,0.687,-0.843,0.0
21.139,1.062,-0.72,0.0
19.178,0.958,-0.758,0.0
17.256,0.857,-0.775,0.0
15.957,0.789,-0.805,0.0
14.71,0.723,-0.822,0.0
13.694,0.67,-0.84,0.0
21.441,1.04,-0.713,0.0
19.189,0.925,-0.742,0.0
17.482,0.838,-0.771,0.0
16.144,0.77,-0.801,0.0
14.848,0.704,-0.817,0.0
13.828,0.652,-0.836,0.0
21.81,1.02,-0.707,0.0
19.576,0.91,-0.74,0.0
17.767,0.821,-0.767,0.0
16.216,0.745,-0.79,0.0
15.126,0.691,-0.819,0.0
14.09,0.64,-0.839,0.0
22.463,1.012,-0.707,0.0
20.082,0.899,-0.741,0.0
18.012,0.802,-0.762,0.0
16.613,0.735,-0.794,0.0
15.295,0.673,-0.813,0.0
14.283,0.625,-0.837,0.0
22.843,0.99,-0.698,0.0
20.411,0.879,-0.733,0.0
18.417,0.789,-0.761,0.0
16.841,0.717,-0.788,0.0
15.449,0.653,-0.807,0.0
14.415,0.606,-0.83,0.0
23.301,0.971,-0.689,0.0
20.893,0.865,-0.73,0.0
18.721,0.77,-0.755,0.0
17.023,0.695,-0.78,0.0
15.765,0.64,-0.807,0.0
14.576,0.588,-0.825,0.0
23.968,0.958,-0.684,0.0
21.234,0.843,-0.72,0.0
19.182,0.756,-0.754,0.0
17.357,0.68,-0.777,0.0
16.012,0.623,-0.803,0.0
14.737,0.569,-0.818,0.0
24.466,0.937,-0.673,0.0
21.633,0.823,-0.711,0.0
19.434,0.734,-0.743,0.0
17.685,0.663,-0.773,0.0
16.37,0.61,-0.803,0.0
15.042,0.556,-0.819,0.0
25.175,0.922,-0.665,0.0
22.503,0.818,-0.715,0.0
19.974,0.721,-0.741,0.0
17.985,0.645,-0.766,0.0
16.604,0.591,-0.796,0.0
15.203,0.537,-0.81,0.0
26.081,0.912,-0.659,0.0
22.589,0.784,-0.692,0.0
20.383,0.702,-0.733,0.0
18.361,0.628,-0.76,0.0
16.935,0.574,-0.792,0.0
15.476,0.521,-0.806,0.0
26.645,0.888,-0.642,0.0
23.679,0.783,-0.697,0.0
20.818,0.683,-0.724,0.0
18.806,0.612,-0.756,0.0
17.213,0.555,-0.784,0.0
15.735,0.504,-0.801,0.0
28.41,0.901,-0.65,1.0
24.3,0.764,-0.686,0.0
21.554,0.672,-0.723,0.0
19.264,0.596,-0.751,0.0
17.579,0.539,-0.779,0.0
16.088,0.489,-0.799,0.0
28.631,0.862,-0.62,1.0
24.888,0.742,-0.671,0.0
22.041,0.652,-0.712,0.0
19.742,0.578,-0.744,0.0
17.937,0.521,-0.772,0.0
16.492,0.475,-0.798,0.0
28.718,0.818,-0.585,0.0
25.594,0.723,-0.657,0.0
22.571,0.631,-0.7,0.0
20.204,0.56,-0.736,0.0
18.566,0.51,-0.775,0.0
16.867,0.459,-0.794,0.0
30.638,0.825,-0.584,0.0
26.593,0.709,-0.648,0.0
23.432,0.619,-0.695,0.0
20.667,0.541,-0.725,0.0
18.868,0.489,-0.762,0.0
17.164,0.44,-0.784,0.0
31.798,0.807,-0.564,0.0
27.742,0.697,-0.639,0.0
0.0,0.0,0.0,0.0
21.374,0.526,-0.721,0.0
19.256,0.469,-0.751,0.0
17.547,0.423,-0.778,0.0
34.37,0.82,-0.562,0.0
28.88,0.681,-0.625,0.0
24.768,0.578,-0.667,0.0
22.05,0.509,-0.713,0.0
19.964,0.456,-0.751,0.0
17.933,0.405,-0.77,0.0
34.234,0.764,-0.511,0.0
29.679,0.655,-0.6,0.0
26.026,0.568,-0.664,0.0
22.661,0.489,-0.7,0.0
20.255,0.432,-0.733,0.0
18.485,0.389,-0.767,0.0
0.0,0.0,0.0,0.0
31.334,0.644,-0.588,0.0
26.695,0.542,-0.642,0.0
23.747,0.476,-0.699,0.0
20.979,0.416,-0.728,0.0
19.025,0.372,-0.761,0.0
39.596,0.765,-0.476,0.0
0.0,0.0,0.0,0.0
27.974,0.527,-0.631,0.0
24.592,0.457,-0.687,0.0
21.841,0.401,-0.725,0.0
19.544,0.354,-0.752,0.0
41.798,0.748,-0.44,0.0
34.793,0.614,-0.549,0.0
29.64,0.516,-0.624,0.0
25.468,0.437,-0.673,0.0
22.429,0.379,-0.71,0.0
20.207,0.337,-0.746,0.0
0.0,0.0,0.0,0.0
36.001,0.583,-0.512,0.0
30.594,0.488,-0.596,0.0
26.407,0.416,-0.656,0.0
23.438,0.363,-0.706,0.0
20.828,0.318,-0.736,0.0
47.221,0.71,-0.35,0.0
38.964,0.576,-0.493,0.0
32.444,0.472,-0.581,0.0
0.0,0.0,0.0,0.0
0.0,0.0,0.0,0.0
21.491,0.298,-0.725,0.0
0.0,0.0,0.0,0.0
40.948,0.549,-0.453,0.0
33.919,0.447,-0.553,0.0
28.954,0.375,-0.627,0.0
25.114,0.32,-0.675,0.0
22.403,0.28,-0.72,0.0
0.0,0.0,0.0,0.0
42.642,0.514,-0.402,0.0
35.472,0.42,-0.52,0.0
29.993,0.348,-0.6,0.0
26.307,0.299,-0.664,0.0
23.009,0.257,-0.701,0.0
0.0,0.0,0.0,0.0
46.778,0.502,-0.364,0.0
0.0,0.0,0.0,0.0
0.0,0.0,0.0,0.0
0.0,0.0,0.0,0.0
23.783,0.234,-0.685,0.0
0.0,0.0,0.0,0.0
0.0,0.0,0.0,0.0
42.963,0.395,-0.486,0.0
33.735,0.303,-0.561,0.0
28.889,0.253,-0.632,0.0
24.93,0.213,-0.675,0.0
84.264,0.704,0.071,1.0
55.004,0.448,-0.24,0.0
43.044,0.341,-0.412,0.0
35.332,0.272,-0.526,0.0
30.194,0.226,-0.607,0.0
26.346,0.192,-0.667,0.0
86.146,0.611,0.222,5.0
0.0,0.0,0.0,0.0
46.331,0.309,-0.363,0.0
0.0,0.0,0.0,0.0
0.0,0.0,0.0,0.0
27.716,0.168,-0.653,0.0
92.314,0.542,0.401,2.0
0.0,0.0,0.0,0.0
55.163,0.301,-0.335,0.0
42.839,0.225,-0.487,0.0
34.259,0.173,-0.568,0.0
29.054,0.141,-0.632,0.0
104.266,0.486,0.639,9.0
87.959,0.393,0.081,1.0
0.0,0.0,0.0,0.0
42.855,0.174,-0.409,0.0
0.0,0.0,0.0,0.0
30.454,0.112,-0.608,0.0
110.934,0.387,0.882,13.0
0.0,0.0,0.0,0.0
0.0,0.0,0.0,0.0
49.792,0.145,-0.385,0.0
0.0,0.0,0.0,0.0
31.932,0.081,-0.579,0.0
111.153,0.262,1.087,13.0
103.776,0.224,0.476,1.0
0.0,0.0,0.0,0.0
0.0,0.0,0.0,0.0
42.793,0.068,-0.473,1.0
34.412,0.049,-0.56,0.0
111.157,0.138,1.293,19.0
110.678,0.117,0.714,9.0
0.0,0.0,0.0,0.0
0.0,0.0,0.0,0.0
45.591,0.024,-0.42,2.0
36.1,0.012,-0.52,0.0
111.098,0.019,1.5,11.0
117.281,0.0,0.976,6.0
97.725,-0.017,0.306,1.0
0.0,0.0,0.0,0.0
0.0,0.0,0.0,0.0
40.409,-0.028,-0.505,0.0
114.74,-0.098,1.764,8.0
117.469,-0.121,1.198,12.0
110.485,-0.132,0.554,5.0
43.735,-0.059,-0.011,0.0
0.0,0.0,0.0,0.0
41.586,-0.07,-0.442,0.0
115.778,-0.216,2.001,4.0
119.769,-0.242,1.448,5.0
114.487,-0.25,0.792,34.0
0.0,0.0,0.0,0.0
0.0,0.0,0.0,0.0
45.23,-0.12,-0.393,0.0
119.849,-0.34,2.301,150.0
0.0,0.0,0.0,0.0
119.715,-0.376,1.058,16.0
103.483,-0.342,0.37,4.0
0.0,0.0,0.0,0.0
0.0,0.0,0.0,0.0
119.796,-0.452,2.532,16.0
119.82,-0.47,1.912,34.0
119.683,-0.487,1.289,15.0
111.027,-0.468,0.612,5.0
0.0,0.0,0.0,0.0
0.0,0.0,0.0,0.0
119.791,-0.559,2.763,39.0
119.825,-0.577,2.145,27.0
119.67,-0.593,1.523,16.0
114.247,-0.582,0.851,7.0
0.0,0.0,0.0,0.0
0.0,0.0,0.0,0.0
119.743,-0.662,2.996,7.0
119.748,-0.679,2.378,9.0
119.804,-0.695,1.759,18.0
119.663,-0.711,1.126,16.0
111.07,-0.674,0.471,2.0
0.0,0.0,0.0,0.0
119.795,-0.762,3.232,19.0
119.756,-0.777,2.612,18.0
119.78,-0.792,1.993,8.0
119.697,-0.807,1.361,17.0
113.895,-0.783,0.707,8.0
0.0,0.0,0.0,0.0
119.727,-0.856,3.467,12.0
119.734,-0.871,2.849,37.0
119.734,-0.885,2.23,39.0
119.725,-0.9,1.599,27.0
119.69,-0.914,0.981,16.0
0.0,0.0,0.0,0.0
205.766,-1.627,6.367,6.0
119.726,-0.961,3.088,130.0
119.731,-0.975,2.47,73.0
119.745,-0.989,1.84,84.0
119.7,-1.002,1.223,18.0
114.575,-0.973,0.58,2.0
214.899,-1.857,7.086,10.0
119.716,-1.047,3.327,77.0
119.719,-1.06,2.71,150.0
119.735,-1.073,2.081,150.0
119.752,-1.086,1.463,137.0
119.751,-1.099,0.847,47.0
190.623,-1.778,6.668,16.0
210.87,-1.989,6.289,11.0
119.729,-1.141,2.953,150.0
119.749,-1.153,2.323,151.0
119.75,-1.165,1.707,151.0
119.752,-1.178,1.09,150.0
190.52,-1.901,7.051,41.0
210.7,-2.123,6.712,16.0
119.68,-1.216,3.192,6.0
119.725,-1.228,2.564,22.0
119.717,-1.239,1.948,33.0
119.727,-1.251,1.332,25.0
190.01,-2.012,7.417,32.0
210.436,-2.247,7.127,11.0
209.506,-2.256,6.016,10.0
209.095,-2.27,4.906,10.0
0.0,0.0,0.0,0.0
139.158,-1.534,1.83,3.0
189.768,-2.118,7.792,62.0
190.509,-2.142,6.838,30.0
0.0,0.0,0.0,0.0
0.0,0.0,0.0,0.0
210.26,-2.413,4.274,6.0
139.271,-1.609,2.114,3.0
112.029,-1.311,4.83,18.0
190.429,-2.242,7.224,28.0
210.506,-2.494,6.901,11.0
209.153,-2.493,5.757,17.0
210.788,-2.528,4.717,8.0
204.204,-2.462,3.517,17.0
94.98,-1.159,4.288,8.0
189.805,-2.329,7.589,20.0
190.571,-2.349,6.633,18.0
0.0,0.0,0.0,0.0
0.0,0.0,0.0,0.0
0.0,0.0,0.0,0.0
84.922,-1.075,4.006,11.0
112.06,-1.424,4.706,16.0
190.51,-2.433,7.019,42.0
209.834,-2.692,6.627,11.0
206.466,-2.661,5.458,7.0
210.526,-2.724,4.48,5.0
81.227,-1.062,3.998,10.0
84.987,-1.116,3.743,8.0
189.863,-2.502,7.382,32.0
210.777,-2.788,7.088,10.0
206.52,-2.742,5.88,5.0
206.663,-2.753,4.819,9.0
81.43,-1.096,4.174,14.0
81.224,-1.097,3.743,18.0
189.744,-2.57,7.764,64.0
190.534,-2.589,6.793,22.0
209.706,-2.859,6.395,8.0
205.988,-2.815,5.219,5.0
81.643,-1.127,4.35,27.0
81.191,-1.124,3.907,11.0
96.472,-1.338,4.143,6.0
106.543,-1.482,4.014,13.0
210.478,-2.935,6.846,8.0
113.299,-1.583,3.099,7.0
73.47,-1.037,4.065,10.0
81.966,-1.159,4.111,13.0
81.32,-1.152,3.659,15.0
112.341,-1.594,4.462,17.0
190.553,-2.71,6.586,16.0
0.0,0.0,0.0,0.0
61.291,-0.881,3.516,29.0
81.821,-1.178,4.27,11.0
81.162,-1.171,3.815,17.0
111.944,-1.616,4.673,10.0
190.482,-2.754,6.967,25.0
0.0,0.0,0.0,0.0
61.505,-0.899,3.653,9.0
73.46,-1.074,3.982,11.0
81.398,-1.191,3.991,8.0
96.368,-1.411,4.217,17.0
106.511,-1.561,4.111,10.0
210.525,-3.089,7.04,9.0
61.449,-0.91,3.774,11.0
61.285,-0.907,3.446,19.0
81.686,-1.21,4.171,9.0
81.203,-1.203,3.719,14.0
112.139,-1.662,4.557,13.0
190.555,-2.825,6.758,19.0
50.713,-0.758,3.218,29.0
61.311,-0.917,3.572,16.0
61.134,-0.914,3.246,7.0
81.266,-1.215,3.885,13.0
106.516,-1.592,4.542,8.0
106.546,-1.591,3.991,9.0
50.332,-0.758,3.294,10.0
61.5,-0.926,3.707,8.0
61.19,-0.921,3.37,21.0
81.977,-1.233,4.082,13.0
81.318,-1.222,3.627,9.0
106.518,-1.599,4.201,11.0
48.334,-0.732,3.26,25.0
50.748,-0.768,3.159,21.0
61.264,-0.926,3.496,29.0
81.658,-1.233,4.228,11.0
81.165,-1.224,3.783,16.0
106.493,-1.604,4.414,9.0
48.266,-0.733,3.353,38.0
50.495,-0.765,3.245,26.0
61.238,-0.927,3.617,8.0
61.174,-0.924,3.29,22.0
81.643,-1.231,3.968,13.0
95.728,-1.442,4.156,13.0
48.302,-0.733,3.452,36.0
48.253,-0.731,3.197,21.0
61.511,-0.93,3.755,10.0
61.225,-0.924,3.414,21.0
81.763,-1.231,4.134,10.0
81.243,-1.22,3.686,12.0
48.147,-0.729,3.535,14.0
48.335,-0.73,3.297,24.0
50.725,-0.764,3.196,25.0
61.289,-0.921,3.537,25.0
73.454,-1.101,3.858,8.0
81.178,-1.214,3.844,16.0
42.665,-0.643,3.217,43.0
48.272,-0.725,3.388,34.0
50.373,-0.755,3.273,15.0
61.41,-0.917,3.664,6.0
61.165,-0.91,3.331,8.0
81.652,-1.211,4.024,10.0
42.791,-0.64,3.31,44.0
48.228,-0.718,3.478,16.0
48.28,-0.717,3.23,22.0
61.442,-0.909,3.785,7.0
61.233,-0.903,3.454,20.0
81.723,-1.2,4.185,11.0
42.48,-0.629,3.367,34.0
47.964,-0.707,3.552,6.0
48.229,-0.708,3.319,25.0
50.541,-0.739,3.21,24.0
61.44,-0.895,3.582,23.0
73.449,-1.065,3.901,12.0
42.464,-0.621,3.447,31.0
42.634,-0.621,3.238,41.0
48.136,-0.697,3.405,34.0
50.4,-0.726,3.297,16.0
61.516,-0.883,3.703,10.0
73.484,-1.05,4.042,10.0
42.745,-0.615,3.552,35.0
42.648,-0.611,3.32,37.0
48.164,-0.686,3.497,4.0
48.209,-0.683,3.244,35.0
61.624,-0.869,3.825,11.0
61.182,-0.858,3.479,14.0
42.325,-0.598,3.596,50.0
42.176,-0.593,3.362,44.0
42.527,-0.594,3.167,40.0
48.111,-0.668,3.326,40.0
50.597,-0.699,3.233,36.0
61.458,-0.844,3.606,22.0
42.006,-0.582,3.646,46.0
42.491,-0.584,3.465,17.0
42.121,-0.576,3.213,47.0
48.128,-0.654,3.415,20.0
50.599,-0.683,3.325,4.0
61.857,-0.829,3.743,21.0
41.929,-0.567,3.716,44.0
43.368,-0.582,3.616,19.0
42.221,-0.562,3.298,46.0
42.558,-0.563,3.097,51.0
48.535,-0.637,3.278,22.0
50.782,-0.662,3.164,16.0
41.951,-0.551,3.794,42.0
42.418,-0.553,3.613,36.0
42.147,-0.546,3.368,39.0
42.535,-0.546,3.172,39.0
48.11,-0.613,3.335,25.0
50.586,-0.639,3.242,31.0
42.014,-0.535,3.875,39.0
41.954,-0.53,3.648,36.0
42.308,-0.53,3.456,28.0
42.19,-0.524,3.22,48.0
42.49,-0.524,3.02,36.0
49.083,-0.6,3.231,22.0
42.159,-0.519,3.963,38.0
41.841,-0.511,3.712,38.0
41.751,-0.505,3.484,50.0
42.044,-0.503,3.283,42.0
42.461,-0.503,3.093,45.0
48.539,-0.57,3.28,22.0
42.022,-0.498,4.024,37.0
41.84,-0.49,3.786,44.0
42.024,-0.488,3.58,30.0
42.194,-0.485,3.368,38.0
42.292,-0.481,3.153,40.0
48.144,-0.542,3.337,7.0
41.658,-0.472,4.061,43.0
41.781,-0.469,3.852,39.0
41.688,-0.463,3.622,44.0
42.105,-0.462,3.432,27.0
42.032,-0.456,3.205,40.0
42.456,-0.455,3.013,39.0
41.729,-0.451,4.139,35.0
41.619,-0.444,3.908,39.0
41.803,-0.44,3.703,38.0
41.747,-0.435,3.473,38.0
41.959,-0.432,3.269,41.0
42.372,-0.43,3.078,38.0
41.557,-0.425,4.192,41.0
41.674,-0.421,3.982,44.0
41.601,-0.415,3.754,40.0
41.574,-0.409,3.527,47.0
41.962,-0.407,3.338,38.0
