X,Y,Z,Reflectivity
52.34,3.38,2.291,28.0
49.528,3.191,1.883,5.0
41.683,2.682,2.725,17.0
41.551,2.667,2.476,41.0
52.266,3.347,2.813,39.0
52.333,3.344,2.509,26.0
110.963,7.073,4.681,18.0
49.561,3.152,1.805,16.0
52.246,3.317,3.332,10.0
41.471,2.626,2.405,42.0
52.305,3.304,2.731,32.0
91.783,5.785,4.255,3.0
111.117,6.987,4.512,9.0
49.345,3.095,1.719,17.0
41.459,2.595,2.578,36.0
52.926,3.304,2.985,15.0
90.001,5.604,4.557,12.0
111.017,6.895,4.97,28.0
111.031,6.879,4.332,30.0
49.204,3.041,1.637,17.0
41.473,2.558,2.513,35.0
53.128,3.267,2.913,14.0
90.505,5.551,4.44,11.0
115.435,7.06,4.988,18.0
50.972,3.109,1.909,4.0
49.073,2.986,1.556,18.0
41.523,2.52,2.451,37.0
79.627,4.818,4.24,4.0
115.433,6.966,5.482,16.0
115.451,6.947,4.808,39.0
50.869,3.053,1.826,11.0
49.012,2.933,1.477,14.0
41.666,2.486,2.394,38.0
52.562,3.127,2.717,8.0
115.42,6.847,5.303,19.0
115.451,6.828,4.628,32.0
50.779,2.994,1.743,16.0
48.969,2.879,1.4,16.0
52.68,3.088,2.945,18.0
52.276,3.055,2.622,4.0
118.731,6.918,5.271,13.0
118.761,6.898,4.578,13.0
50.712,2.936,1.663,20.0
48.955,2.825,1.324,14.0
52.583,3.025,2.858,27.0
91.374,5.239,4.44,10.0
119.676,6.839,5.127,19.0
119.701,6.817,4.428,24.0
50.661,2.876,1.582,21.0
48.943,2.77,1.248,14.0
52.551,2.963,2.775,27.0
52.614,2.957,2.476,5.0
119.701,6.703,4.944,30.0
119.708,6.68,4.244,30.0
50.57,2.812,1.503,23.0
48.899,2.709,1.172,13.0
52.529,2.9,2.693,21.0
52.546,2.89,2.392,9.0
59.516,3.262,2.368,13.0
59.438,3.246,2.017,25.0
50.525,2.749,1.425,23.0
48.92,2.652,1.098,12.0
52.705,2.846,2.623,25.0
59.411,3.196,2.616,21.0
59.425,3.184,2.275,30.0
59.385,3.171,1.926,33.0
50.453,2.684,1.347,22.0
48.896,2.591,1.025,13.0
52.675,2.779,2.543,27.0
59.405,3.121,2.527,29.0
59.4,3.108,2.185,43.0
59.393,3.096,1.839,31.0
50.383,2.616,1.271,22.0
48.919,2.53,0.954,11.0
59.374,3.056,2.779,18.0
59.41,3.045,2.439,27.0
59.449,3.034,2.1,27.0
59.506,3.024,1.754,16.0
50.313,2.546,1.195,23.0
49.029,2.471,0.884,6.0
59.422,2.979,2.693,14.0
59.486,2.969,2.355,26.0
125.062,6.214,4.233,2.0
0.0,0.0,0.0,0.0
50.231,2.475,1.12,19.0
49.179,2.412,0.815,8.0
59.522,2.904,2.612,9.0
0.0,0.0,0.0,0.0
60.797,2.938,1.971,0.0
120.107,5.78,3.194,9.0
50.245,2.406,1.048,15.0
49.407,2.355,0.748,6.0
52.875,2.506,2.245,11.0
0.0,0.0,0.0,0.0
61.177,2.872,1.897,8.0
120.134,5.613,3.026,21.0
50.486,2.347,0.982,21.0
66.184,3.062,0.909,5.0
52.73,2.425,2.165,6.0
0.0,0.0,0.0,0.0
62.224,2.832,1.842,8.0
61.164,2.77,1.455,13.0
50.524,2.276,0.913,13.0
66.059,2.962,0.817,25.0
66.066,2.942,2.621,9.0
66.085,2.927,2.244,21.0
63.328,2.789,1.788,10.0
62.182,2.725,1.394,5.0
50.658,2.208,0.846,10.0
66.049,2.864,0.727,25.0
66.021,2.842,2.529,29.0
65.997,2.824,2.151,33.0
64.454,2.742,1.732,9.0
63.446,2.684,1.336,10.0
62.594,2.633,0.96,7.0
61.996,2.593,0.597,7.0
66.051,2.742,2.441,29.0
66.119,2.728,2.065,25.0
120.095,4.926,3.066,20.0
120.049,4.894,2.368,15.0
63.906,2.59,0.896,2.0
64.694,2.606,0.538,4.0
66.179,2.644,2.358,7.0
194.948,7.741,5.834,24.0
194.317,7.665,4.705,23.0
193.801,7.596,3.568,20.0
119.982,4.674,1.525,15.0
72.199,2.794,0.506,7.0
190.73,7.321,6.551,17.0
195.351,7.448,5.594,8.0
120.078,4.547,2.754,12.0
120.074,4.515,2.057,19.0
72.497,2.707,0.828,16.0
72.037,2.672,0.413,13.0
72.448,2.663,2.395,25.0
72.453,2.644,1.982,30.0
72.406,2.624,1.568,28.0
72.356,2.602,1.147,29.0
72.357,2.584,0.735,27.0
71.655,2.539,0.32,18.0
72.399,2.542,2.302,32.0
72.39,2.521,1.889,36.0
72.373,2.501,1.476,39.0
72.337,2.48,1.057,36.0
72.34,2.462,0.645,26.0
71.333,2.408,0.23,10.0
72.439,2.42,2.214,31.0
72.446,2.4,1.802,34.0
72.419,2.381,1.389,32.0
72.412,2.36,0.969,35.0
72.353,2.339,0.557,31.0
71.018,2.277,0.143,5.0
74.238,2.354,2.18,4.0
120.009,3.772,2.841,5.0
120.026,3.739,2.159,21.0
78.982,2.439,0.964,10.0
72.357,2.214,0.471,8.0
64.71,1.962,0.053,7.0
78.869,2.364,2.223,12.0
75.104,2.23,1.69,4.0
74.683,2.196,1.256,4.0
74.838,2.179,0.826,7.0
72.069,2.078,0.386,7.0
63.7,1.82,-0.02,3.0
78.733,2.221,2.129,8.0
78.846,2.201,1.684,3.0
77.265,2.136,1.211,5.0
0.0,0.0,0.0,0.0
71.953,1.947,0.304,13.0
65.001,1.741,-0.093,6.0
78.913,2.086,2.046,28.0
78.974,2.064,1.599,30.0
78.969,2.04,1.15,26.0
78.976,2.018,0.695,26.0
71.796,1.814,0.224,12.0
66.078,1.65,-0.167,0.0
85.291,2.1,2.118,26.0
85.26,2.073,1.633,32.0
85.247,2.048,1.15,35.0
85.073,2.02,0.657,16.0
71.77,1.682,0.147,8.0
0.0,0.0,0.0,0.0
85.23,1.94,2.025,34.0
85.253,1.915,1.543,39.0
85.242,1.89,1.06,41.0
84.992,1.859,0.566,14.0
71.486,1.542,0.072,3.0
52.671,1.121,-0.244,0.0
85.366,1.786,1.941,24.0
85.445,1.762,1.459,14.0
85.467,1.737,0.976,11.0
84.972,1.701,0.481,8.0
70.925,1.399,0.0,3.0
0.0,0.0,0.0,0.0
91.738,1.748,1.995,1.0
91.838,1.723,1.478,1.0
91.853,1.695,0.959,16.0
84.506,1.534,0.396,9.0
72.874,1.301,-0.069,1.0
0.0,0.0,0.0,0.0
91.893,1.577,1.91,37.0
91.9,1.548,1.39,45.0
91.871,1.518,0.87,28.0
81.031,1.314,0.302,7.0
0.0,0.0,0.0,0.0
46.927,0.731,-0.355,1.0
119.946,1.829,2.381,35.0
98.727,1.473,1.402,18.0
98.6,1.44,0.843,16.0
81.048,1.158,0.227,2.0
0.0,0.0,0.0,0.0
43.973,0.6,-0.372,1.0
98.556,1.31,1.867,32.0
98.51,1.279,1.31,30.0
98.331,1.245,0.753,10.0
79.174,0.976,0.151,4.0
49.918,0.599,-0.185,0.0
42.528,0.496,-0.398,0.0
98.582,1.116,1.781,27.0
98.562,1.085,1.225,28.0
98.255,1.049,0.667,11.0
81.499,0.844,0.086,1.0
54.564,0.547,-0.249,0.0
42.844,0.415,-0.437,0.0
100.163,0.936,1.726,3.0
100.491,0.907,1.165,2.0
98.084,0.852,0.585,10.0
0.0,0.0,0.0,0.0
49.932,0.4,-0.269,0.0
42.847,0.33,-0.472,0.0
104.891,0.77,1.723,18.0
104.916,0.736,1.133,20.0
97.226,0.649,0.502,4.0
0.0,0.0,0.0,0.0
0.0,0.0,0.0,0.0
40.522,0.23,-0.478,0.0
111.069,0.593,1.739,29.0
111.027,0.555,1.114,21.0
94.742,0.442,0.418,1.0
0.0,0.0,0.0,0.0
49.918,0.199,-0.345,1.0
0.0,0.0,0.0,0.0
119.845,0.397,1.788,16.0
111.104,0.332,1.034,18.0
93.002,0.247,0.343,2.0
0.0,0.0,0.0,0.0
45.597,0.09,-0.348,0.0
37.638,0.062,-0.498,0.0
111.124,0.144,1.581,19.0
111.053,0.106,0.957,8.0
95.622,0.059,0.287,4.0
0.0,0.0,0.0,0.0
45.324,-0.002,-0.376,2.0
0.0,0.0,0.0,0.0
117.383,-0.087,1.593,17.0
111.154,-0.12,0.885,11.0
0.0,0.0,0.0,0.0
0.0,0.0,0.0,0.0
45.071,-0.094,-0.403,1.0
35.376,-0.086,-0.514,0.0
119.718,-0.332,1.55,12.0
111.22,-0.348,0.817,9.0
0.0,0.0,0.0,0.0
0.0,0.0,0.0,0.0
45.334,-0.189,-0.433,0.0
35.593,-0.16,-0.539,0.0
119.711,-0.58,1.48,15.0
111.08,-0.576,0.751,5.0
0.0,0.0,0.0,0.0
50.901,-0.3,-0.23,0.0
0.0,0.0,0.0,0.0
34.315,-0.226,-0.539,0.0
119.67,-0.829,1.412,17.0
113.933,-0.829,0.708,3.0
0.0,0.0,0.0,0.0
51.162,-0.408,-0.259,0.0
41.471,-0.346,-0.441,0.0
33.457,-0.291,-0.543,0.0
119.731,-1.081,1.351,62.0
119.717,-1.123,0.682,9.0
0.0,0.0,0.0,0.0
50.969,-0.514,-0.283,1.0
0.0,0.0,0.0,0.0
0.0,0.0,0.0,0.0
139.342,-1.549,1.505,12.0
0.0,0.0,0.0,0.0
0.0,0.0,0.0,0.0
50.709,-0.618,-0.305,0.0
0.0,0.0,0.0,0.0
0.0,0.0,0.0,0.0
139.125,-1.839,1.442,12.0
127.528,-1.731,0.611,6.0
0.0,0.0,0.0,0.0
50.116,-0.716,-0.323,0.0
0.0,0.0,0.0,0.0
32.0,-0.48,-0.563,0.0
138.901,-2.125,1.384,12.0
113.528,-1.778,0.499,3.0
0.0,0.0,0.0,0.0
50.139,-0.821,-0.342,1.0
0.0,0.0,0.0,0.0
31.286,-0.535,-0.562,0.0
139.069,-2.42,1.335,22.0
0.0,0.0,0.0,0.0
0.0,0.0,0.0,0.0
0.0,0.0,0.0,0.0
0.0,0.0,0.0,0.0
31.05,-0.596,-0.568,0.0
139.004,-2.709,1.289,26.0
0.0,0.0,0.0,0.0
0.0,0.0,0.0,0.0
0.0,0.0,0.0,0.0
0.0,0.0,0.0,0.0
31.677,-0.675,-0.589,0.0
138.965,-3.002,1.247,23.0
0.0,0.0,0.0,0.0
0.0,0.0,0.0,0.0
0.0,0.0,0.0,0.0
37.539,-0.865,-0.499,0.0
30.942,-0.724,-0.583,0.0
138.866,-3.291,1.211,19.0
0.0,0.0,0.0,0.0
0.0,0.0,0.0,0.0
0.0,0.0,0.0,0.0
0.0,0.0,0.0,0.0
30.724,-0.784,-0.586,0.0
138.789,-3.58,1.181,19.0
0.0,0.0,0.0,0.0
0.0,0.0,0.0,0.0
47.709,-1.283,-0.391,1.0
37.961,-1.035,-0.521,0.0
21.922,-0.606,-0.422,3.0
138.432,-3.863,1.153,27.0
0.0,0.0,0.0,0.0
0.0,0.0,0.0,0.0
44.639,-1.294,-0.373,1.0
38.01,-1.116,-0.528,0.0
0.0,0.0,0.0,0.0
138.669,-4.159,1.136,11.0
50.391,-1.53,0.134,2.0
57.93,-1.779,-0.165,0.0
46.431,-1.443,-0.393,0.0
38.022,-1.196,-0.532,0.0
30.455,-0.969,-0.594,0.0
138.639,-4.447,1.122,19.0
0.0,0.0,0.0,0.0
0.0,0.0,0.0,0.0
46.892,-1.556,-0.401,0.0
37.988,-1.275,-0.535,0.0
30.651,-1.039,-0.601,0.0
138.613,-4.736,1.113,17.0
0.0,0.0,0.0,0.0
0.0,0.0,0.0,0.0
45.785,-1.614,-0.394,0.0
0.0,0.0,0.0,0.0
30.509,-1.099,-0.599,0.0
138.517,-5.02,1.108,22.0
0.0,0.0,0.0,0.0
0.0,0.0,0.0,0.0
45.387,-1.695,-0.391,1.0
36.894,-1.392,-0.521,0.0
30.307,-1.155,-0.595,0.0
138.421,-5.307,1.109,15.0
0.0,0.0,0.0,0.0
0.0,0.0,0.0,0.0
47.547,-1.875,-0.408,0.0
0.0,0.0,0.0,0.0
30.498,-1.225,-0.597,0.0
138.39,-5.591,1.115,16.0
0.0,0.0,0.0,0.0
0.0,0.0,0.0,0.0
47.077,-1.953,-0.401,1.0
38.403,-1.607,-0.538,0.0
30.638,-1.294,-0.598,0.0
138.048,-5.859,1.124,21.0
0.0,0.0,0.0,0.0
0.0,0.0,0.0,0.0
47.263,-2.058,-0.398,0.0
38.552,-1.693,-0.536,0.0
30.859,-1.367,-0.598,0.0
138.303,-6.154,1.144,15.0
0.0,0.0,0.0,0.0
0.0,0.0,0.0,0.0
19.999,-0.912,-0.165,8.0
20.018,-0.92,-0.275,17.0
20.04,-0.929,-0.385,15.0
138.278,-6.436,1.166,20.0
0.0,0.0,0.0,0.0
20.004,-0.945,-0.05,18.0
19.985,-0.952,-0.162,27.0
20.0,-0.96,-0.271,26.0
20.02,-0.969,-0.381,27.0
20.193,-0.98,0.174,0.0
20.019,-0.979,0.063,10.0
19.984,-0.985,-0.046,25.0
19.986,-0.992,-0.157,32.0
20.0,-1.0,-0.267,26.0
20.022,-1.009,-0.377,29.0
20.041,-1.013,0.177,17.0
19.986,-1.018,0.067,19.0
19.974,-1.024,-0.041,25.0
19.997,-1.033,-0.152,25.0
20.08,-1.044,-0.263,5.0
20.04,-1.05,-0.372,8.0
19.978,-1.05,0.182,19.0
19.971,-1.057,0.073,32.0
19.987,-1.065,-0.035,18.0
20.018,-1.074,-0.147,6.0
38.683,-2.09,-0.496,0.0
0.0,0.0,0.0,0.0
19.995,-1.09,0.188,25.0
19.99,-1.097,0.079,19.0
20.012,-1.105,-0.029,7.0
50.254,-2.795,-0.353,2.0
38.743,-2.169,-0.484,0.0
0.0,0.0,0.0,0.0
19.993,-1.13,0.195,15.0
20.089,-1.142,0.086,8.0
20.004,-1.145,-0.022,0.0
20.005,-1.152,-0.133,7.0
20.022,-1.16,-0.242,59.0
20.002,-1.166,-0.351,53.0
20.018,-1.17,0.203,17.0
20.002,-1.176,0.094,150.0
19.986,-1.182,-0.014,151.0
19.987,-1.19,-0.125,151.0
19.981,-1.197,-0.234,150.0
19.987,-1.204,-0.343,150.0
19.988,-1.207,0.211,150.0
19.99,-1.214,0.102,151.0
20.0,-1.221,-0.006,19.0
20.038,-1.231,-0.117,25.0
20.039,-1.238,-0.226,22.0
20.071,-1.247,-0.335,25.0
19.986,-1.245,0.22,26.0
19.987,-1.251,0.111,26.0
20.0,-1.259,0.002,19.0
20.001,-1.267,-0.107,29.0
20.013,-1.275,-0.216,30.0
20.047,-1.284,-0.326,30.0
19.97,-1.281,0.229,27.0
19.979,-1.289,0.121,23.0
19.98,-1.296,0.012,18.0
19.99,-1.303,-0.098,29.0
20.013,-1.311,-0.206,29.0
20.056,-1.322,-0.316,24.0
19.975,-1.319,0.239,26.0
19.996,-1.327,0.131,19.0
19.996,-1.334,0.022,15.0
19.973,-1.339,-0.087,20.0
20.032,-1.35,-0.196,21.0
20.05,-1.358,-0.305,11.0
119.335,-8.099,1.496,16.0
19.95,-1.361,0.142,0.0
20.051,-1.374,0.034,0.0
20.024,-1.379,-0.076,7.0
20.03,-1.387,-0.184,0.0
35.775,-2.49,-0.524,0.0
20.047,-1.397,0.263,9.0
20.037,-1.403,0.154,3.0
0.0,0.0,0.0,0.0
48.726,-3.445,-0.156,1.0
43.441,-3.086,-0.374,0.0
0.0,0.0,0.0,0.0
20.016,-1.431,0.274,19.0
20.022,-1.438,0.166,33.0
82.322,-5.939,0.239,1.0
0.0,0.0,0.0,0.0
40.011,-2.914,-0.32,1.0
39.05,-2.857,-0.523,0.0
20.026,-1.467,0.287,7.0
20.027,-1.473,0.179,13.0
80.831,-5.975,0.288,5.0
0.0,0.0,0.0,0.0
40.489,-3.02,-0.297,2.0
35.08,-2.628,-0.446,1.0
119.312,-8.951,1.796,20.0
113.883,-8.58,1.099,3.0
82.922,-6.275,0.352,10.0
58.736,-4.463,-0.072,1.0
40.476,-3.089,-0.268,15.0
33.694,-2.583,-0.405,1.0
67.893,-5.21,1.069,72.0
67.869,-5.229,0.703,89.0
67.846,-5.25,0.337,94.0
55.462,-4.309,-0.028,6.0
40.659,-3.173,-0.24,8.0
35.178,-2.756,-0.397,11.0
67.909,-5.326,1.12,29.0
67.96,-5.351,0.754,5.0
85.103,-6.727,0.486,3.0
56.438,-4.479,0.012,5.0
40.682,-3.242,-0.209,2.0
35.53,-2.843,-0.374,9.0
119.355,-9.56,2.06,111.0
119.175,-9.582,1.415,16.0
86.661,-6.993,0.562,11.0
61.758,-5.003,0.062,4.0
48.369,-3.934,-0.211,8.0
35.667,-2.912,-0.348,21.0
126.486,-10.337,2.284,74.0
119.173,-9.776,1.51,20.0
87.317,-7.189,0.636,8.0
67.589,-5.586,0.122,6.0
47.533,-3.942,-0.169,21.0
35.662,-2.969,-0.319,4.0
126.51,-10.539,2.387,93.0
119.217,-9.968,1.608,16.0
89.422,-7.504,0.725,1.0
67.565,-5.69,0.178,7.0
0.0,0.0,0.0,0.0
41.779,-3.544,-0.338,2.0
126.477,-10.737,2.494,30.0
119.184,-10.153,1.71,16.0
111.955,-9.569,1.005,3.0
81.294,-6.972,0.284,4.0
0.0,0.0,0.0,0.0
41.903,-3.619,-0.303,13.0
119.25,-10.306,2.456,54.0
135.712,-11.768,2.066,116.0
111.726,-9.719,1.101,7.0
83.837,-7.318,0.368,3.0
50.973,-4.464,-0.049,24.0
41.495,-3.646,-0.262,16.0
72.764,-6.399,1.564,5.0
135.663,-11.967,2.189,150.0
113.024,-10.002,1.217,8.0
84.095,-7.465,0.445,7.0
51.493,-4.586,-0.002,11.0
0.0,0.0,0.0,0.0
135.625,-12.123,3.04,117.0
135.639,-12.162,2.313,66.0
114.676,-10.314,1.341,7.0
85.09,-7.677,0.531,13.0
52.009,-4.707,0.046,4.0
44.306,-4.022,-0.198,19.0
135.637,-12.321,3.17,16.0
119.275,-10.866,2.147,21.0
119.119,-10.884,1.507,10.0
86.129,-7.893,0.62,12.0
59.171,-5.439,0.11,2.0
0.0,0.0,0.0,0.0
119.252,-11.001,2.903,29.0
135.556,-12.539,2.575,150.0
119.107,-11.048,1.624,17.0
87.313,-8.122,0.715,8.0
62.785,-5.857,0.178,2.0
46.91,-4.388,-0.117,21.0
119.244,-11.162,3.021,19.0
119.254,-11.192,2.384,28.0
119.155,-11.213,1.744,17.0
111.248,-10.497,1.022,7.0
81.494,-7.71,0.313,3.0
48.124,-4.565,-0.072,22.0
119.269,-11.322,3.143,11.0
119.23,-11.345,2.504,6.0
119.16,-11.368,1.864,11.0
111.11,-10.628,1.134,16.0
83.725,-8.029,0.407,5.0
48.709,-4.683,-0.023,14.0
104.475,-10.05,2.861,14.0
135.51,-13.068,2.986,16.0
135.528,-13.101,2.262,81.0
111.656,-10.82,1.255,13.0
85.068,-8.264,0.502,12.0
49.278,-4.799,0.028,4.0
103.841,-10.119,2.952,12.0
78.794,-7.696,1.82,12.0
135.503,-13.266,2.406,149.0
114.671,-11.253,1.411,7.0
84.801,-8.342,0.59,10.0
51.74,-5.102,0.085,5.0
73.939,-7.295,2.183,14.0
78.665,-7.779,1.902,10.0
135.483,-13.427,2.552,71.0
119.112,-11.831,1.596,10.0
87.851,-8.746,0.709,8.0
70.945,-7.079,0.193,2.0
73.944,-7.382,2.263,10.0
78.594,-7.862,1.986,29.0
74.774,-7.496,1.49,5.0
135.416,-13.607,1.964,141.0
87.796,-8.84,0.805,4.0
81.179,-8.192,0.312,5.0
78.567,-7.933,2.492,10.0
78.603,-7.952,2.074,9.0
74.805,-7.583,1.575,21.0
135.375,-13.752,2.116,151.0
104.574,-10.645,1.076,6.0
80.791,-8.242,0.401,6.0
74.384,-7.592,2.444,28.0
78.613,-8.038,2.163,8.0
74.831,-7.667,1.66,8.0
104.598,-10.737,1.753,9.0
104.681,-10.767,1.197,14.0
83.808,-8.637,0.512,3.0
78.267,-8.071,2.661,11.0
78.517,-8.11,2.251,19.0
74.805,-7.741,1.745,3.0
119.177,-12.356,2.133,19.0
113.994,-11.84,1.434,10.0
33.152,-3.45,0.24,7.0
78.09,-8.131,2.745,12.0
78.235,-8.16,2.333,14.0
78.838,-8.236,1.932,25.0
33.146,-3.469,0.632,0.0
33.142,-3.474,0.455,33.0
33.13,-3.48,0.279,68.0
72.28,-7.596,2.627,9.0
78.164,-8.227,2.423,10.0
78.767,-8.304,2.021,20.0
33.162,-3.501,0.671,61.0
33.138,-3.505,0.494,72.0
33.118,-3.509,0.318,76.0
72.407,-7.676,2.716,21.0
33.176,-3.522,1.067,5.0
33.169,-3.527,0.891,71.0
33.146,-3.53,0.71,72.0
33.13,-3.533,0.533,84.0
33.104,-3.536,0.357,79.0
33.187,-3.547,1.284,20.0
33.18,-3.551,1.107,71.0
33.151,-3.553,0.93,73.0
33.132,-3.556,0.749,86.0
33.12,-3.56,0.573,77.0
33.124,-3.566,0.397,83.0
33.177,-3.574,1.324,73.0
33.161,-3.577,1.147,75.0
33.137,-3.579,0.969,82.0
33.124,-3.582,0.789,80.0
33.132,-3.588,0.613,78.0
33.124,-3.592,0.437,49.0
33.165,-3.599,1.364,81.0
33.155,-3.602,1.186,81.0
33.149,-3.606,1.01,79.0
33.141,-3.609,0.83,79.0
33.133,-3.613,0.654,47.0
33.148,-3.62,0.478,33.0
33.164,-3.624,1.404,81.0
33.162,-3.627,1.228,79.0
33.153,-3.63,1.05,74.0
33.135,-3.633,0.871,44.0
33.164,-3.64,0.695,25.0
118.807,-13.057,1.858,18.0
33.172,-3.648,1.445,81.0
33.172,-3.651,1.269,73.0
33.158,-3.654,1.092,42.0
33.17,-3.659,0.912,17.0
75.25,-8.31,1.67,6.0
118.941,-13.15,2.006,20.0
33.195,-3.672,1.487,72.0
33.179,-3.674,1.31,40.0
33.185,-3.678,1.134,9.0
74.986,-8.319,2.155,25.0
75.197,-8.351,1.761,26.0
118.978,-13.227,2.154,30.0
33.192,-3.692,1.528,42.0
33.215,-3.698,1.352,8.0
74.101,-8.257,2.623,33.0
74.489,-8.308,2.233,20.0
74.739,-8.343,1.843,52.0
75.245,-8.407,1.455,20.0
33.214,-3.714,1.571,7.0
72.342,-8.095,3.036,9.0
74.0,-8.286,2.712,33.0
74.887,-8.392,2.337,10.0
74.378,-8.342,1.925,36.0
75.175,-8.438,1.546,22.0
70.75,-7.948,3.434,11.0
73.972,-8.315,3.195,13.0
72.803,-8.189,2.758,13.0
75.449,-8.493,2.449,11.0
74.468,-8.388,2.021,29.0
75.151,-8.471,1.64,24.0
0.0,0.0,0.0,0.0
72.693,-8.206,3.232,27.0
73.881,-8.344,2.891,20.0
75.2,-8.498,2.533,33.0
74.458,-8.42,2.112,13.0
74.648,-8.447,1.721,38.0
72.126,-8.168,3.681,30.0
73.354,-8.311,3.352,46.0
73.417,-8.323,2.964,17.0
75.012,-8.507,2.621,12.0
0.0,0.0,0.0,0.0
74.034,-8.406,1.8,47.0
72.201,-8.206,3.776,25.0
73.59,-8.366,3.456,39.0
72.793,-8.279,3.03,8.0
72.952,-8.3,2.64,21.0
75.145,-8.554,2.32,33.0
73.746,-8.398,1.885,22.0
72.494,-8.264,3.882,13.0
73.144,-8.34,3.526,27.0
73.121,-8.339,3.135,17.0
72.83,-8.309,2.726,18.0
75.315,-8.596,2.418,37.0
75.208,-8.587,2.016,6.0
72.289,-8.262,3.961,12.0
73.04,-8.349,3.612,36.0
73.365,-8.388,3.236,34.0
73.303,-8.383,2.836,52.0
74.974,-8.576,2.5,17.0
0.0,0.0,0.0,0.0
70.188,-8.039,3.934,9.0
73.229,-8.388,3.712,32.0
73.377,-8.406,3.328,44.0
73.257,-8.394,2.925,21.0
0.0,0.0,0.0,0.0
75.258,-8.626,2.203,16.0
0.0,0.0,0.0,0.0
72.969,-8.373,3.789,15.0
73.351,-8.417,3.418,39.0
73.083,-8.387,3.008,15.0
72.758,-8.35,2.606,21.0
74.981,-8.606,2.287,10.0
71.716,-8.241,4.196,22.0
72.501,-8.33,3.854,10.0
73.036,-8.391,3.493,31.0
73.227,-8.412,3.104,28.0
72.603,-8.341,2.69,27.0
74.6,-8.571,2.366,8.0
71.766,-8.254,4.288,15.0
70.127,-8.065,3.814,18.0
72.983,-8.391,3.579,36.0
73.266,-8.423,3.194,34.0
72.658,-8.353,2.779,13.0
74.561,-8.571,2.455,9.0
72.561,-8.351,4.423,12.0
70.182,-8.075,3.902,18.0
73.237,-8.425,3.68,32.0
73.32,-8.432,3.286,36.0
72.641,-8.353,2.867,12.0
0.0,0.0,0.0,0.0
72.591,-8.356,4.513,21.0
0.0,0.0,0.0,0.0
73.247,-8.426,3.77,16.0
73.406,-8.442,3.377,38.0
72.937,-8.386,2.966,18.0
72.804,-8.368,2.572,17.0
72.446,-8.338,4.591,16.0
71.716,-8.25,4.161,25.0
72.432,-8.329,3.814,9.0
73.236,-8.418,3.456,33.0
73.203,-8.412,3.063,21.0
72.643,-8.345,2.653,24.0
33.354,-3.836,2.154,2.0
71.734,-8.246,4.247,17.0
70.103,-8.055,3.774,10.0
72.977,-8.381,3.53,32.0
73.284,-8.413,3.153,28.0
72.775,-8.352,2.742,26.0
74.47,-8.557,4.896,13.0
72.285,-8.301,4.363,12.0
70.139,-8.05,3.858,16.0
73.125,-8.388,3.623,40.0
73.364,-8.411,3.241,34.0
73.412,-8.413,2.851,44.0
74.421,-8.54,4.979,22.0
72.686,-8.335,4.472,16.0
72.08,-8.26,4.048,8.0
73.137,-8.376,3.708,30.0
73.398,-8.401,3.327,41.0
73.335,-8.389,2.931,28.0
73.985,-8.475,5.035,9.0
72.659,-8.317,4.553,10.0
72.1,-8.246,4.131,22.0
72.448,-8.28,3.755,13.0
73.532,-8.398,3.417,47.0
72.784,-8.308,2.992,9.0
69.647,-7.961,4.819,17.0
72.406,-8.269,4.62,8.0
72.094,-8.226,4.213,12.0
72.458,-8.261,3.837,17.0
73.389,-8.361,3.492,28.0
73.396,-8.356,3.099,11.0
69.666,-7.942,4.899,28.0
33.318,-3.795,2.163,2.0
69.662,-7.927,4.148,13.0
70.227,-7.985,3.797,9.0
73.272,-8.324,3.568,25.0
73.307,-8.321,3.176,15.0
33.251,-3.779,2.375,11.0
75.439,-8.566,4.983,8.0
72.255,-8.197,4.383,26.0
72.312,-8.195,3.99,15.0
72.141,-8.168,3.593,28.0
72.738,-8.228,3.232,29.0
33.232,-3.765,2.41,41.0
33.225,-3.759,2.23,30.0
33.243,-3.758,2.052,8.0
72.338,-8.169,4.069,35.0
70.873,-7.995,3.605,11.0
72.532,-8.175,3.298,21.0
33.229,-3.75,2.445,76.0
33.209,-3.744,2.264,53.0
33.21,-3.739,2.085,40.0
33.204,-3.735,1.902,30.0
33.215,-3.732,1.723,7.0
72.531,-8.141,3.374,12.0
33.232,-3.735,2.48,81.0
33.226,-3.73,2.3,80.0
33.214,-3.724,2.119,73.0
33.175,-3.715,1.935,55.0
33.188,-3.712,1.756,41.0
33.192,-3.709,1.577,37.0
33.223,-3.717,2.513,91.0
33.21,-3.711,2.332,80.0
33.203,-3.706,2.152,74.0
33.202,-3.7,1.969,79.0
33.187,-3.694,1.789,75.0
33.187,-3.69,1.61,66.0
33.235,-3.701,2.548,73.0
33.221,-3.694,2.366,77.0
33.211,-3.688,2.186,71.0
33.2,-3.681,2.002,78.0
33.186,-3.675,1.822,78.0
33.18,-3.669,1.643,78.0
33.262,-3.684,2.582,61.0
33.242,-3.676,2.4,69.0
33.215,-3.668,2.218,67.0
33.203,-3.661,2.034,73.0
33.19,-3.654,1.854,76.0
33.175,-3.648,1.673,80.0
72.98,-8.038,5.736,8.0
33.241,-3.655,2.432,6.0
33.217,-3.646,2.25,34.0
33.213,-3.64,2.066,66.0
33.201,-3.634,1.885,68.0
33.187,-3.627,1.705,66.0
70.865,-7.757,5.636,26.0
70.306,-7.683,5.209,23.0
69.899,-7.626,4.798,28.0
70.4,-7.669,4.443,15.0
33.213,-3.612,1.916,9.0
33.192,-3.604,1.735,46.0
33.314,-3.623,2.679,38.0
33.313,-3.616,2.498,37.0
33.32,-3.611,2.317,25.0
70.359,-7.613,4.504,15.0
70.001,-7.562,4.1,28.0
70.277,-7.579,3.736,24.0
33.307,-3.597,2.708,52.0
33.313,-3.591,2.527,55.0
33.309,-3.584,2.345,41.0
33.293,-3.576,2.159,32.0
70.007,-7.508,4.16,10.0
70.03,-7.498,3.781,31.0
33.302,-3.571,2.736,51.0
33.304,-3.564,2.554,50.0
33.292,-3.556,2.371,46.0
33.291,-3.55,2.186,45.0
70.266,-7.48,4.232,13.0
70.122,-7.451,3.843,35.0
33.296,-3.543,2.762,50.0
33.288,-3.535,2.58,48.0
33.31,-3.531,2.399,64.0
33.272,-3.52,2.211,48.0
70.284,-7.422,4.289,20.0
70.034,-7.382,3.893,28.0
33.314,-3.516,2.79,61.0
33.288,-3.507,2.606,53.0
33.286,-3.499,2.423,53.0
33.265,-3.49,2.237,50.0
69.13,-7.239,4.271,19.0
69.967,-7.313,3.941,12.0
33.284,-3.484,2.813,53.0
33.278,-3.476,2.63,51.0
33.284,-3.469,2.448,51.0
33.263,-3.459,2.261,52.0
69.207,-7.183,4.327,23.0
69.25,-7.174,3.951,19.0
33.285,-3.453,2.837,54.0
33.271,-3.444,2.654,52.0
33.267,-3.436,2.47,49.0
33.249,-3.427,2.283,53.0
69.24,-7.121,4.378,29.0
68.952,-7.077,3.982,17.0
33.268,-3.419,2.859,52.0
33.266,-3.411,2.676,51.0
33.257,-3.402,2.493,49.0
33.24,-3.393,2.306,52.0
69.382,-7.067,4.433,20.0
71.139,-7.23,4.156,8.0
33.264,-3.386,2.881,53.0
33.251,-3.376,2.697,51.0
33.25,-3.368,2.513,48.0
33.234,-3.359,2.326,52.0
69.556,-7.014,4.488,18.0
69.075,-6.95,4.079,11.0
33.25,-3.35,2.9,53.0
33.25,-3.342,2.717,51.0
33.243,-3.333,2.534,49.0
33.23,-3.324,2.346,52.0
33.246,-3.317,2.165,30.0
69.181,-6.888,4.126,23.0
33.254,-3.315,2.921,53.0
33.246,-3.306,2.737,54.0
33.249,-3.298,2.553,54.0
33.216,-3.287,2.364,52.0
33.233,-3.28,2.183,39.0
69.066,-6.801,4.158,17.0
33.248,-3.278,2.939,53.0
33.232,-3.269,2.754,52.0
33.233,-3.26,2.57,52.0
33.221,-3.251,2.383,53.0
33.231,-3.243,2.201,45.0
71.664,-6.978,4.352,13.0
33.238,-3.241,2.955,53.0
33.228,-3.231,2.77,52.0
33.224,-3.222,2.586,53.0
33.205,-3.212,2.398,52.0
33.221,-3.205,2.216,49.0
70.226,-6.759,4.298,22.0
33.23,-3.202,2.971,53.0
33.218,-3.192,2.785,51.0
33.215,-3.183,2.601,52.0
33.202,-3.173,2.413,51.0
33.226,-3.167,2.232,49.0
69.745,-6.631,4.301,17.0
33.226,-3.163,2.985,52.0
33.212,-3.152,2.8,38.0
33.191,-3.141,2.614,28.0
33.192,-3.133,2.427,36.0
33.216,-3.126,2.245,45.0
69.819,-6.554,4.334,13.0
74.452,-6.997,6.721,18.0
0.0,0.0,0.0,0.0
73.762,-6.891,5.84,10.0
70.105,-6.531,5.154,24.0
70.438,-6.544,4.789,21.0
69.902,-6.477,4.366,20.0
74.746,-6.933,6.776,7.0
73.761,-6.821,6.277,34.0
71.041,-6.551,5.65,15.0
70.345,-6.467,5.197,15.0
70.813,-6.492,4.839,39.0
70.862,-6.476,4.451,14.0
76.931,-7.039,7.0,3.0
71.368,-6.51,6.096,7.0
71.129,-6.468,5.681,13.0
70.353,-6.379,5.22,30.0
70.622,-6.384,4.848,12.0
70.951,-6.396,4.477,12.0
73.441,-6.626,6.705,19.0
74.426,-6.694,6.379,12.0
70.97,-6.363,5.688,15.0
70.467,-6.298,5.248,25.0
70.4,-6.273,4.852,44.0
71.013,-6.308,4.5,18.0
73.564,-6.541,6.736,7.0
73.185,-6.487,6.292,19.0
74.328,-6.566,5.975,15.0
70.705,-6.227,5.283,10.0
70.639,-6.201,4.885,38.0
74.859,-6.552,4.761,8.0
73.69,-6.455,6.763,12.0
71.359,-6.23,6.15,9.0
71.338,-6.207,5.75,8.0
71.013,-6.159,5.32,13.0
70.072,-6.058,4.86,22.0
71.681,-6.178,4.572,17.0
73.601,-6.348,6.769,12.0
71.316,-6.13,6.159,14.0
71.008,-6.083,5.735,17.0
77.497,-6.616,5.819,4.0
70.205,-5.974,4.88,21.0
70.054,-5.942,4.479,22.0
72.193,-6.128,6.65,10.0
71.858,-6.078,6.216,17.0
70.398,-5.934,5.695,34.0
70.93,-5.958,5.334,11.0
74.763,-6.26,5.205,18.0
70.766,-5.905,4.532,12.0
71.726,-5.988,6.614,10.0
72.967,-6.07,6.318,8.0
73.218,-6.07,5.93,11.0
70.691,-5.84,5.321,22.0
70.888,-5.836,4.94,24.0
71.837,-5.894,4.605,7.0
71.709,-5.886,6.616,13.0
72.99,-5.969,6.324,14.0
73.249,-5.968,5.936,10.0
70.568,-5.729,5.316,7.0
74.731,-6.046,5.21,6.0
75.906,-6.12,4.867,12.0
70.857,-5.715,6.539,12.0
70.63,-5.675,6.12,11.0
73.272,-5.866,5.937,31.0
78.226,-6.239,5.892,8.0
70.554,-5.607,4.918,16.0
75.915,-6.011,4.867,5.0
70.89,-5.615,6.541,10.0
70.673,-5.576,6.122,16.0
73.323,-5.764,5.939,19.0
67.993,-5.325,5.118,26.0
67.991,-5.305,4.736,66.0
67.956,-5.283,4.353,82.0
68.008,-5.288,6.27,15.0
67.998,-5.266,5.886,79.0
67.989,-5.245,5.502,66.0
67.993,-5.225,5.112,25.0
70.974,-5.433,4.937,20.0
71.635,-5.463,4.581,27.0
70.794,-5.399,6.519,8.0
70.657,-5.367,6.107,8.0
73.106,-5.531,5.906,29.0
78.411,-5.909,5.885,9.0
71.537,-5.37,4.967,8.0
72.098,-5.391,4.601,36.0
70.869,-5.299,6.515,10.0
0.0,0.0,0.0,0.0
72.969,-5.413,5.883,42.0
74.613,-5.512,5.587,7.0
71.879,-5.289,4.977,15.0
75.251,-5.515,4.788,10.0
71.108,-5.21,6.523,18.0
72.227,-5.271,6.217,12.0
73.303,-5.328,5.895,20.0
74.233,-5.373,5.543,11.0
71.678,-5.167,4.948,18.0
75.774,-5.44,4.804,9.0
72.311,-5.19,6.617,9.0
72.119,-5.154,6.19,28.0
72.161,-5.135,5.785,22.0
0.0,0.0,0.0,0.0
71.898,-5.073,4.944,7.0
76.134,-5.351,4.806,13.0
73.095,-5.134,6.667,13.0
72.242,-5.053,6.18,22.0
72.375,-5.04,5.781,39.0
71.915,-4.987,5.33,18.0
75.976,-5.247,5.201,17.0
71.674,-4.928,4.502,7.0
73.245,-5.033,6.657,12.0
72.165,-4.936,6.15,28.0
72.405,-4.932,5.759,30.0
72.881,-4.943,5.376,13.0
71.823,-4.849,4.892,21.0
71.725,-4.822,4.48,19.0
64.278,-4.318,5.819,14.0
72.38,-4.84,6.14,22.0
73.691,-4.906,5.833,37.0
72.53,-4.808,5.322,28.0
71.636,-4.726,4.85,17.0
71.431,-4.693,4.433,30.0
64.191,-4.214,5.785,34.0
64.158,-4.192,5.416,30.0
70.972,-4.616,5.588,35.0
72.005,-4.661,5.253,23.0
71.586,-4.614,4.816,30.0
71.137,-4.564,4.383,27.0
64.109,-4.109,5.748,36.0
63.916,-4.077,5.366,39.0
70.934,-4.503,5.551,6.0
0.0,0.0,0.0,0.0
71.639,-4.507,4.785,25.0
71.029,-4.448,4.342,20.0
63.862,-3.994,5.694,31.0
63.545,-3.955,5.303,38.0
63.562,-3.937,4.942,23.0
58.937,-3.633,4.241,33.0
58.908,-3.613,3.904,27.0
58.936,-3.599,3.571,15.0
63.752,-3.888,5.65,39.0
63.466,-3.851,5.262,38.0
63.527,-3.836,4.904,38.0
58.675,-3.526,4.189,33.0
58.956,-3.526,3.874,32.0
71.34,-4.246,4.283,15.0
63.419,-3.768,5.583,39.0
63.305,-3.743,5.212,32.0
63.543,-3.737,4.868,34.0
58.71,-3.436,4.157,33.0
59.149,-3.446,3.851,27.0
71.435,-4.141,4.245,17.0
63.074,-3.65,5.513,39.0
63.016,-3.627,5.147,37.0
63.588,-3.641,4.831,29.0
58.75,-3.348,4.122,33.0
59.035,-3.347,3.805,32.0
58.709,-3.311,3.449,22.0
62.818,-3.536,5.449,36.0
62.983,-3.527,5.102,37.0
63.635,-3.545,4.791,38.0
58.843,-3.261,4.087,33.0
58.526,-3.226,3.732,32.0
58.705,-3.219,3.408,29.0
62.423,-3.415,5.369,32.0
58.543,-3.186,4.7,27.0
63.785,-3.453,4.755,38.0
63.403,-3.415,4.358,24.0
58.21,-3.118,3.668,36.0
58.664,-3.126,3.363,31.0
60.379,-3.21,5.148,13.0
0.0,0.0,0.0,0.0
57.09,-3.002,4.212,24.0
63.661,-3.33,4.327,25.0
58.228,-3.029,3.624,32.0
58.597,-3.032,3.312,32.0
60.206,-3.107,5.085,31.0
56.985,-2.924,4.486,16.0
57.128,-2.916,4.169,11.0
58.504,-2.97,3.929,32.0
58.629,-2.959,3.601,32.0
58.637,-2.943,3.266,32.0
60.217,-3.014,5.036,13.0
56.671,-2.821,4.413,30.0
56.935,-2.818,4.107,30.0
58.415,-2.875,3.873,33.0
58.363,-2.857,3.535,27.0
78.844,-3.838,4.324,18.0
44.163,-2.142,3.654,33.0
56.611,-2.731,4.359,30.0
56.854,-2.726,4.05,29.0
58.154,-2.773,3.803,32.0
58.506,-2.773,3.491,20.0
79.579,-3.751,4.293,23.0
44.071,-2.07,3.606,46.0
56.768,-2.651,4.317,27.0
46.044,-2.137,3.237,19.0
58.228,-2.687,3.753,32.0
58.254,-2.673,3.421,29.0
80.173,-3.657,4.249,15.0
44.089,-2.003,3.565,33.0
46.019,-2.079,3.455,5.0
59.523,-2.673,4.127,13.0
58.411,-2.607,3.708,16.0
67.306,-2.986,3.887,19.0
80.621,-3.557,4.194,28.0
44.158,-1.94,3.526,14.0
44.307,-1.935,3.283,37.0
44.327,-1.924,3.029,17.0
0.0,0.0,0.0,0.0
60.203,-2.581,3.416,26.0
80.856,-3.446,4.123,17.0
44.273,-1.878,3.49,28.0
44.368,-1.871,3.241,35.0
44.852,-1.879,3.018,22.0
58.101,-2.418,3.568,20.0
59.839,-2.476,3.332,33.0
80.975,-3.33,4.043,33.0
44.139,-1.807,3.431,42.0
44.353,-1.803,3.192,43.0
0.0,0.0,0.0,0.0
58.053,-2.33,3.503,22.0
59.941,-2.39,3.271,18.0
81.164,-3.217,3.963,44.0
44.194,-1.743,3.386,39.0
44.211,-1.732,3.132,39.0
44.44,-1.73,2.891,44.0
59.797,-2.312,3.54,33.0
66.302,-2.546,3.543,15.0
81.173,-3.097,3.87,36.0
44.235,-1.679,3.337,48.0
44.323,-1.67,3.087,41.0
0.0,0.0,0.0,0.0
59.905,-2.227,3.475,24.0
66.233,-2.446,3.46,32.0
94.311,-3.459,4.384,17.0
44.187,-1.611,3.28,50.0
44.359,-1.606,3.036,36.0
46.263,-1.664,2.899,32.0
66.164,-2.364,3.758,34.0
66.345,-2.354,3.386,9.0
94.257,-3.322,4.267,24.0
44.211,-1.548,3.227,51.0
0.0,0.0,0.0,0.0
59.713,-2.062,3.668,8.0
66.17,-2.268,3.675,36.0
81.194,-2.763,4.041,22.0
94.404,-3.19,4.154,21.0
44.27,-1.486,3.175,26.0
45.994,-1.533,3.032,47.0
56.958,-1.885,3.425,22.0
71.705,-2.356,3.89,20.0
94.363,-3.077,4.574,13.0
101.133,-3.274,4.318,12.0
0.0,0.0,0.0,0.0
56.862,-1.814,3.673,15.0
57.074,-1.807,3.356,20.0
80.197,-2.52,4.243,11.0
81.298,-2.536,3.833,36.0
101.1,-3.13,4.182,16.0
45.795,-1.408,3.161,44.0
56.797,-1.733,3.592,29.0
65.665,-1.988,3.772,16.0
80.381,-2.414,4.144,21.0
81.261,-2.421,3.72,36.0
101.526,-3.002,4.06,10.0
46.658,-1.369,3.156,33.0
56.759,-1.652,3.51,30.0
65.996,-1.906,3.699,22.0
81.374,-2.332,4.081,13.0
94.844,-2.697,4.208,17.0
116.717,-3.293,4.505,8.0
46.202,-1.293,3.06,14.0
57.365,-1.592,3.466,4.0
85.426,-2.352,4.667,6.0
81.082,-2.214,3.951,30.0
94.611,-2.562,4.062,6.0
106.238,-2.853,3.946,9.0
57.092,-1.52,3.698,32.0
65.881,-1.739,3.884,4.0
80.908,-2.118,4.3,11.0
81.475,-2.115,3.849,11.0
101.797,-2.621,4.221,9.0
106.501,-2.718,3.798,10.0
51.656,-1.307,3.268,22.0
73.802,-1.85,4.24,11.0
74.239,-1.845,3.834,22.0
81.23,-2.001,3.716,11.0
96.612,-2.359,3.859,17.0
113.248,-2.741,3.867,18.0
51.623,-1.237,3.186,37.0
73.737,-1.752,4.123,30.0
74.419,-1.752,3.728,20.0
96.255,-2.246,4.253,15.0
96.637,-2.235,3.711,10.0
112.476,-2.577,3.667,24.0
51.792,-1.175,3.116,39.0
74.162,-1.667,4.031,37.0
80.854,-1.801,3.925,12.0
106.416,-2.349,4.537,14.0
113.347,-2.478,4.175,18.0
112.656,-2.44,3.497,27.0
61.22,-1.312,3.586,24.0
74.419,-1.579,3.926,19.0
81.567,-1.715,3.829,20.0
96.641,-2.012,3.965,13.0
112.579,-2.321,3.966,15.0
113.097,-2.309,3.329,20.0
73.556,-1.485,4.189,15.0
82.001,-1.638,4.192,19.0
95.543,-1.89,4.329,12.0
96.701,-1.894,3.81,11.0
112.611,-2.183,3.782,25.0
112.642,-2.162,3.13,24.0
73.466,-1.393,4.062,15.0
81.28,-1.526,4.021,13.0
96.05,-1.784,4.192,7.0
112.671,-2.071,4.251,12.0
112.894,-2.054,3.604,9.0
112.66,-2.029,2.943,19.0
81.673,-1.453,4.38,21.0
85.367,-1.502,4.08,9.0
95.658,-1.665,4.015,12.0
112.799,-1.942,4.066,13.0
113.027,-1.925,3.419,6.0
206.733,-3.485,5.053,4.0
81.824,-1.36,4.247,19.0
81.52,-1.341,3.758,13.0
106.461,-1.731,4.287,13.0
112.696,-1.812,3.871,4.0
112.672,-1.792,3.216,17.0
206.026,-3.239,4.683,13.0
0.0,0.0,0.0,0.0
96.374,-1.476,4.274,16.0
106.517,-1.612,4.104,11.0
0.0,0.0,0.0,0.0
113.283,-1.673,3.033,4.0
0.0,0.0,0.0,0.0
81.105,-1.167,3.927,19.0
106.525,-1.514,4.537,10.0
106.627,-1.497,3.92,6.0
209.658,-2.908,6.467,6.0
206.415,-2.829,5.168,5.0
0.0,0.0,0.0,0.0
94.98,-1.264,4.429,15.0
189.822,-2.495,7.745,26.0
190.519,-2.473,6.665,10.0
209.23,-2.68,6.079,10.0
210.561,-2.661,4.89,6.0
204.25,-2.548,3.558,15.0
112.118,-1.374,5.024,14.0
106.627,-1.29,4.156,8.0
211.094,-2.519,6.998,7.0
209.355,-2.465,5.702,6.0
210.441,-2.444,4.506,8.0
119.718,-1.371,1.866,9.0
189.804,-2.135,8.159,27.0
190.554,-2.112,7.078,33.0
0.0,0.0,0.0,0.0
119.7,-1.288,3.037,67.0
119.762,-1.27,2.34,151.0
119.752,-1.25,1.642,150.0
189.777,-1.943,7.798,89.0
190.555,-1.922,6.718,14.0
119.706,-1.188,3.521,50.0
119.725,-1.17,2.813,150.0
119.736,-1.153,2.115,127.0
119.713,-1.135,1.419,41.0
190.53,-1.77,7.474,30.0
214.754,-1.962,7.169,11.0
119.714,-1.076,3.298,99.0
119.734,-1.058,2.587,92.0
119.757,-1.04,1.89,84.0
119.658,-1.022,1.19,19.0
190.55,-1.592,7.106,36.0
205.484,-1.687,6.466,8.0
119.75,-0.966,3.069,44.0
119.742,-0.949,2.359,16.0
119.732,-0.932,1.661,16.0
119.69,-0.914,0.962,11.0
190.564,-1.421,6.74,14.0
0.0,0.0,0.0,0.0
119.791,-0.859,2.837,33.0
119.769,-0.843,2.126,26.0
119.712,-0.826,1.427,17.0
111.006,-0.751,0.676,6.0
215.441,-1.421,7.202,8.0
119.781,-0.773,3.303,14.0
194.417,-1.23,4.229,19.0
119.797,-0.741,1.893,27.0
119.689,-0.725,1.192,16.0
0.0,0.0,0.0,0.0
206.497,-1.188,6.491,9.0
119.797,-0.674,3.067,44.0
119.826,-0.658,2.367,41.0
119.733,-0.643,1.655,1.0
119.693,-0.628,0.957,7.0
95.27,-0.487,0.205,1.0
205.926,-1.022,6.068,7.0
119.796,-0.58,2.831,38.0
119.871,-0.564,2.131,13.0
119.721,-0.549,1.417,17.0
111.052,-0.496,0.667,6.0
0.0,0.0,0.0,0.0
119.775,-0.502,3.289,16.0
194.025,-0.792,4.197,21.0
113.784,-0.451,1.796,2.0
119.742,-0.46,1.178,17.0
102.871,-0.383,0.411,3.0
0.0,0.0,0.0,0.0
119.847,-0.416,3.05,41.0
119.825,-0.402,2.349,16.0
119.612,-0.388,1.648,4.0
114.456,-0.358,0.894,127.0
0.0,0.0,0.0,0.0
0.0,0.0,0.0,0.0
193.767,-0.537,4.537,16.0
113.067,-0.301,1.985,2.0
119.747,-0.306,1.403,17.0
110.483,-0.27,0.638,6.0
0.0,0.0,0.0,0.0
0.0,0.0,0.0,0.0
114.282,-0.241,2.441,8.0
112.465,-0.225,1.744,11.0
117.448,-0.223,1.135,11.0
99.58,-0.179,0.371,1.0
0.0,0.0,0.0,0.0
45.376,-0.072,-0.36,1.0
112.806,-0.167,2.177,6.0
117.396,-0.163,1.58,14.0
111.097,-0.144,0.847,13.0
0.0,0.0,0.0,0.0
0.0,0.0,0.0,0.0
44.765,-0.045,-0.447,0.0
117.331,-0.106,2.025,19.0
117.332,-0.095,1.34,13.0
110.447,-0.079,0.615,2.0
0.0,0.0,0.0,0.0
51.039,-0.027,-0.317,0.0
0.0,0.0,0.0,0.0
117.288,-0.041,1.78,15.0
117.205,-0.03,1.092,4.0
95.726,-0.017,0.333,3.0
0.0,0.0,0.0,0.0
45.603,0.0,-0.379,2.0
37.155,0.002,-0.525,0.0
111.125,0.017,1.455,20.0
110.755,0.027,0.801,9.0
0.0,0.0,0.0,0.0
0.0,0.0,0.0,0.0
42.725,0.02,-0.444,0.0
33.857,0.019,-0.55,0.0
111.174,0.071,1.221,18.0
103.586,0.074,0.533,3.0
0.0,0.0,0.0,0.0
49.975,0.043,-0.333,0.0
37.952,0.035,-0.474,0.0
0.0,0.0,0.0,0.0
111.004,0.12,0.986,8.0
0.0,0.0,0.0,0.0
0.0,0.0,0.0,0.0
45.306,0.058,-0.396,2.0
0.0,0.0,0.0,0.0
29.91,0.042,-0.611,0.0
110.634,0.164,0.75,4.0
0.0,0.0,0.0,0.0
0.0,0.0,0.0,0.0
42.861,0.072,-0.466,0.0
0.0,0.0,0.0,0.0
27.53,0.05,-0.622,0.0
0.0,0.0,0.0,0.0
0.0,0.0,0.0,0.0
49.728,0.098,-0.35,0.0
37.988,0.077,-0.494,0.0
0.0,0.0,0.0,0.0
26.329,0.056,-0.65,0.0
90.163,0.197,0.228,1.0
0.0,0.0,0.0,0.0
42.925,0.098,-0.393,1.0
34.29,0.08,-0.518,0.0
29.001,0.07,-0.608,0.0
24.877,0.061,-0.667,0.0
0.0,0.0,0.0,0.0
0.0,0.0,0.0,0.0
0.0,0.0,0.0,0.0
0.0,0.0,0.0,0.0
0.0,0.0,0.0,0.0
23.869,0.065,-0.69,0.0
0.0,0.0,0.0,0.0
45.964,0.128,-0.347,0.0
0.0,0.0,0.0,0.0
30.519,0.087,-0.59,0.0
26.237,0.076,-0.66,0.0
22.437,0.066,-0.696,0.0
0.0,0.0,0.0,0.0
42.785,0.128,-0.412,1.0
34.96,0.106,-0.541,0.0
0.0,0.0,0.0,0.0
24.312,0.075,-0.663,0.0
21.472,0.067,-0.712,0.0
50.081,0.157,-0.296,0.0
0.0,0.0,0.0,0.0
32.366,0.103,-0.57,0.0
26.839,0.086,-0.633,0.0
23.484,0.076,-0.691,0.0
20.499,0.067,-0.723,0.0
45.937,0.15,-0.369,0.0
0.0,0.0,0.0,0.0
29.809,0.099,-0.588,0.0
25.652,0.086,-0.659,0.0
22.282,0.075,-0.703,0.0
19.741,0.067,-0.739,0.0
42.877,0.145,-0.435,0.0
33.465,0.114,-0.536,0.0
0.0,0.0,0.0,0.0
24.082,0.083,-0.669,0.0
21.267,0.073,-0.716,0.0
18.965,0.066,-0.749,0.0
0.0,0.0,0.0,0.0
0.0,0.0,0.0,0.0
26.416,0.092,-0.633,0.0
22.948,0.08,-0.687,0.0
20.27,0.071,-0.725,0.0
18.283,0.064,-0.761,0.0
0.0,0.0,0.0,0.0
29.399,0.102,-0.594,0.0
0.0,0.0,0.0,0.0
21.934,0.077,-0.703,0.0
19.551,0.069,-0.741,0.0
17.669,0.062,-0.773,0.0
32.993,0.114,-0.544,0.0
27.861,0.096,-0.622,0.0
23.888,0.083,-0.673,0.0
21.002,0.073,-0.717,0.0
18.8,0.065,-0.752,0.0
16.974,0.059,-0.778,0.0
30.605,0.104,-0.568,0.0
26.33,0.09,-0.642,0.0
22.499,0.077,-0.681,0.0
20.018,0.068,-0.725,0.0
18.119,0.062,-0.762,0.0
16.564,0.056,-0.794,0.0
29.145,0.097,-0.602,0.0
25.019,0.083,-0.662,0.0
21.733,0.072,-0.703,0.0
19.331,0.064,-0.74,0.0
17.573,0.058,-0.776,0.0
16.019,0.053,-0.801,0.0
0.0,0.0,0.0,0.0
23.863,0.076,-0.682,0.0
20.901,0.067,-0.719,0.0
18.666,0.059,-0.753,0.0
16.896,0.054,-0.781,0.0
15.418,0.049,-0.803,0.0
26.172,0.08,-0.649,0.0
22.381,0.068,-0.685,0.0
19.896,0.06,-0.725,0.0
17.989,0.054,-0.763,0.0
16.389,0.049,-0.791,0.0
15.021,0.045,-0.814,0.0
24.565,0.07,-0.659,0.0
21.539,0.061,-0.704,0.0
19.193,0.054,-0.74,0.0
17.368,0.049,-0.773,0.0
15.848,0.044,-0.798,0.0
14.594,0.04,-0.821,0.0
23.565,0.062,-0.681,0.0
20.567,0.053,-0.714,0.0
18.562,0.048,-0.754,0.0
16.825,0.043,-0.783,0.0
15.394,0.039,-0.807,0.0
14.197,0.035,-0.827,0.0
22.43,0.053,-0.694,0.0
19.814,0.046,-0.729,0.0
17.939,0.041,-0.765,0.0
16.301,0.037,-0.792,0.0
14.921,0.033,-0.812,0.0
13.745,0.03,-0.829,0.0
21.442,0.044,-0.707,0.0
19.111,0.038,-0.742,0.0
17.429,0.035,-0.778,0.0
15.818,0.031,-0.8,0.0
14.466,0.028,-0.817,0.0
13.457,0.025,-0.839,0.0
20.383,0.035,-0.713,0.0
18.462,0.031,-0.753,0.0
16.725,0.027,-0.78,0.0
15.282,0.024,-0.804,0.0
14.148,0.022,-0.827,0.0
13.071,0.02,-0.841,0.0
19.713,0.026,-0.729,0.0
17.872,0.023,-0.765,0.0
16.354,0.02,-0.796,0.0
14.821,0.018,-0.809,0.0
13.744,0.016,-0.831,0.0
12.79,0.014,-0.848,0.0
18.993,0.018,-0.739,0.0
17.371,0.015,-0.778,0.0
15.787,0.013,-0.799,0.0
14.441,0.011,-0.817,0.0
13.467,0.01,-0.841,0.0
12.404,0.008,-0.847,0.0
18.411,0.009,-0.752,0.0
16.751,0.007,-0.782,0.0
15.283,0.006,-0.803,0.0
14.079,0.004,-0.824,0.0
13.119,0.003,-0.845,0.0
12.063,0.002,-0.847,0.0
17.766,0.0,-0.761,0.0
16.341,0.0,-0.795,0.0
14.86,-0.001,-0.81,0.0
13.761,-0.002,-0.832,0.0
12.743,-0.002,-0.845,0.0
11.741,-0.003,-0.847,0.0
17.309,-0.008,-0.774,0.0
15.733,-0.008,-0.796,0.0
14.482,-0.008,-0.817,0.0
13.461,-0.009,-0.839,0.0
12.413,-0.009,-0.847,0.0
11.49,-0.009,-0.851,0.0
16.809,-0.017,-0.784,0.0
15.226,-0.016,-0.799,0.0
14.181,-0.016,-0.827,0.0
13.106,-0.016,-0.842,0.0
12.07,-0.015,-0.846,0.0
11.303,-0.015,-0.859,0.0
16.296,-0.026,-0.79,0.0
14.909,-0.024,-0.81,0.0
13.737,-0.024,-0.826,0.0
12.678,-0.023,-0.838,0.0
11.752,-0.022,-0.846,0.0
11.098,-0.022,-0.863,0.0
15.862,-0.034,-0.798,0.0
14.511,-0.033,-0.815,0.0
13.467,-0.031,-0.835,0.0
12.385,-0.03,-0.841,0.0
11.565,-0.029,-0.853,0.0
10.874,-0.028,-0.866,0.0
15.372,-0.043,-0.801,0.0
14.244,-0.041,-0.826,0.0
13.235,-0.039,-0.844,0.0
12.112,-0.037,-0.845,0.0
11.321,-0.036,-0.856,0.0
10.675,-0.035,-0.87,0.0
14.954,-0.052,-0.807,0.0
13.866,-0.05,-0.829,0.0
12.819,-0.047,-0.841,0.0
11.8,-0.044,-0.844,0.0
11.144,-0.043,-0.863,0.0
10.501,-0.041,-0.875,0.0
14.625,-0.062,-0.815,0.0
13.595,-0.058,-0.837,0.0
12.542,-0.055,-0.845,0.0
11.596,-0.052,-0.85,0.0
10.9,-0.05,-0.863,0.0
10.372,-0.049,-0.882,0.0
14.32,-0.071,-0.823,0.0
13.22,-0.067,-0.837,0.0
12.242,-0.063,-0.846,0.0
11.395,-0.06,-0.855,0.0
10.74,-0.057,-0.869,0.0
10.219,-0.056,-0.887,0.0
13.946,-0.08,-0.825,0.0
12.931,-0.075,-0.841,0.0
11.939,-0.071,-0.846,0.0
11.163,-0.067,-0.857,0.0
10.566,-0.065,-0.873,0.0
10.062,-0.063,-0.89,0.0
13.68,-0.089,-0.832,0.0
12.569,-0.083,-0.838,0.0
11.662,-0.078,-0.846,0.0
10.982,-0.075,-0.862,0.0
10.394,-0.072,-0.876,0.0
9.914,-0.07,-0.894,0.0
13.386,-0.098,-0.837,0.0
12.361,-0.092,-0.845,0.0
11.471,-0.086,-0.851,0.0
10.836,-0.083,-0.868,0.0
10.262,-0.08,-0.882,0.0
9.744,-0.077,-0.895,0.0
13.093,-0.107,-0.84,0.0
12.044,-0.1,-0.843,0.0
11.285,-0.095,-0.855,0.0
10.65,-0.091,-0.87,0.0
10.127,-0.087,-0.887,0.0
9.642,-0.084,-0.901,0.0
12.81,-0.116,-0.842,0.0
11.793,-0.108,-0.844,0.0
11.115,-0.103,-0.86,0.0
10.449,-0.098,-0.871,0.0
10.007,-0.095,-0.892,0.0
9.515,-0.092,-0.904,0.0
12.49,-0.124,-0.841,0.0
11.584,-0.117,-0.847,0.0
10.963,-0.112,-0.865,0.0
10.356,-0.107,-0.879,0.0
9.833,-0.103,-0.892,0.0
9.357,-0.099,-0.904,0.0
12.252,-0.133,-0.843,0.0
11.428,-0.126,-0.853,0.0
10.778,-0.12,-0.867,0.0
10.219,-0.115,-0.883,0.0
9.75,-0.111,-0.899,0.0
9.233,-0.107,-0.906,0.0
12.011,-0.142,-0.845,0.0
11.22,-0.134,-0.854,0.0
10.632,-0.129,-0.871,0.0
10.112,-0.124,-0.889,0.0
9.611,-0.119,-0.901,0.0
9.131,-0.114,-0.909,0.0
11.765,-0.151,-0.845,0.0
11.101,-0.144,-0.861,0.0
10.5,-0.137,-0.876,0.0
9.935,-0.131,-0.888,0.0
9.506,-0.127,-0.905,0.0
9.048,-0.122,-0.914,0.0
11.556,-0.159,-0.846,0.0
10.967,-0.153,-0.867,0.0
10.361,-0.146,-0.879,0.0
9.82,-0.14,-0.891,0.0
9.361,-0.135,-0.904,0.0
8.902,-0.129,-0.912,0.0
11.417,-0.169,-0.852,0.0
10.821,-0.162,-0.87,0.0
10.243,-0.155,-0.883,0.0
9.722,-0.148,-0.896,0.0
9.247,-0.143,-0.906,0.0
8.811,-0.137,-0.915,0.0
11.262,-0.179,-0.856,0.0
10.652,-0.171,-0.871,0.0
10.1,-0.163,-0.884,0.0
9.609,-0.157,-0.898,0.0
9.131,-0.151,-0.907,0.0
8.717,-0.145,-0.917,0.0
11.122,-0.188,-0.859,0.0
10.534,-0.18,-0.875,0.0
9.983,-0.172,-0.887,0.0
9.495,-0.165,-0.9,0.0
9.036,-0.159,-0.909,0.0
8.648,-0.153,-0.92,0.0
10.997,-0.198,-0.864,0.0
10.381,-0.188,-0.875,0.0
9.871,-0.181,-0.89,0.0
9.423,-0.174,-0.905,0.0
8.922,-0.166,-0.909,0.0
8.558,-0.161,-0.922,0.0
10.895,-0.208,-0.869,0.0
10.276,-0.198,-0.879,0.0
9.787,-0.19,-0.894,0.0
9.302,-0.182,-0.905,0.0
8.874,-0.175,-0.915,0.0
8.512,-0.17,-0.927,0.0
10.764,-0.218,-0.872,0.0
10.179,-0.207,-0.883,0.0
9.7,-0.199,-0.898,0.0
9.199,-0.191,-0.906,0.0
8.895,-0.186,-0.928,0.0
8.393,-0.177,-0.924,0.0
10.584,-0.226,-0.87,0.0
10.082,-0.217,-0.886,0.0
9.623,-0.209,-0.902,0.0
9.093,-0.199,-0.906,0.0
8.692,-0.192,-0.916,0.0
8.336,-0.186,-0.927,0.0
10.474,-0.236,-0.872,0.0
9.966,-0.226,-0.888,0.0
9.446,-0.216,-0.896,0.0
9.06,-0.209,-0.913,0.0
8.621,-0.2,-0.918,0.0
8.263,-0.194,-0.928,0.0
10.383,-0.246,-0.876,0.0
9.885,-0.236,-0.891,0.0
9.376,-0.225,-0.899,0.0
9.031,-0.219,-0.919,0.0
8.553,-0.209,-0.92,0.0
8.134,-0.2,-0.922,0.0
10.308,-0.256,-0.88,0.0
9.804,-0.245,-0.894,0.0
9.322,-0.235,-0.904,0.0
8.843,-0.225,-0.909,0.0
8.45,-0.216,-0.918,0.0
8.075,-0.208,-0.924,0.0
10.225,-0.266,-0.883,0.0
9.712,-0.255,-0.895,0.0
9.245,-0.244,-0.905,0.0
8.792,-0.234,-0.913,0.0
8.42,-0.226,-0.923,0.0
8.053,-0.218,-0.929,0.0
10.137,-0.276,-0.886,0.0
9.682,-0.266,-0.901,0.0
9.176,-0.254,-0.907,0.0
0.0,0.0,0.0,0.0
8.355,-0.234,-0.924,0.0
8.014,-0.226,-0.932,0.0
10.031,-0.286,-0.885,0.0
9.583,-0.275,-0.901,0.0
9.113,-0.263,-0.909,0.0
8.683,-0.252,-0.917,0.0
8.342,-0.244,-0.93,0.0
7.96,-0.235,-0.933,0.0
9.937,-0.295,-0.886,0.0
9.503,-0.284,-0.902,0.0
8.972,-0.27,-0.903,0.0
8.645,-0.262,-0.921,0.0
8.254,-0.252,-0.927,0.0
7.912,-0.243,-0.934,0.0
9.89,-0.306,-0.89,0.0
9.382,-0.292,-0.898,0.0
8.94,-0.28,-0.907,0.0
0.0,0.0,0.0,0.0
8.179,-0.26,-0.925,0.0
7.882,-0.252,-0.937,0.0
9.811,-0.316,-0.89,0.0
9.374,-0.304,-0.905,0.0
8.899,-0.29,-0.91,0.0
8.537,-0.28,-0.923,0.0
8.16,-0.27,-0.929,0.0
7.818,-0.26,-0.935,0.0
9.734,-0.326,-0.891,0.0
9.276,-0.312,-0.902,0.0
8.82,-0.299,-0.908,0.0
8.487,-0.289,-0.924,0.0
8.095,-0.278,-0.928,0.0
7.783,-0.269,-0.937,0.0
9.724,-0.338,-0.897,0.0
9.233,-0.323,-0.904,0.0
8.836,-0.311,-0.916,0.0
8.402,-0.297,-0.92,0.0
8.07,-0.287,-0.93,0.0
7.737,-0.277,-0.936,0.0
9.625,-0.346,-0.894,0.0
9.179,-0.332,-0.905,0.0
8.826,-0.322,-0.921,0.0
8.376,-0.307,-0.923,0.0
8.048,-0.297,-0.933,0.0
7.644,-0.284,-0.93,0.0
9.612,-0.358,-0.898,0.0
9.138,-0.342,-0.906,0.0
8.779,-0.331,-0.921,0.0
8.34,-0.316,-0.924,0.0
8.026,-0.306,-0.935,0.0
7.66,-0.294,-0.936,0.0
9.577,-0.369,-0.901,0.0
9.08,-0.352,-0.906,0.0
8.75,-0.341,-0.923,0.0
8.312,-0.326,-0.925,0.0
7.95,-0.313,-0.93,0.0
7.647,-0.303,-0.939,0.0
9.548,-0.38,-0.903,0.0
9.047,-0.362,-0.907,0.0
8.637,-0.348,-0.915,0.0
8.309,-0.336,-0.929,0.0
7.979,-0.325,-0.938,0.0
7.608,-0.311,-0.938,0.0
9.498,-0.39,-0.903,0.0
9.048,-0.374,-0.911,0.0
8.707,-0.362,-0.927,0.0
8.239,-0.344,-0.925,0.0
7.899,-0.332,-0.932,0.0
7.577,-0.32,-0.937,0.0
9.444,-0.4,-0.901,0.0
9.03,-0.385,-0.913,0.0
8.541,-0.366,-0.913,0.0
8.221,-0.354,-0.926,0.0
7.954,-0.344,-0.942,0.0
7.552,-0.329,-0.937,0.0
9.361,-0.408,-0.897,0.0
9.007,-0.395,-0.914,0.0
8.594,-0.379,-0.921,0.0
8.22,-0.364,-0.929,0.0
7.886,-0.351,-0.936,0.0
7.541,-0.338,-0.938,0.0
9.36,-0.42,-0.9,0.0
8.991,-0.406,-0.916,0.0
8.518,-0.386,-0.916,0.0
8.16,-0.372,-0.925,0.0
7.863,-0.36,-0.936,0.0
7.515,-0.346,-0.938,0.0
9.352,-0.432,-0.902,0.0
8.94,-0.415,-0.913,0.0
8.613,-0.402,-0.929,0.0
8.162,-0.382,-0.927,0.0
7.862,-0.37,-0.938,0.0
7.509,-0.355,-0.939,0.0
9.377,-0.445,-0.907,0.0
8.883,-0.423,-0.909,0.0
8.524,-0.408,-0.921,0.0
8.148,-0.392,-0.927,0.0
7.828,-0.379,-0.935,0.0
7.526,-0.366,-0.942,0.0
9.306,-0.453,-0.902,0.0
8.913,-0.436,-0.914,0.0
8.482,-0.417,-0.918,0.0
8.1,-0.4,-0.923,0.0
7.848,-0.389,-0.939,0.0
7.493,-0.374,-0.94,0.0
9.298,-0.464,-0.903,0.0
8.852,-0.444,-0.909,0.0
8.501,-0.428,-0.921,0.0
8.105,-0.41,-0.925,0.0
0.0,0.0,0.0,0.0
7.531,-0.385,-0.945,0.0
9.289,-0.475,-0.903,0.0
8.942,-0.46,-0.919,0.0
8.492,-0.438,-0.921,0.0
8.119,-0.421,-0.927,0.0
0.0,0.0,0.0,0.0
7.484,-0.392,-0.94,0.0
9.316,-0.488,-0.906,0.0
8.963,-0.472,-0.922,0.0
8.46,-0.447,-0.918,0.0
8.128,-0.432,-0.929,0.0
7.804,-0.416,-0.936,0.0
7.482,-0.401,-0.94,0.0
9.341,-0.501,-0.909,0.0
8.87,-0.478,-0.913,0.0
8.506,-0.46,-0.923,0.0
8.168,-0.444,-0.933,0.0
7.818,-0.427,-0.938,0.0
7.482,-0.41,-0.94,0.0
9.305,-0.51,-0.905,0.0
8.979,-0.494,-0.924,0.0
8.439,-0.467,-0.916,0.0
8.088,-0.449,-0.924,0.0
7.757,-0.433,-0.93,0.0
7.479,-0.419,-0.939,0.0
9.298,-0.521,-0.904,0.0
8.88,-0.5,-0.913,0.0
8.487,-0.479,-0.92,0.0
8.128,-0.461,-0.928,0.0
7.834,-0.446,-0.938,0.0
7.491,-0.429,-0.94,0.0
9.346,-0.535,-0.907,0.0
8.923,-0.513,-0.916,0.0
8.478,-0.489,-0.918,0.0
8.107,-0.47,-0.924,0.0
7.879,-0.458,-0.943,0.0
7.496,-0.438,-0.939,0.0
9.358,-0.546,-0.907,0.0
8.903,-0.522,-0.913,0.0
8.458,-0.498,-0.914,0.0
8.185,-0.484,-0.932,0.0
7.784,-0.462,-0.93,0.0
7.542,-0.449,-0.943,0.0
9.367,-0.558,-0.906,0.0
8.923,-0.533,-0.913,0.0
8.517,-0.511,-0.919,0.0
8.152,-0.491,-0.926,0.0
7.825,-0.473,-0.933,0.0
7.569,-0.46,-0.945,0.0
9.38,-0.569,-0.905,0.0
8.938,-0.544,-0.912,0.0
8.582,-0.525,-0.924,0.0
8.189,-0.503,-0.928,0.0
7.836,-0.483,-0.932,0.0
7.583,-0.469,-0.945,0.0
9.41,-0.582,-0.905,0.0
8.995,-0.558,-0.915,0.0
8.555,-0.533,-0.918,0.0
8.149,-0.509,-0.921,0.0
7.836,-0.492,-0.93,0.0
7.583,-0.478,-0.942,0.0
9.439,-0.594,-0.905,0.0
8.997,-0.568,-0.913,0.0
8.539,-0.541,-0.914,0.0
8.254,-0.525,-0.93,0.0
7.842,-0.501,-0.927,0.0
7.591,-0.486,-0.94,0.0
9.446,-0.605,-0.902,0.0
9.012,-0.579,-0.911,0.0
8.659,-0.558,-0.923,0.0
8.241,-0.533,-0.925,0.0
7.932,-0.515,-0.935,0.0
7.622,-0.497,-0.941,0.0
9.501,-0.618,-0.904,0.0
9.063,-0.592,-0.912,0.0
8.667,-0.568,-0.92,0.0
8.26,-0.543,-0.924,0.0
7.972,-0.526,-0.936,0.0
7.603,-0.503,-0.935,0.0
9.565,-0.632,-0.905,0.0
9.081,-0.602,-0.91,0.0
8.732,-0.581,-0.923,0.0
8.305,-0.555,-0.925,0.0
8.0,-0.536,-0.935,0.0
7.648,-0.514,-0.937,0.0
9.579,-0.643,-0.902,0.0
9.123,-0.614,-0.909,0.0
8.709,-0.588,-0.916,0.0
8.341,-0.565,-0.925,0.0
8.007,-0.545,-0.932,0.0
7.673,-0.523,-0.936,0.0
9.603,-0.654,-0.899,0.0
9.191,-0.628,-0.911,0.0
8.75,-0.6,-0.916,0.0
8.294,-0.57,-0.915,0.0
8.031,-0.554,-0.93,0.0
7.713,-0.534,-0.937,0.0
9.638,-0.666,-0.897,0.0
9.265,-0.642,-0.913,0.0
8.865,-0.616,-0.923,0.0
0.0,0.0,0.0,0.0
8.094,-0.566,-0.933,0.0
7.791,-0.547,-0.941,0.0
9.693,-0.679,-0.896,0.0
9.288,-0.653,-0.91,0.0
8.881,-0.626,-0.919,0.0
0.0,0.0,0.0,0.0
8.134,-0.577,-0.932,0.0
7.781,-0.553,-0.935,0.0
9.735,-0.691,-0.894,0.0
9.343,-0.665,-0.909,0.0
8.892,-0.635,-0.914,0.0
0.0,0.0,0.0,0.0
8.207,-0.589,-0.935,0.0
7.806,-0.562,-0.932,0.0
9.789,-0.704,-0.892,0.0
9.381,-0.676,-0.906,0.0
8.986,-0.65,-0.917,0.0
0.0,0.0,0.0,0.0
8.232,-0.598,-0.932,0.0
7.908,-0.577,-0.939,0.0
9.9,-0.72,-0.895,0.0
9.422,-0.687,-0.903,0.0
9.004,-0.659,-0.913,0.0
0.0,0.0,0.0,0.0
8.282,-0.609,-0.931,0.0
7.949,-0.586,-0.938,0.0
9.957,-0.733,-0.892,0.0
9.477,-0.699,-0.901,0.0
9.0,-0.666,-0.905,0.0
8.686,-0.644,-0.922,0.0
8.286,-0.616,-0.925,0.0
7.949,-0.593,-0.931,0.0
10.026,-0.746,-0.891,0.0
9.583,-0.715,-0.904,0.0
9.163,-0.685,-0.914,0.0
8.769,-0.658,-0.924,0.0
8.325,-0.626,-0.922,0.0
8.021,-0.605,-0.933,0.0
10.145,-0.763,-0.893,0.0
9.691,-0.731,-0.906,0.0
9.221,-0.697,-0.912,0.0
8.757,-0.663,-0.915,0.0
0.0,0.0,0.0,0.0
8.064,-0.614,-0.931,0.0
10.214,-0.776,-0.89,0.0
9.729,-0.741,-0.901,0.0
9.252,-0.706,-0.907,0.0
8.84,-0.676,-0.916,0.0
0.0,0.0,0.0,0.0
8.139,-0.626,-0.932,0.0
10.298,-0.79,-0.888,0.0
9.804,-0.754,-0.899,0.0
9.32,-0.718,-0.905,0.0
8.885,-0.686,-0.912,0.0
8.611,-0.666,-0.931,0.0
8.216,-0.637,-0.933,0.0
10.378,-0.803,-0.885,0.0
9.873,-0.766,-0.896,0.0
9.381,-0.729,-0.902,0.0
9.036,-0.704,-0.919,0.0
8.689,-0.678,-0.931,0.0
8.256,-0.646,-0.93,0.0
10.481,-0.818,-0.884,0.0
9.949,-0.778,-0.893,0.0
9.546,-0.748,-0.909,0.0
9.036,-0.71,-0.91,0.0
8.72,-0.686,-0.926,0.0
8.309,-0.655,-0.927,0.0
10.603,-0.834,-0.884,0.0
10.069,-0.794,-0.894,0.0
9.634,-0.761,-0.907,0.0
9.141,-0.723,-0.911,0.0
8.729,-0.692,-0.918,0.0
8.371,-0.665,-0.926,0.0
10.717,-0.85,-0.882,0.0
10.168,-0.808,-0.892,0.0
9.683,-0.77,-0.902,0.0
9.259,-0.738,-0.913,0.0
8.791,-0.702,-0.915,0.0
8.445,-0.676,-0.925,0.0
10.863,-0.867,-0.883,0.0
10.268,-0.821,-0.89,0.0
9.761,-0.782,-0.898,0.0
9.327,-0.748,-0.91,0.0
8.918,-0.717,-0.918,0.0
8.538,-0.688,-0.925,0.0
10.959,-0.881,-0.879,0.0
10.376,-0.835,-0.888,0.0
9.853,-0.794,-0.896,0.0
9.456,-0.763,-0.912,0.0
8.998,-0.728,-0.917,0.0
8.619,-0.698,-0.925,0.0
11.068,-0.895,-0.875,0.0
10.493,-0.849,-0.886,0.0
9.949,-0.807,-0.893,0.0
9.527,-0.774,-0.908,0.0
9.104,-0.741,-0.917,0.0
8.66,-0.706,-0.919,0.0
11.214,-0.911,-0.874,0.0
10.621,-0.865,-0.884,0.0
