X,Y,Z,Reflectivity
14.531,-1.618,-0.64,14.0
13.884,-1.546,-0.686,1.0
12.759,-1.422,-0.699,1.0
12.428,-1.386,-0.748,0.0
12.455,-1.39,-0.817,0.0
12.312,-1.375,-0.874,0.0
14.806,-1.651,-0.635,14.0
14.045,-1.566,-0.677,6.0
12.937,-1.444,-0.693,1.0
12.412,-1.386,-0.733,1.0
12.433,-1.389,-0.801,0.0
12.357,-1.381,-0.862,0.0
15.094,-1.685,-0.629,15.0
14.152,-1.58,-0.665,10.0
13.187,-1.473,-0.69,1.0
12.443,-1.39,-0.719,1.0
12.419,-1.388,-0.785,0.0
12.381,-1.385,-0.849,0.0
15.463,-1.727,-0.626,15.0
14.306,-1.598,-0.656,13.0
13.44,-1.502,-0.688,1.0
12.504,-1.398,-0.708,1.0
12.399,-1.386,-0.768,0.0
12.424,-1.39,-0.836,0.0
15.818,-1.767,-0.621,21.0
14.448,-1.614,-0.644,13.0
13.789,-1.541,-0.688,1.0
12.675,-1.417,-0.702,1.0
12.392,-1.385,-0.752,0.0
12.421,-1.389,-0.821,0.0
16.049,-1.792,-0.61,24.0
14.567,-1.627,-0.632,12.0
14.003,-1.564,-0.682,5.0
12.859,-1.437,-0.696,1.0
12.398,-1.385,-0.738,0.0
12.438,-1.39,-0.806,0.0
16.435,-1.835,-0.605,18.0
14.79,-1.651,-0.623,12.0
14.125,-1.577,-0.67,9.0
13.114,-1.464,-0.694,1.0
12.458,-1.391,-0.726,1.0
12.463,-1.391,-0.793,0.0
16.903,-1.885,-0.601,19.0
15.039,-1.677,-0.615,13.0
14.305,-1.595,-0.661,13.0
13.359,-1.489,-0.69,1.0
12.542,-1.398,-0.715,1.0
12.464,-1.39,-0.777,0.0
17.252,-1.921,-0.592,20.0
15.744,-1.753,-0.624,19.0
14.439,-1.607,-0.649,12.0
13.665,-1.521,-0.689,1.0
12.693,-1.413,-0.707,1.0
12.516,-1.393,-0.764,0.0
17.634,-1.96,-0.583,19.0
16.0,-1.778,-0.614,21.0
14.576,-1.619,-0.637,11.0
13.992,-1.554,-0.688,2.0
12.859,-1.428,-0.7,1.0
12.572,-1.396,-0.752,0.0
17.917,-1.987,-0.57,17.0
16.304,-1.808,-0.605,15.0
14.792,-1.639,-0.628,11.0
14.147,-1.567,-0.677,6.0
13.09,-1.45,-0.696,1.0
12.656,-1.402,-0.741,0.0
18.308,-2.025,-0.559,17.0
16.939,-1.873,-0.608,21.0
15.185,-1.678,-0.625,12.0
14.353,-1.586,-0.669,11.0
13.325,-1.472,-0.692,1.0
12.725,-1.405,-0.729,0.0
18.695,-2.062,-0.548,19.0
17.247,-1.901,-0.597,20.0
15.693,-1.729,-0.626,17.0
14.481,-1.595,-0.656,11.0
13.603,-1.497,-0.689,1.0
12.848,-1.413,-0.719,1.0
19.118,-2.101,-0.535,20.0
17.56,-1.929,-0.585,16.0
16.068,-1.764,-0.621,17.0
14.853,-1.629,-0.654,12.0
13.913,-1.525,-0.687,1.0
13.005,-1.425,-0.712,1.0
19.559,-2.141,-0.523,19.0
17.964,-1.965,-0.576,17.0
16.344,-1.787,-0.611,14.0
15.028,-1.642,-0.643,13.0
14.243,-1.555,-0.685,2.0
13.175,-1.438,-0.704,1.0
20.375,-2.221,-0.519,20.0
18.306,-1.994,-0.564,17.0
16.874,-1.836,-0.609,15.0
14.93,-1.624,-0.62,12.0
14.374,-1.562,-0.673,7.0
13.385,-1.453,-0.698,1.0
20.735,-2.25,-0.502,16.0
18.748,-2.032,-0.554,17.0
17.328,-1.877,-0.604,17.0
15.606,-1.689,-0.628,14.0
14.674,-1.586,-0.669,3.0
13.649,-1.475,-0.695,1.0
21.442,-2.314,-0.492,18.0
19.304,-2.081,-0.546,17.0
17.678,-1.904,-0.594,16.0
15.881,-1.709,-0.619,13.0
15.114,-1.625,-0.67,4.0
13.874,-1.49,-0.688,1.0
22.391,-2.403,-0.486,24.0
19.791,-2.122,-0.534,17.0
18.088,-1.937,-0.584,17.0
16.36,-1.75,-0.617,14.0
15.324,-1.638,-0.66,9.0
14.179,-1.514,-0.686,1.0
22.918,-2.445,-0.468,22.0
20.462,-2.18,-0.527,19.0
18.471,-1.966,-0.574,17.0
17.042,-1.811,-0.621,17.0
15.537,-1.65,-0.649,10.0
14.382,-1.525,-0.677,2.0
23.398,-2.48,-0.449,3.0
21.036,-2.227,-0.515,18.0
18.964,-2.005,-0.565,20.0
17.463,-1.844,-0.615,18.0
15.976,-1.685,-0.647,10.0
14.685,-1.547,-0.673,1.0
23.567,-2.481,-0.423,0.0
21.82,-2.293,-0.507,18.0
19.477,-2.044,-0.556,19.0
17.711,-1.856,-0.602,16.0
16.279,-1.704,-0.64,13.0
15.078,-1.576,-0.673,1.0
23.579,-2.463,-0.394,0.0
22.443,-2.341,-0.494,22.0
20.111,-2.095,-0.55,17.0
18.116,-1.884,-0.593,17.0
16.703,-1.735,-0.635,16.0
15.373,-1.594,-0.667,2.0
29.273,-3.034,-0.453,3.0
23.034,-2.384,-0.479,21.0
20.76,-2.145,-0.542,19.0
18.549,-1.913,-0.584,17.0
17.003,-1.751,-0.626,17.0
15.724,-1.617,-0.663,1.0
29.173,-2.998,-0.416,9.0
23.542,-2.415,-0.46,22.0
21.373,-2.189,-0.531,22.0
18.987,-1.941,-0.575,17.0
17.357,-1.772,-0.618,16.0
16.214,-1.653,-0.663,3.0
30.206,-3.077,-0.394,26.0
23.557,-2.395,-0.432,11.0
21.886,-2.221,-0.518,20.0
19.416,-1.967,-0.564,18.0
17.707,-1.791,-0.609,16.0
16.36,-1.652,-0.649,8.0
30.938,-3.122,-0.366,13.0
23.594,-2.376,-0.404,0.0
22.514,-2.263,-0.505,18.0
19.987,-2.005,-0.557,19.0
18.143,-1.817,-0.602,16.0
16.748,-1.674,-0.645,2.0
35.197,-3.516,-0.374,16.0
29.437,-2.935,-0.469,1.0
23.219,-2.31,-0.494,25.0
20.398,-2.026,-0.544,20.0
18.588,-1.842,-0.595,16.0
17.301,-1.711,-0.646,2.0
35.861,-3.545,-0.339,12.0
23.717,-2.34,-0.35,1.0
23.536,-2.317,-0.473,24.0
20.71,-2.034,-0.528,18.0
19.031,-1.866,-0.587,16.0
17.668,-1.729,-0.639,2.0
37.393,-3.657,-0.311,16.0
30.312,-2.958,-0.413,12.0
23.566,-2.294,-0.446,6.0
21.288,-2.068,-0.518,18.0
19.457,-1.886,-0.577,17.0
18.146,-1.755,-0.635,3.0
38.592,-3.731,-0.276,14.0
34.845,-3.361,-0.435,2.0
23.595,-2.27,-0.42,0.0
22.387,-2.149,-0.52,25.0
20.038,-1.919,-0.572,18.0
18.488,-1.767,-0.626,2.0
40.689,-3.886,-0.245,17.0
35.765,-3.407,-0.405,8.0
29.339,-2.788,-0.489,1.0
23.176,-2.197,-0.512,15.0
20.642,-1.952,-0.566,17.0
18.941,-1.787,-0.62,2.0
43.011,-4.056,-0.211,19.0
36.828,-3.464,-0.376,8.0
29.358,-2.754,-0.456,18.0
23.543,-2.203,-0.494,10.0
21.318,-1.99,-0.561,17.0
19.43,-1.809,-0.615,2.0
44.848,-4.173,-0.17,20.0
37.807,-3.508,-0.345,13.0
29.737,-2.752,-0.43,25.0
23.552,-2.174,-0.468,0.0
22.087,-2.033,-0.557,18.0
19.951,-1.832,-0.609,2.0
46.982,-4.311,-0.127,21.0
0.0,0.0,0.0,0.0
29.885,-2.727,-0.4,40.0
26.497,-2.411,-0.498,15.0
22.874,-2.076,-0.552,19.0
20.476,-1.853,-0.604,2.0
48.925,-4.425,-0.08,23.0
0.0,0.0,0.0,0.0
29.852,-2.684,-0.368,3.0
27.333,-2.45,-0.485,24.0
23.541,-2.104,-0.544,20.0
21.199,-1.889,-0.603,2.0
51.104,-4.552,-0.031,25.0
0.0,0.0,0.0,0.0
29.854,-2.643,-0.337,0.0
28.438,-2.51,-0.476,24.0
24.331,-2.141,-0.537,16.0
21.911,-1.922,-0.601,2.0
51.844,-4.546,0.02,5.0
43.678,-3.818,-0.215,10.0
35.631,-3.104,-0.366,0.0
29.318,-2.546,-0.461,31.0
25.5,-2.207,-0.537,11.0
22.844,-1.971,-0.603,2.0
0.0,0.0,0.0,0.0
45.796,-3.937,-0.181,10.0
35.673,-3.056,-0.331,2.0
29.666,-2.533,-0.437,8.0
26.484,-2.254,-0.532,6.0
23.873,-2.025,-0.607,3.0
67.605,-5.732,0.16,9.0
47.883,-4.046,-0.143,15.0
35.804,-3.015,-0.298,2.0
29.907,-2.509,-0.412,6.0
27.009,-2.259,-0.517,1.0
25.117,-2.093,-0.615,1.0
72.518,-6.039,0.24,5.0
50.659,-4.204,-0.103,25.0
40.617,-3.358,-0.3,0.0
34.899,-2.875,-0.448,4.0
27.647,-2.27,-0.503,1.0
26.555,-2.172,-0.625,1.0
72.285,-5.909,0.306,6.0
51.518,-4.196,-0.057,7.0
40.637,-3.297,-0.263,8.0
35.452,-2.866,-0.423,4.0
28.759,-2.316,-0.497,2.0
28.456,-2.284,-0.645,1.0
82.053,-6.579,0.421,8.0
55.939,-4.467,-0.012,6.0
40.647,-3.234,-0.226,3.0
34.998,-2.774,-0.386,12.0
30.134,-2.379,-0.494,1.0
30.065,-2.364,-0.654,0.0
67.874,-5.333,0.408,78.0
62.787,-4.914,0.04,3.0
40.6,-3.164,-0.191,0.0
36.83,-2.859,-0.375,13.0
32.116,-2.483,-0.499,2.0
0.0,0.0,0.0,0.0
67.882,-5.223,0.465,28.0
67.654,-5.184,0.1,5.0
45.241,-3.452,-0.175,0.0
0.0,0.0,0.0,0.0
34.729,-2.627,-0.511,1.0
0.0,0.0,0.0,0.0
108.818,-8.191,0.835,3.0
72.173,-5.41,0.165,3.0
45.145,-3.369,-0.139,0.0
40.195,-2.987,-0.344,1.0
38.165,-2.824,-0.532,2.0
0.0,0.0,0.0,0.0
20.035,-1.474,0.169,22.0
82.186,-6.023,0.252,4.0
48.865,-3.564,-0.113,0.0
41.724,-3.03,-0.325,1.0
0.0,0.0,0.0,0.0
32.195,-2.317,-0.597,0.0
20.032,-1.44,0.184,36.0
19.977,-1.429,0.076,0.0
0.0,0.0,0.0,0.0
46.022,-3.263,-0.324,1.0
0.0,0.0,0.0,0.0
0.0,0.0,0.0,0.0
102.816,-7.212,1.021,32.0
87.304,-6.095,0.396,3.0
20.02,-1.391,-0.017,1.0
20.014,-1.384,-0.126,10.0
20.03,-1.378,-0.235,11.0
20.055,-1.373,-0.343,7.0
119.309,-8.159,1.268,14.0
20.016,-1.361,0.104,13.0
20.019,-1.355,-0.003,9.0
19.995,-1.346,-0.113,23.0
20.027,-1.342,-0.221,26.0
20.048,-1.337,-0.329,26.0
19.968,-1.329,0.225,26.0
19.984,-1.323,0.117,20.0
19.987,-1.317,0.009,19.0
19.977,-1.309,-0.1,30.0
20.014,-1.305,-0.208,32.0
20.047,-1.3,-0.317,25.0
19.966,-1.293,0.238,28.0
19.984,-1.287,0.13,26.0
19.996,-1.281,0.022,26.0
19.992,-1.273,-0.087,28.0
20.023,-1.269,-0.196,27.0
20.078,-1.265,-0.305,21.0
19.971,-1.256,0.25,28.0
19.995,-1.25,0.142,28.0
20.001,-1.244,0.034,23.0
20.019,-1.238,-0.076,26.0
20.012,-1.23,-0.184,33.0
19.99,-1.222,-0.292,150.0
19.938,-1.217,0.261,26.0
19.99,-1.213,0.153,150.0
19.982,-1.205,0.045,151.0
19.984,-1.198,-0.064,150.0
20.009,-1.193,-0.173,154.0
19.993,-1.185,-0.281,150.0
19.948,-1.179,0.272,23.0
20.059,-1.179,0.165,7.0
20.012,-1.169,0.056,1.0
20.007,-1.162,-0.054,0.0
19.996,-1.154,-0.162,0.0
38.636,-2.216,-0.524,1.0
19.956,-1.141,0.282,27.0
19.987,-1.136,0.174,18.0
20.001,-1.13,0.065,17.0
20.017,-1.123,-0.044,4.0
50.213,-2.801,-0.384,0.0
0.0,0.0,0.0,0.0
19.966,-1.104,0.292,23.0
19.995,-1.098,0.183,22.0
19.991,-1.091,0.075,26.0
19.986,-1.083,-0.035,16.0
20.016,-1.078,-0.144,23.0
41.2,-2.204,-0.521,1.0
19.965,-1.065,0.3,17.0
19.984,-1.058,0.192,19.0
19.988,-1.051,0.083,23.0
19.964,-1.043,-0.027,19.0
19.983,-1.036,-0.135,27.0
20.005,-1.03,-0.244,27.0
20.082,-1.031,0.31,17.0
20.108,-1.025,0.201,19.0
20.014,-1.012,0.091,16.0
19.987,-1.004,-0.019,15.0
19.982,-0.996,-0.128,30.0
19.985,-0.989,-0.237,33.0
20.16,-0.995,0.319,24.0
20.164,-0.987,0.209,3.0
0.0,0.0,0.0,0.0
20.004,-0.965,-0.012,6.0
20.0,-0.958,-0.121,21.0
19.988,-0.95,-0.23,26.0
20.174,-0.955,0.326,1.0
138.218,-6.494,1.48,11.0
138.172,-6.441,0.725,3.0
0.0,0.0,0.0,0.0
20.064,-0.92,-0.115,0.0
20.023,-0.911,-0.224,2.0
138.062,-6.26,2.273,90.0
138.245,-6.216,1.52,4.0
137.964,-6.152,0.763,10.0
0.0,0.0,0.0,0.0
50.469,-2.214,-0.277,1.0
43.078,-1.875,-0.472,0.0
138.091,-5.982,2.309,70.0
138.274,-5.939,1.555,4.0
138.149,-5.884,0.798,11.0
0.0,0.0,0.0,0.0
0.0,0.0,0.0,0.0
0.0,0.0,0.0,0.0
138.127,-5.702,2.34,25.0
138.506,-5.666,1.588,4.0
138.368,-5.609,0.829,10.0
0.0,0.0,0.0,0.0
0.0,0.0,0.0,0.0
0.0,0.0,0.0,0.0
193.432,-7.587,3.313,12.0
138.451,-5.379,1.612,3.0
138.497,-5.331,0.854,11.0
0.0,0.0,0.0,0.0
0.0,0.0,0.0,0.0
0.0,0.0,0.0,0.0
193.294,-7.181,3.34,16.0
138.363,-5.087,1.631,3.0
138.477,-5.04,0.873,12.0
0.0,0.0,0.0,0.0
0.0,0.0,0.0,0.0
44.315,-1.563,-0.454,1.0
193.397,-6.778,3.363,15.0
138.604,-4.807,1.649,3.0
138.606,-4.755,0.888,12.0
0.0,0.0,0.0,0.0
57.024,-1.914,-0.266,1.0
44.227,-1.468,-0.45,1.0
193.159,-6.372,3.374,22.0
0.0,0.0,0.0,0.0
138.657,-4.47,0.897,6.0
0.0,0.0,0.0,0.0
0.0,0.0,0.0,0.0
44.256,-1.377,-0.448,0.0
193.756,-5.986,3.392,18.0
0.0,0.0,0.0,0.0
138.361,-4.168,0.899,12.0
0.0,0.0,0.0,0.0
55.061,-1.617,-0.254,0.0
44.08,-1.279,-0.446,2.0
194.001,-5.581,3.396,4.0
0.0,0.0,0.0,0.0
138.606,-3.884,0.899,16.0
0.0,0.0,0.0,0.0
54.9,-1.498,-0.254,1.0
43.71,-1.176,-0.443,1.0
193.198,-5.15,3.375,9.0
0.0,0.0,0.0,0.0
138.819,-3.597,0.894,12.0
0.0,0.0,0.0,0.0
54.705,-1.377,-0.256,0.0
43.538,-1.08,-0.444,1.0
192.984,-4.736,3.357,20.0
0.0,0.0,0.0,0.0
138.892,-3.303,0.882,11.0
0.0,0.0,0.0,0.0
54.468,-1.255,-0.261,1.0
0.0,0.0,0.0,0.0
193.194,-4.332,3.34,23.0
0.0,0.0,0.0,0.0
138.949,-3.01,0.865,12.0
0.0,0.0,0.0,0.0
54.545,-1.142,-0.268,0.0
44.925,-0.924,-0.469,1.0
193.005,-3.914,3.307,15.0
0.0,0.0,0.0,0.0
138.977,-2.717,0.843,11.0
0.0,0.0,0.0,0.0
0.0,0.0,0.0,0.0
44.896,-0.828,-0.477,0.0
193.648,-3.519,3.282,20.0
139.132,-2.477,1.587,4.0
139.031,-2.425,0.816,10.0
0.0,0.0,0.0,0.0
0.0,0.0,0.0,0.0
0.0,0.0,0.0,0.0
193.993,-3.111,3.244,6.0
139.232,-2.184,1.556,4.0
138.883,-2.126,0.782,15.0
0.0,0.0,0.0,0.0
0.0,0.0,0.0,0.0
0.0,0.0,0.0,0.0
203.901,-2.836,3.356,5.0
139.293,-1.887,1.519,8.0
0.0,0.0,0.0,0.0
0.0,0.0,0.0,0.0
54.008,-0.671,-0.316,0.0
40.998,-0.495,-0.467,0.0
139.033,-1.637,2.246,4.0
119.808,-1.366,1.269,9.0
119.755,-1.323,0.603,25.0
0.0,0.0,0.0,0.0
0.0,0.0,0.0,0.0
39.81,-0.396,-0.467,0.0
119.745,-1.154,1.894,108.0
119.711,-1.111,1.227,17.0
0.0,0.0,0.0,0.0
0.0,0.0,0.0,0.0
0.0,0.0,0.0,0.0
0.0,0.0,0.0,0.0
119.801,-0.899,1.849,22.0
119.693,-0.854,1.181,15.0
110.952,-0.752,0.476,2.0
0.0,0.0,0.0,0.0
0.0,0.0,0.0,0.0
0.0,0.0,0.0,0.0
119.796,-0.645,1.799,17.0
119.714,-0.602,1.131,16.0
0.0,0.0,0.0,0.0
0.0,0.0,0.0,0.0
47.792,-0.189,-0.352,0.0
0.0,0.0,0.0,0.0
119.834,-0.392,1.745,7.0
114.461,-0.335,1.029,150.0
0.0,0.0,0.0,0.0
0.0,0.0,0.0,0.0
45.473,-0.085,-0.356,0.0
0.0,0.0,0.0,0.0
111.102,-0.133,1.565,8.0
117.126,-0.098,0.995,6.0
95.466,-0.046,0.278,1.0
0.0,0.0,0.0,0.0
45.695,0.009,-0.382,1.0
37.13,0.02,-0.517,0.0
111.157,0.099,1.507,18.0
110.948,0.137,0.884,9.0
93.062,0.146,0.221,3.0
0.0,0.0,0.0,0.0
44.799,0.101,-0.398,0.0
0.0,0.0,0.0,0.0
119.787,0.355,1.557,11.0
110.874,0.365,0.821,8.0
87.979,0.319,0.159,1.0
0.0,0.0,0.0,0.0
45.783,0.197,-0.433,0.0
0.0,0.0,0.0,0.0
111.07,0.557,1.378,31.0
104.744,0.559,0.713,12.0
86.717,0.493,0.105,4.0
0.0,0.0,0.0,0.0
42.829,0.272,-0.432,1.0
35.275,0.236,-0.553,0.0
100.445,0.711,1.183,2.0
98.107,0.727,0.605,10.0
83.806,0.649,0.047,1.0
0.0,0.0,0.0,0.0
42.812,0.36,-0.46,0.0
0.0,0.0,0.0,0.0
98.688,0.898,1.097,22.0
98.037,0.924,0.54,6.0
81.2,0.793,-0.008,1.0
0.0,0.0,0.0,0.0
41.142,0.428,-0.47,1.0
0.0,0.0,0.0,0.0
98.527,1.096,1.026,27.0
85.354,0.978,0.409,12.0
0.0,0.0,0.0,0.0
0.0,0.0,0.0,0.0
41.213,0.512,-0.5,0.0
32.77,0.418,-0.582,0.0
98.557,1.295,0.954,24.0
85.15,1.146,0.345,6.0
0.0,0.0,0.0,0.0
47.114,0.665,-0.343,0.0
0.0,0.0,0.0,0.0
31.884,0.471,-0.591,0.0
91.915,1.391,0.819,26.0
81.069,1.253,0.266,5.0
0.0,0.0,0.0,0.0
47.05,0.758,-0.379,0.0
0.0,0.0,0.0,0.0
30.529,0.511,-0.59,0.0
91.846,1.572,0.744,27.0
73.832,1.287,0.182,4.0
0.0,0.0,0.0,0.0
45.918,0.829,-0.408,0.0
35.777,0.657,-0.519,0.0
30.196,0.564,-0.608,0.0
85.467,1.631,0.621,21.0
72.081,1.399,0.117,2.0
0.0,0.0,0.0,0.0
0.0,0.0,0.0,0.0
35.379,0.719,-0.544,0.0
29.289,0.604,-0.615,0.0
84.99,1.787,0.543,13.0
71.465,1.525,0.054,1.0
0.0,0.0,0.0,0.0
0.0,0.0,0.0,0.0
0.0,0.0,0.0,0.0
28.519,0.644,-0.625,0.0
78.817,1.808,0.433,8.0
67.423,1.567,-0.009,6.0
0.0,0.0,0.0,0.0
0.0,0.0,0.0,0.0
33.186,0.802,-0.57,0.0
28.125,0.688,-0.642,0.0
72.006,1.788,0.329,6.0
65.754,1.652,-0.07,7.0
0.0,0.0,0.0,0.0
38.827,0.999,-0.484,0.0
31.611,0.823,-0.573,0.0
27.095,0.713,-0.644,0.0
71.835,1.919,0.259,15.0
64.141,1.733,-0.131,2.0
0.0,0.0,0.0,0.0
37.834,1.044,-0.508,0.0
31.084,0.867,-0.594,0.0
26.4,0.744,-0.654,0.0
71.257,2.035,0.186,12.0
62.782,1.812,-0.191,2.0
45.458,1.325,-0.395,0.0
35.68,1.05,-0.515,0.0
0.0,0.0,0.0,0.0
25.869,0.777,-0.667,0.0
65.363,1.987,0.104,5.0
61.57,1.889,-0.25,0.0
0.0,0.0,0.0,0.0
34.623,1.082,-0.536,0.0
28.677,0.904,-0.606,1.0
24.965,0.794,-0.669,0.0
65.024,2.093,0.036,7.0
54.22,1.761,-0.277,1.0
42.411,1.39,-0.457,0.0
33.135,1.095,-0.548,0.0
28.578,0.952,-0.635,0.0
24.481,0.822,-0.683,0.0
59.83,2.034,-0.032,2.0
54.224,1.858,-0.336,0.0
39.421,1.362,-0.468,0.0
0.0,0.0,0.0,0.0
27.671,0.971,-0.645,0.0
23.93,0.846,-0.694,0.0
58.77,2.101,-0.096,4.0
48.363,1.742,-0.354,0.0
37.83,1.373,-0.491,0.0
31.349,1.146,-0.588,0.0
26.45,0.974,-0.647,0.0
23.243,0.862,-0.7,0.0
57.036,2.137,-0.158,2.0
44.768,1.689,-0.378,1.0
35.888,1.364,-0.507,0.0
30.163,1.154,-0.601,0.0
25.865,0.997,-0.662,0.0
22.581,0.876,-0.706,0.0
55.928,2.191,-0.221,2.0
44.77,1.766,-0.431,0.0
35.462,1.408,-0.543,0.0
29.42,1.176,-0.621,0.0
25.158,1.012,-0.674,0.0
21.967,0.89,-0.713,0.0
55.017,2.249,-0.283,3.0
0.0,0.0,0.0,0.0
0.0,0.0,0.0,0.0
28.054,1.168,-0.626,0.0
24.364,1.021,-0.682,0.0
21.471,0.906,-0.724,0.0
0.0,0.0,0.0,0.0
0.0,0.0,0.0,0.0
31.87,1.371,-0.566,0.0
27.112,1.174,-0.638,0.0
23.635,1.029,-0.691,0.0
20.914,0.916,-0.731,0.0
0.0,0.0,0.0,0.0
0.0,0.0,0.0,0.0
30.639,1.367,-0.582,0.0
26.288,1.179,-0.651,0.0
23.018,1.038,-0.702,0.0
20.431,0.927,-0.739,0.0
47.812,2.186,-0.424,0.0
0.0,0.0,0.0,0.0
0.0,0.0,0.0,0.0
25.336,1.177,-0.66,0.0
22.351,1.043,-0.71,0.0
19.912,0.934,-0.746,0.0
43.746,2.068,-0.444,0.0
0.0,0.0,0.0,0.0
28.504,1.36,-0.614,0.0
24.733,1.186,-0.676,0.0
21.733,1.048,-0.718,0.0
19.426,0.941,-0.753,0.0
40.34,1.968,-0.462,1.0
32.154,1.576,-0.552,0.0
27.513,1.355,-0.629,0.0
23.917,1.183,-0.686,0.0
21.164,1.052,-0.727,0.0
18.891,0.943,-0.757,0.0
0.0,0.0,0.0,0.0
31.158,1.573,-0.576,0.0
26.67,1.352,-0.645,0.0
23.195,1.181,-0.696,0.0
20.547,1.051,-0.734,0.0
18.316,0.941,-0.759,0.0
36.114,1.867,-0.51,0.0
30.523,1.585,-0.605,0.0
25.783,1.345,-0.659,0.0
22.588,1.183,-0.709,0.0
20.01,1.053,-0.742,0.0
17.964,0.949,-0.769,0.0
34.534,1.835,-0.535,0.0
28.57,1.524,-0.606,0.0
24.919,1.335,-0.671,0.0
21.941,1.18,-0.719,0.0
19.588,1.058,-0.754,0.0
17.463,0.947,-0.772,0.0
0.0,0.0,0.0,0.0
27.709,1.517,-0.627,0.0
0.0,0.0,0.0,0.0
21.212,1.17,-0.725,0.0
18.992,1.052,-0.757,0.0
17.159,0.954,-0.783,0.0
31.405,1.755,-0.575,0.0
26.793,1.502,-0.644,0.0
23.185,1.305,-0.69,0.0
20.551,1.161,-0.731,0.0
18.38,1.042,-0.759,0.0
16.806,0.956,-0.791,0.0
30.007,1.716,-0.592,0.0
25.637,1.471,-0.652,0.0
22.52,1.297,-0.702,0.0
19.978,1.154,-0.739,0.0
17.973,1.042,-0.768,0.0
16.403,0.954,-0.795,0.0
28.714,1.678,-0.608,0.0
24.921,1.462,-0.67,0.0
21.698,1.277,-0.708,0.0
19.461,1.149,-0.748,0.0
17.596,1.042,-0.778,0.0
16.071,0.955,-0.803,0.0
0.0,0.0,0.0,0.0
23.908,1.432,-0.678,0.0
21.097,1.267,-0.719,0.0
18.913,1.14,-0.755,0.0
17.102,1.034,-0.781,0.0
15.646,0.949,-0.804,0.0
26.508,1.614,-0.638,0.0
23.241,1.419,-0.693,0.0
20.466,1.254,-0.727,0.0
18.413,1.131,-0.762,0.0
16.811,1.036,-0.792,0.0
15.363,0.95,-0.812,0.0
25.572,1.586,-0.654,0.0
22.404,1.394,-0.701,0.0
19.772,1.234,-0.732,0.0
17.893,1.12,-0.767,0.0
16.301,1.023,-0.793,0.0
15.011,0.945,-0.816,0.0
24.681,1.559,-0.668,0.0
21.681,1.373,-0.711,0.0
19.553,1.242,-0.753,0.0
17.461,1.112,-0.775,0.0
16.024,1.023,-0.803,0.0
14.603,0.935,-0.816,0.0
23.83,1.531,-0.681,0.0
21.026,1.354,-0.721,0.0
18.814,1.215,-0.753,0.0
17.059,1.104,-0.783,0.0
15.618,1.014,-0.807,0.0
14.41,0.938,-0.827,0.0
22.992,1.501,-0.692,0.0
20.366,1.333,-0.73,0.0
18.302,1.201,-0.761,0.0
16.656,1.095,-0.79,0.0
15.259,1.006,-0.811,0.0
14.086,0.931,-0.83,0.0
22.258,1.475,-0.703,0.0
19.725,1.31,-0.736,0.0
17.817,1.186,-0.768,0.0
16.223,1.083,-0.794,0.0
14.921,0.998,-0.816,0.0
13.847,0.929,-0.837,0.0
21.409,1.439,-0.709,0.0
19.202,1.294,-0.746,0.0
17.463,1.179,-0.779,0.0
15.834,1.072,-0.799,0.0
14.611,0.991,-0.822,0.0
13.548,0.921,-0.84,0.0
20.807,1.418,-0.721,0.0
18.646,1.273,-0.753,0.0
16.866,1.154,-0.778,0.0
15.491,1.062,-0.806,0.0
14.34,0.986,-0.828,0.0
13.329,0.918,-0.847,0.0
20.203,1.394,-0.731,0.0
18.14,1.255,-0.761,0.0
16.608,1.151,-0.792,0.0
15.128,1.051,-0.81,0.0
13.986,0.973,-0.83,0.0
13.044,0.91,-0.849,0.0
19.594,1.369,-0.74,0.0
17.729,1.241,-0.771,0.0
16.123,1.131,-0.794,0.0
14.678,1.031,-0.809,0.0
13.709,0.965,-0.834,0.0
12.719,0.897,-0.848,0.0
18.994,1.342,-0.746,0.0
17.171,1.215,-0.773,0.0
15.779,1.119,-0.802,0.0
14.41,1.024,-0.817,0.0
13.521,0.962,-0.844,0.0
12.379,0.883,-0.845,0.0
18.465,1.318,-0.754,0.0
16.865,1.206,-0.786,0.0
15.454,1.107,-0.809,0.0
14.152,1.016,-0.824,0.0
13.21,0.95,-0.845,0.0
12.173,0.877,-0.849,0.0
18.065,1.302,-0.766,0.0
16.385,1.183,-0.789,0.0
15.059,1.089,-0.812,0.0
13.88,1.006,-0.83,0.0
12.988,0.943,-0.852,0.0
11.914,0.866,-0.85,0.0
17.547,1.277,-0.771,0.0
16.076,1.171,-0.799,0.0
14.555,1.062,-0.808,0.0
13.685,1.0,-0.84,0.0
12.704,0.93,-0.853,0.0
11.708,0.859,-0.854,0.0
17.115,1.256,-0.779,0.0
15.654,1.15,-0.802,0.0
14.377,1.058,-0.82,0.0
13.346,0.984,-0.84,0.0
12.387,0.914,-0.851,0.0
11.526,0.852,-0.858,0.0
16.637,1.231,-0.783,0.0
15.252,1.129,-0.806,0.0
14.173,1.051,-0.831,0.0
13.101,0.973,-0.845,0.0
12.171,0.905,-0.855,0.0
11.301,0.842,-0.859,0.0
16.267,1.212,-0.791,0.0
14.9,1.111,-0.81,0.0
13.751,1.027,-0.827,0.0
12.86,0.962,-0.849,0.0
11.845,0.887,-0.851,0.0
11.121,0.834,-0.863,0.0
15.872,1.19,-0.797,0.0
14.597,1.096,-0.817,0.0
13.568,1.02,-0.837,0.0
12.574,0.946,-0.85,0.0
11.679,0.88,-0.857,0.0
10.927,0.825,-0.865,0.0
15.433,1.164,-0.798,0.0
14.247,1.076,-0.819,0.0
13.293,1.005,-0.841,0.0
12.251,0.927,-0.847,0.0
11.435,0.867,-0.857,0.0
10.818,0.821,-0.873,0.0
15.244,1.156,-0.812,0.0
14.019,1.064,-0.827,0.0
12.997,0.988,-0.842,0.0
12.013,0.914,-0.849,0.0
11.218,0.855,-0.858,0.0
10.628,0.811,-0.874,0.0
14.856,1.132,-0.814,0.0
13.712,1.046,-0.83,0.0
12.763,0.975,-0.847,0.0
11.814,0.903,-0.853,0.0
11.089,0.849,-0.865,0.0
10.452,0.801,-0.876,0.0
14.466,1.107,-0.815,0.0
13.48,1.032,-0.837,0.0
12.459,0.955,-0.845,0.0
11.627,0.892,-0.858,0.0
10.888,0.836,-0.866,0.0
10.315,0.793,-0.88,0.0
14.153,1.087,-0.819,0.0
13.223,1.016,-0.841,0.0
12.192,0.938,-0.846,0.0
11.354,0.874,-0.855,0.0
10.683,0.823,-0.866,0.0
10.189,0.786,-0.885,0.0
13.945,1.074,-0.828,0.0
12.906,0.995,-0.84,0.0
11.942,0.921,-0.847,0.0
11.188,0.864,-0.859,0.0
10.583,0.818,-0.874,0.0
10.101,0.781,-0.893,0.0
13.678,1.056,-0.832,0.0
12.84,0.992,-0.855,0.0
11.76,0.909,-0.851,0.0
11.016,0.853,-0.862,0.0
10.386,0.804,-0.873,0.0
9.874,0.765,-0.887,0.0
13.46,1.041,-0.839,0.0
12.423,0.962,-0.846,0.0
11.55,0.895,-0.853,0.0
10.842,0.841,-0.865,0.0
10.301,0.799,-0.881,0.0
9.773,0.759,-0.893,0.0
13.14,1.018,-0.838,0.0
12.196,0.945,-0.848,0.0
11.348,0.88,-0.855,0.0
10.685,0.829,-0.868,0.0
10.175,0.79,-0.885,0.0
9.664,0.751,-0.897,0.0
13.012,1.009,-0.849,0.0
11.965,0.928,-0.849,0.0
11.171,0.867,-0.858,0.0
10.528,0.818,-0.87,0.0
10.019,0.779,-0.886,0.0
9.582,0.745,-0.903,0.0
12.875,0.999,-0.858,0.0
11.751,0.912,-0.851,0.0
11.019,0.855,-0.862,0.0
10.379,0.806,-0.873,0.0
9.914,0.77,-0.891,0.0
9.444,0.734,-0.904,0.0
12.348,0.957,-0.841,0.0
11.516,0.893,-0.851,0.0
10.848,0.842,-0.864,0.0
10.26,0.797,-0.877,0.0
9.711,0.754,-0.887,0.0
9.288,0.722,-0.902,0.0
12.185,0.944,-0.847,0.0
11.351,0.88,-0.854,0.0
10.711,0.83,-0.868,0.0
10.166,0.788,-0.884,0.0
9.664,0.75,-0.896,0.0
9.202,0.714,-0.907,0.0
11.957,0.925,-0.847,0.0
11.201,0.867,-0.858,0.0
10.548,0.817,-0.869,0.0
10.028,0.777,-0.886,0.0
9.52,0.737,-0.896,0.0
9.111,0.706,-0.91,0.0
11.769,0.909,-0.85,0.0
10.99,0.849,-0.857,0.0
10.443,0.807,-0.875,0.0
9.91,0.766,-0.888,0.0
9.478,0.733,-0.905,0.0
8.947,0.692,-0.906,0.0
11.603,0.894,-0.853,0.0
10.837,0.835,-0.86,0.0
10.288,0.793,-0.875,0.0
9.768,0.753,-0.889,0.0
9.399,0.725,-0.91,0.0
8.934,0.689,-0.917,0.0
11.36,0.873,-0.85,0.0
10.728,0.824,-0.865,0.0
10.213,0.785,-0.883,0.0
9.64,0.741,-0.89,0.0
9.211,0.708,-0.904,0.0
8.831,0.679,-0.918,0.0
11.218,0.859,-0.855,0.0
10.625,0.814,-0.871,0.0
10.09,0.773,-0.885,0.0
9.606,0.735,-0.899,0.0
9.123,0.699,-0.907,0.0
8.725,0.668,-0.918,0.0
11.072,0.845,-0.858,0.0
10.459,0.798,-0.87,0.0
9.993,0.762,-0.889,0.0
9.462,0.722,-0.898,0.0
9.015,0.687,-0.908,0.0
8.634,0.658,-0.919,0.0
10.928,0.83,-0.86,0.0
10.347,0.785,-0.874,0.0
9.843,0.747,-0.888,0.0
0.0,0.0,0.0,0.0
8.927,0.677,-0.91,0.0
8.565,0.65,-0.923,0.0
10.82,0.818,-0.865,0.0
10.267,0.776,-0.88,0.0
9.725,0.734,-0.89,0.0
0.0,0.0,0.0,0.0
8.873,0.67,-0.915,0.0
8.468,0.639,-0.923,0.0
10.697,0.804,-0.868,0.0
10.153,0.763,-0.882,0.0
9.667,0.726,-0.896,0.0
9.183,0.689,-0.905,0.0
8.764,0.658,-0.915,0.0
8.336,0.625,-0.918,0.0
10.524,0.786,-0.866,0.0
10.075,0.752,-0.887,0.0
9.59,0.716,-0.9,0.0
9.115,0.68,-0.909,0.0
8.688,0.648,-0.917,0.0
8.331,0.621,-0.927,0.0
10.455,0.776,-0.873,0.0
9.945,0.738,-0.887,0.0
9.522,0.706,-0.905,0.0
9.054,0.671,-0.913,0.0
8.628,0.639,-0.92,0.0
8.285,0.613,-0.932,0.0
10.348,0.762,-0.875,0.0
9.863,0.726,-0.891,0.0
9.381,0.69,-0.902,0.0
8.917,0.656,-0.909,0.0
8.583,0.631,-0.925,0.0
8.165,0.6,-0.927,0.0
10.24,0.749,-0.877,0.0
9.777,0.714,-0.894,0.0
9.295,0.679,-0.903,0.0
8.941,0.653,-0.921,0.0
0.0,0.0,0.0,0.0
8.108,0.591,-0.93,0.0
10.189,0.739,-0.884,0.0
9.678,0.701,-0.895,0.0
9.199,0.666,-0.904,0.0
8.761,0.634,-0.912,0.0
0.0,0.0,0.0,0.0
8.045,0.582,-0.931,0.0
10.089,0.725,-0.885,0.0
9.612,0.691,-0.899,0.0
9.122,0.655,-0.905,0.0
8.734,0.626,-0.918,0.0
8.392,0.602,-0.931,0.0
7.99,0.572,-0.933,0.0
9.983,0.711,-0.886,0.0
9.512,0.677,-0.899,0.0
9.044,0.643,-0.907,0.0
8.665,0.616,-0.92,0.0
8.274,0.587,-0.926,0.0
7.93,0.562,-0.933,0.0
9.887,0.697,-0.887,0.0
9.416,0.664,-0.899,0.0
8.965,0.631,-0.907,0.0
0.0,0.0,0.0,0.0
8.175,0.574,-0.923,0.0
7.856,0.552,-0.932,0.0
9.838,0.687,-0.892,0.0
9.386,0.655,-0.905,0.0
8.887,0.619,-0.908,0.0
0.0,0.0,0.0,0.0
8.209,0.571,-0.934,0.0
7.811,0.543,-0.934,0.0
9.764,0.674,-0.894,0.0
9.284,0.64,-0.903,0.0
8.846,0.609,-0.911,0.0
8.419,0.579,-0.917,0.0
8.13,0.559,-0.932,0.0
7.819,0.537,-0.942,0.0
9.663,0.66,-0.893,0.0
9.255,0.631,-0.908,0.0
8.781,0.598,-0.912,0.0
0.0,0.0,0.0,0.0
8.049,0.547,-0.93,0.0
7.761,0.527,-0.941,0.0
9.607,0.648,-0.895,0.0
9.19,0.619,-0.909,0.0
8.715,0.586,-0.912,0.0
0.0,0.0,0.0,0.0
7.998,0.537,-0.93,0.0
7.681,0.515,-0.938,0.0
9.541,0.636,-0.897,0.0
9.09,0.605,-0.906,0.0
8.678,0.576,-0.915,0.0
8.296,0.55,-0.923,0.0
7.986,0.529,-0.935,0.0
7.656,0.506,-0.941,0.0
9.52,0.626,-0.902,0.0
9.035,0.593,-0.908,0.0
8.648,0.567,-0.918,0.0
0.0,0.0,0.0,0.0
7.924,0.518,-0.933,0.0
7.607,0.496,-0.94,0.0
9.448,0.613,-0.902,0.0
8.979,0.581,-0.908,0.0
8.589,0.555,-0.918,0.0
0.0,0.0,0.0,0.0
7.878,0.508,-0.933,0.0
7.567,0.487,-0.94,0.0
9.358,0.598,-0.899,0.0
8.945,0.571,-0.911,0.0
8.589,0.547,-0.924,0.0
0.0,0.0,0.0,0.0
7.848,0.498,-0.935,0.0
0.0,0.0,0.0,0.0
9.281,0.584,-0.898,0.0
8.905,0.56,-0.912,0.0
8.485,0.532,-0.918,0.0
0.0,0.0,0.0,0.0
7.843,0.49,-0.939,0.0
7.525,0.47,-0.944,0.0
9.27,0.575,-0.902,0.0
8.89,0.55,-0.916,0.0
8.457,0.522,-0.92,0.0
8.124,0.501,-0.931,0.0
7.802,0.48,-0.939,0.0
7.425,0.456,-0.936,0.0
9.217,0.562,-0.902,0.0
8.855,0.539,-0.917,0.0
8.422,0.512,-0.92,0.0
8.092,0.491,-0.931,0.0
7.757,0.469,-0.937,0.0
7.464,0.451,-0.945,0.0
9.174,0.55,-0.902,0.0
8.783,0.526,-0.914,0.0
8.424,0.503,-0.925,0.0
8.086,0.482,-0.935,0.0
0.0,0.0,0.0,0.0
7.445,0.442,-0.946,0.0
9.183,0.541,-0.908,0.0
8.817,0.519,-0.922,0.0
8.426,0.495,-0.929,0.0
8.027,0.47,-0.931,0.0
7.677,0.449,-0.935,0.0
7.405,0.432,-0.944,0.0
9.121,0.528,-0.905,0.0
8.755,0.506,-0.919,0.0
8.332,0.48,-0.922,0.0
7.966,0.458,-0.928,0.0
0.0,0.0,0.0,0.0
7.356,0.421,-0.941,0.0
9.085,0.516,-0.905,0.0
8.735,0.495,-0.92,0.0
8.318,0.471,-0.923,0.0
7.96,0.449,-0.93,0.0
7.688,0.433,-0.942,0.0
7.377,0.414,-0.946,0.0
9.126,0.509,-0.912,0.0
8.639,0.48,-0.913,0.0
8.254,0.458,-0.919,0.0
7.982,0.442,-0.935,0.0
7.628,0.421,-0.937,0.0
7.308,0.402,-0.94,0.0
9.076,0.496,-0.91,0.0
8.706,0.474,-0.922,0.0
8.313,0.452,-0.928,0.0
7.947,0.431,-0.933,0.0
7.613,0.412,-0.937,0.0
7.338,0.396,-0.945,0.0
9.024,0.483,-0.907,0.0
8.655,0.462,-0.919,0.0
8.241,0.439,-0.922,0.0
7.972,0.423,-0.938,0.0
7.629,0.404,-0.941,0.0
7.33,0.387,-0.946,0.0
9.035,0.473,-0.91,0.0
8.66,0.452,-0.921,0.0
8.289,0.432,-0.929,0.0
0.0,0.0,0.0,0.0
7.586,0.393,-0.937,0.0
7.247,0.374,-0.937,0.0
9.005,0.461,-0.909,0.0
8.597,0.439,-0.916,0.0
8.188,0.417,-0.919,0.0
0.0,0.0,0.0,0.0
7.619,0.385,-0.942,0.0
0.0,0.0,0.0,0.0
9.037,0.452,-0.913,0.0
8.624,0.43,-0.92,0.0
8.262,0.411,-0.928,0.0
0.0,0.0,0.0,0.0
7.588,0.375,-0.939,0.0
0.0,0.0,0.0,0.0
8.997,0.44,-0.91,0.0
8.565,0.417,-0.914,0.0
8.275,0.402,-0.93,0.0
0.0,0.0,0.0,0.0
7.561,0.365,-0.936,0.0
7.288,0.35,-0.944,0.0
9.035,0.431,-0.914,0.0
8.653,0.411,-0.924,0.0
8.254,0.391,-0.928,0.0
7.871,0.371,-0.93,0.0
7.615,0.358,-0.943,0.0
7.278,0.341,-0.942,0.0
8.993,0.418,-0.909,0.0
8.599,0.398,-0.918,0.0
8.268,0.381,-0.929,0.0
7.919,0.364,-0.935,0.0
7.561,0.346,-0.936,0.0
7.264,0.331,-0.94,0.0
9.01,0.408,-0.91,0.0
8.622,0.389,-0.92,0.0
8.26,0.371,-0.927,0.0
7.868,0.352,-0.929,0.0
7.593,0.338,-0.939,0.0
7.289,0.324,-0.943,0.0
9.026,0.398,-0.911,0.0
8.657,0.38,-0.922,0.0
8.305,0.363,-0.932,0.0
7.894,0.344,-0.931,0.0
7.636,0.331,-0.943,0.0
7.335,0.317,-0.947,0.0
9.033,0.387,-0.911,0.0
8.641,0.369,-0.919,0.0
8.317,0.353,-0.931,0.0
7.901,0.334,-0.93,0.0
7.574,0.319,-0.934,0.0
7.315,0.307,-0.944,0.0
9.082,0.378,-0.914,0.0
8.644,0.358,-0.918,0.0
8.291,0.342,-0.927,0.0
7.936,0.326,-0.932,0.0
7.607,0.311,-0.936,0.0
7.361,0.299,-0.948,0.0
9.001,0.363,-0.903,0.0
8.673,0.348,-0.919,0.0
8.32,0.333,-0.928,0.0
0.0,0.0,0.0,0.0
7.642,0.303,-0.939,0.0
7.355,0.29,-0.945,0.0
9.079,0.355,-0.908,0.0
8.665,0.337,-0.915,0.0
8.325,0.323,-0.926,0.0
7.991,0.308,-0.934,0.0
7.625,0.292,-0.934,0.0
7.359,0.281,-0.943,0.0
9.118,0.345,-0.909,0.0
8.731,0.329,-0.919,0.0
8.33,0.312,-0.924,0.0
8.039,0.3,-0.937,0.0
7.698,0.286,-0.94,0.0
7.362,0.272,-0.941,0.0
9.163,0.336,-0.91,0.0
8.721,0.318,-0.915,0.0
8.382,0.304,-0.926,0.0
8.008,0.289,-0.93,0.0
7.724,0.277,-0.94,0.0
7.386,0.263,-0.941,0.0
9.162,0.324,-0.906,0.0
8.81,0.31,-0.92,0.0
8.382,0.293,-0.922,0.0
8.044,0.28,-0.931,0.0
7.74,0.268,-0.939,0.0
7.426,0.256,-0.942,0.0
9.196,0.314,-0.905,0.0
8.746,0.297,-0.91,0.0
8.425,0.284,-0.923,0.0
8.068,0.271,-0.93,0.0
7.757,0.259,-0.937,0.0
7.436,0.247,-0.94,0.0
9.247,0.304,-0.906,0.0
8.831,0.289,-0.914,0.0
8.481,0.276,-0.925,0.0
8.144,0.263,-0.934,0.0
7.831,0.252,-0.941,0.0
7.474,0.239,-0.94,0.0
9.28,0.294,-0.904,0.0
8.894,0.28,-0.915,0.0
8.481,0.265,-0.92,0.0
8.184,0.254,-0.934,0.0
7.818,0.241,-0.935,0.0
7.536,0.231,-0.943,0.0
9.321,0.284,-0.902,0.0
8.924,0.27,-0.913,0.0
8.526,0.256,-0.919,0.0
8.263,0.246,-0.937,0.0
7.835,0.232,-0.932,0.0
7.556,0.222,-0.941,0.0
9.408,0.275,-0.904,0.0
8.986,0.261,-0.913,0.0
8.533,0.246,-0.914,0.0
8.207,0.235,-0.925,0.0
7.896,0.224,-0.934,0.0
7.575,0.214,-0.938,0.0
9.415,0.264,-0.899,0.0
9.048,0.252,-0.913,0.0
8.65,0.239,-0.921,0.0
8.314,0.228,-0.932,0.0
7.964,0.217,-0.936,0.0
7.648,0.206,-0.942,0.0
9.511,0.255,-0.901,0.0
9.113,0.242,-0.913,0.0
8.667,0.229,-0.916,0.0
8.298,0.217,-0.924,0.0
7.945,0.206,-0.928,0.0
7.666,0.198,-0.938,0.0
9.549,0.245,-0.897,0.0
9.17,0.233,-0.912,0.0
8.742,0.22,-0.917,0.0
8.3,0.207,-0.917,0.0
8.104,0.201,-0.94,0.0
7.701,0.189,-0.936,0.0
9.627,0.235,-0.896,0.0
9.223,0.223,-0.909,0.0
8.825,0.212,-0.918,0.0
8.427,0.201,-0.924,0.0
8.151,0.192,-0.938,0.0
7.768,0.182,-0.937,0.0
9.746,0.226,-0.899,0.0
9.29,0.214,-0.908,0.0
8.846,0.202,-0.913,0.0
8.471,0.192,-0.921,0.0
8.171,0.183,-0.933,0.0
7.835,0.174,-0.938,0.0
9.772,0.216,-0.892,0.0
9.408,0.206,-0.911,0.0
8.924,0.193,-0.912,0.0
8.497,0.182,-0.916,0.0
8.233,0.175,-0.933,0.0
7.863,0.165,-0.934,0.0
9.861,0.206,-0.891,0.0
9.412,0.195,-0.902,0.0
9.023,0.185,-0.914,0.0
8.623,0.175,-0.921,0.0
8.266,0.166,-0.928,0.0
7.894,0.157,-0.93,0.0
9.944,0.196,-0.889,0.0
9.504,0.186,-0.901,0.0
9.097,0.176,-0.912,0.0
0.0,0.0,0.0,0.0
8.383,0.159,-0.933,0.0
7.978,0.15,-0.931,0.0
10.063,0.187,-0.889,0.0
9.637,0.178,-0.904,0.0
9.179,0.167,-0.91,0.0
0.0,0.0,0.0,0.0
8.412,0.15,-0.927,0.0
8.063,0.142,-0.932,0.0
10.209,0.179,-0.891,0.0
9.721,0.168,-0.901,0.0
9.281,0.159,-0.91,0.0
8.899,0.15,-0.922,0.0
8.475,0.141,-0.924,0.0
8.19,0.135,-0.938,0.0
10.275,0.168,-0.885,0.0
9.824,0.159,-0.899,0.0
9.398,0.15,-0.911,0.0
8.958,0.141,-0.918,0.0
8.572,0.134,-0.925,0.0
8.18,0.126,-0.927,0.0
10.357,0.159,-0.88,0.0
9.907,0.15,-0.895,0.0
9.486,0.141,-0.909,0.0
0.0,0.0,0.0,0.0
8.595,0.125,-0.917,0.0
8.273,0.119,-0.928,0.0
10.432,0.149,-0.874,0.0
9.989,0.14,-0.891,0.0
9.534,0.132,-0.902,0.0
9.129,0.125,-0.914,0.0
8.684,0.117,-0.916,0.0
8.398,0.111,-0.931,0.0
10.571,0.139,-0.873,0.0
10.087,0.131,-0.887,0.0
9.695,0.124,-0.905,0.0
9.216,0.116,-0.911,0.0
8.905,0.111,-0.928,0.0
8.439,0.103,-0.925,0.0
10.703,0.13,-0.87,0.0
10.23,0.122,-0.886,0.0
9.764,0.115,-0.899,0.0
9.311,0.108,-0.908,0.0
8.836,0.101,-0.909,0.0
8.496,0.095,-0.92,0.0
10.872,0.121,-0.87,0.0
10.291,0.113,-0.878,0.0
9.894,0.107,-0.897,0.0
9.428,0.1,-0.907,0.0
9.077,0.094,-0.922,0.0
8.64,0.088,-0.924,0.0
11.088,0.113,-0.872,0.0
10.451,0.104,-0.878,0.0
9.976,0.098,-0.891,0.0
9.548,0.092,-0.905,0.0
9.125,0.086,-0.914,0.0
8.745,0.081,-0.923,0.0
11.237,0.104,-0.868,0.0
10.574,0.095,-0.873,0.0
10.126,0.09,-0.89,0.0
9.607,0.083,-0.897,0.0
9.206,0.078,-0.909,0.0
8.819,0.073,-0.918,0.0
11.361,0.094,-0.862,0.0
10.713,0.087,-0.87,0.0
10.226,0.081,-0.885,0.0
9.795,0.076,-0.901,0.0
9.353,0.071,-0.91,0.0
8.964,0.066,-0.92,0.0
11.496,0.085,-0.855,0.0
10.871,0.078,-0.866,0.0
10.343,0.072,-0.879,0.0
9.916,0.068,-0.897,0.0
9.477,0.063,-0.908,0.0
9.092,0.059,-0.92,0.0
11.647,0.075,-0.849,0.0
11.062,0.07,-0.865,0.0
10.458,0.064,-0.874,0.0
10.043,0.06,-0.893,0.0
9.647,0.056,-0.91,0.0
9.169,0.051,-0.913,0.0
11.884,0.066,-0.848,0.0
11.304,0.061,-0.867,0.0
10.669,0.056,-0.875,0.0
10.17,0.052,-0.889,0.0
9.748,0.048,-0.904,0.0
9.277,0.044,-0.91,0.0
12.17,0.058,-0.85,0.0
11.426,0.052,-0.858,0.0
10.782,0.048,-0.867,0.0
10.299,0.044,-0.884,0.0
9.866,0.04,-0.899,0.0
9.418,0.037,-0.909,0.0
12.479,0.049,-0.852,0.0
11.615,0.044,-0.854,0.0
11.028,0.04,-0.869,0.0
10.437,0.036,-0.879,0.0
10.016,0.033,-0.897,0.0
9.565,0.03,-0.907,0.0
12.7,0.04,-0.846,0.0
11.818,0.035,-0.85,0.0
11.262,0.032,-0.869,0.0
10.627,0.028,-0.878,0.0
10.163,0.026,-0.893,0.0
9.687,0.023,-0.903,0.0
13.092,0.031,-0.851,0.0
12.139,0.027,-0.853,0.0
11.381,0.024,-0.859,0.0
10.779,0.021,-0.872,0.0
10.32,0.018,-0.889,0.0
9.855,0.016,-0.902,0.0
13.416,0.022,-0.849,0.0
12.422,0.019,-0.851,0.0
11.603,0.016,-0.856,0.0
10.966,0.013,-0.868,0.0
10.429,0.011,-0.881,0.0
9.995,0.009,-0.897,0.0
13.638,0.013,-0.84,0.0
12.626,0.01,-0.844,0.0
11.802,0.008,-0.851,0.0
11.255,0.006,-0.872,0.0
10.597,0.004,-0.877,0.0
10.164,0.003,-0.894,0.0
13.932,0.004,-0.834,0.0
13.068,0.002,-0.851,0.0
12.124,0.0,-0.853,0.0
11.391,0.0,-0.862,0.0
10.781,-0.002,-0.873,0.0
10.303,-0.003,-0.889,0.0
14.298,-0.004,-0.831,0.0
13.385,-0.005,-0.848,0.0
12.442,-0.007,-0.853,0.0
11.602,-0.008,-0.858,0.0
10.99,-0.009,-0.87,0.0
10.451,-0.009,-0.882,0.0
14.564,-0.013,-0.82,0.0
13.708,-0.014,-0.843,0.0
12.836,-0.015,-0.857,0.0
11.827,-0.015,-0.853,0.0
11.258,-0.016,-0.871,0.0
10.637,-0.016,-0.879,0.0
14.987,-0.022,-0.816,0.0
14.016,-0.022,-0.837,0.0
13.026,-0.022,-0.846,0.0
12.152,-0.022,-0.854,0.0
11.441,-0.022,-0.864,0.0
10.824,-0.022,-0.874,0.0
15.384,-0.031,-0.81,0.0
14.288,-0.03,-0.827,0.0
13.476,-0.03,-0.85,0.0
12.448,-0.029,-0.852,0.0
11.643,-0.029,-0.857,0.0
11.063,-0.028,-0.873,0.0
15.922,-0.04,-0.809,0.0
14.656,-0.038,-0.821,0.0
13.787,-0.038,-0.844,0.0
12.879,-0.037,-0.857,0.0
11.905,-0.035,-0.854,0.0
11.265,-0.034,-0.867,0.0
16.44,-0.049,-0.804,0.0
15.128,-0.047,-0.819,0.0
14.049,-0.045,-0.833,0.0
13.105,-0.043,-0.847,0.0
12.27,-0.042,-0.857,0.0
11.472,-0.04,-0.861,0.0
16.872,-0.058,-0.793,0.0
15.482,-0.055,-0.808,0.0
14.456,-0.052,-0.83,0.0
13.461,-0.05,-0.844,0.0
12.615,-0.048,-0.857,0.0
11.719,-0.046,-0.857,0.0
17.42,-0.067,-0.785,0.0
15.998,-0.063,-0.804,0.0
14.835,-0.06,-0.823,0.0
13.8,-0.057,-0.839,0.0
12.971,-0.054,-0.856,0.0
12.05,-0.052,-0.858,0.0
17.954,-0.076,-0.774,0.0
16.582,-0.071,-0.801,0.0
15.239,-0.067,-0.816,0.0
14.165,-0.063,-0.833,0.0
13.284,-0.06,-0.85,0.0
12.388,-0.057,-0.858,0.0
18.58,-0.085,-0.765,0.0
17.006,-0.079,-0.788,0.0
15.65,-0.074,-0.807,0.0
14.581,-0.07,-0.828,0.0
13.642,-0.066,-0.846,0.0
12.827,-0.063,-0.862,0.0
19.256,-0.094,-0.755,0.0
17.66,-0.087,-0.783,0.0
16.351,-0.082,-0.81,0.0
14.972,-0.076,-0.821,0.0
13.97,-0.072,-0.838,0.0
13.118,-0.068,-0.855,0.0
20.224,-0.104,-0.752,0.0
18.153,-0.094,-0.769,0.0
16.847,-0.089,-0.801,0.0
15.426,-0.082,-0.815,0.0
14.365,-0.077,-0.833,0.0
13.394,-0.073,-0.847,0.0
20.832,-0.112,-0.733,0.0
18.894,-0.103,-0.762,0.0
17.272,-0.095,-0.786,0.0
15.904,-0.088,-0.808,0.0
14.737,-0.082,-0.825,0.0
13.8,-0.078,-0.844,0.0
21.79,-0.121,-0.722,0.0
19.704,-0.111,-0.755,0.0
17.832,-0.101,-0.775,0.0
16.505,-0.094,-0.805,0.0
15.213,-0.087,-0.82,0.0
14.188,-0.082,-0.839,0.0
22.738,-0.13,-0.708,0.0
20.427,-0.118,-0.741,0.0
18.526,-0.108,-0.768,0.0
17.039,-0.099,-0.796,0.0
15.667,-0.092,-0.813,0.0
14.546,-0.086,-0.83,0.0
23.535,-0.137,-0.685,0.0
21.351,-0.125,-0.731,0.0
19.22,-0.114,-0.758,0.0
17.63,-0.105,-0.788,0.0
16.253,-0.097,-0.81,0.0
14.977,-0.09,-0.824,0.0
25.028,-0.148,-0.676,0.0
22.141,-0.132,-0.713,0.0
20.081,-0.12,-0.75,0.0
18.146,-0.109,-0.773,0.0
16.866,-0.102,-0.806,0.0
15.488,-0.094,-0.82,0.0
26.398,-0.158,-0.659,0.0
23.272,-0.139,-0.701,0.0
20.827,-0.125,-0.735,0.0
18.944,-0.114,-0.768,0.0
17.312,-0.105,-0.791,0.0
15.829,-0.096,-0.805,0.0
27.89,-0.167,-0.638,0.0
24.587,-0.147,-0.689,0.0
21.821,-0.131,-0.724,0.0
19.673,-0.118,-0.757,0.0
17.913,-0.108,-0.781,0.0
16.53,-0.1,-0.806,0.0
29.793,-0.177,-0.62,0.0
25.754,-0.153,-0.669,0.0
22.914,-0.137,-0.713,0.0
20.455,-0.122,-0.744,0.0
18.674,-0.111,-0.776,0.0
17.015,-0.101,-0.795,0.0
31.592,-0.186,-0.592,0.0
27.334,-0.161,-0.653,0.0
23.891,-0.14,-0.694,0.0
21.249,-0.125,-0.729,0.0
19.237,-0.113,-0.759,0.0
17.654,-0.103,-0.788,0.0
34.335,-0.199,-0.572,0.0
28.98,-0.167,-0.632,0.0
25.07,-0.144,-0.676,0.0
22.337,-0.128,-0.719,0.0
20.11,-0.115,-0.751,0.0
18.312,-0.105,-0.779,0.0
0.0,0.0,0.0,0.0
30.749,-0.173,-0.606,0.0
26.598,-0.149,-0.661,0.0
23.336,-0.13,-0.703,0.0
20.936,-0.117,-0.738,0.0
19.008,-0.105,-0.768,0.0
39.997,-0.219,-0.5,0.0
0.0,0.0,0.0,0.0
0.0,0.0,0.0,0.0
24.452,-0.132,-0.686,0.0
21.963,-0.118,-0.729,0.0
19.775,-0.105,-0.758,0.0
42.407,-0.223,-0.441,0.0
35.186,-0.184,-0.547,0.0
29.829,-0.155,-0.617,0.0
25.867,-0.133,-0.671,0.0
22.86,-0.117,-0.71,0.0
20.551,-0.104,-0.744,0.0
46.342,-0.231,-0.384,0.0
0.0,0.0,0.0,0.0
0.0,0.0,0.0,0.0
27.73,-0.135,-0.66,0.0
24.11,-0.116,-0.699,0.0
21.567,-0.103,-0.736,0.0
0.0,0.0,0.0,0.0
40.661,-0.189,-0.46,0.0
34.563,-0.159,-0.569,0.0
29.329,-0.134,-0.637,0.0
25.441,-0.115,-0.684,0.0
22.456,-0.1,-0.719,0.0
0.0,0.0,0.0,0.0
45.516,-0.196,-0.42,0.0
37.05,-0.158,-0.532,0.0
0.0,0.0,0.0,0.0
26.515,-0.11,-0.656,0.0
23.652,-0.097,-0.707,0.0
0.0,0.0,0.0,0.0
0.0,0.0,0.0,0.0
0.0,0.0,0.0,0.0
32.85,-0.125,-0.576,0.0
28.259,-0.106,-0.641,0.0
0.0,0.0,0.0,0.0
0.0,0.0,0.0,0.0
0.0,0.0,0.0,0.0
44.882,-0.156,-0.458,1.0
35.743,-0.121,-0.552,0.0
30.543,-0.101,-0.629,0.0
25.901,-0.084,-0.666,0.0
0.0,0.0,0.0,0.0
0.0,0.0,0.0,0.0
0.0,0.0,0.0,0.0
38.547,-0.113,-0.515,0.0
0.0,0.0,0.0,0.0
0.0,0.0,0.0,0.0
0.0,0.0,0.0,0.0
0.0,0.0,0.0,0.0
0.0,0.0,0.0,0.0
41.402,-0.101,-0.467,0.0
0.0,0.0,0.0,0.0
29.653,-0.067,-0.64,0.0
110.943,-0.24,0.705,11.0
0.0,0.0,0.0,0.0
0.0,0.0,0.0,0.0
45.291,-0.085,-0.416,1.0
37.499,-0.067,-0.538,0.0
31.108,-0.053,-0.607,0.0
117.431,-0.189,0.986,5.0
0.0,0.0,0.0,0.0
0.0,0.0,0.0,0.0
0.0,0.0,0.0,0.0
40.145,-0.049,-0.493,0.0
0.0,0.0,0.0,0.0
117.443,-0.119,1.231,16.0
110.597,-0.101,0.589,6.0
0.0,0.0,0.0,0.0
55.463,-0.039,-0.281,0.0
44.92,-0.027,-0.46,1.0
0.0,0.0,0.0,0.0
111.109,-0.043,1.393,15.0
111.101,-0.031,0.82,9.0
95.528,-0.016,0.212,2.0
0.0,0.0,0.0,0.0
45.749,0.002,-0.374,0.0
0.0,0.0,0.0,0.0
111.07,0.029,1.62,10.0
111.154,0.042,1.048,10.0
95.504,0.047,0.408,3.0
0.0,0.0,0.0,0.0
0.0,0.0,0.0,0.0
44.783,0.038,-0.506,0.0
112.788,0.11,1.877,7.0
111.166,0.122,1.277,20.0
110.66,0.134,0.698,8.0
0.0,0.0,0.0,0.0
0.0,0.0,0.0,0.0
45.463,0.072,-0.422,1.0
112.597,0.192,2.101,9.0
111.082,0.204,1.499,17.0
111.103,0.218,0.924,9.0
93.242,0.195,0.285,2.0
0.0,0.0,0.0,0.0
49.641,0.117,-0.36,0.0
119.862,0.298,2.479,18.0
119.845,0.314,1.859,15.0
119.735,0.329,1.238,10.0
103.9,0.3,0.527,7.0
0.0,0.0,0.0,0.0
0.0,0.0,0.0,0.0
119.764,0.393,2.714,2.0
119.875,0.411,2.097,150.0
119.738,0.427,1.476,9.0
110.825,0.411,0.781,9.0
90.375,0.348,0.168,1.0
0.0,0.0,0.0,0.0
119.82,0.494,2.954,13.0
193.537,0.828,3.771,22.0
111.181,0.491,1.59,20.0
111.049,0.507,1.001,18.0
91.054,0.43,0.35,2.0
0.0,0.0,0.0,0.0
111.15,0.556,2.96,17.0
111.131,0.573,2.383,23.0
111.076,0.59,1.806,26.0
111.039,0.607,1.22,27.0
104.604,0.589,0.608,9.0
87.229,0.504,0.053,1.0
111.072,0.657,3.174,26.0
111.056,0.675,2.598,27.0
111.069,0.693,2.023,33.0
111.082,0.71,1.434,9.0
104.967,0.688,0.81,24.0
86.212,0.578,0.217,3.0
111.059,0.761,3.387,13.0
111.052,0.778,2.807,14.0
104.86,0.752,2.106,16.0
0.0,0.0,0.0,0.0
104.836,0.787,1.007,7.0
97.743,0.749,0.43,5.0
104.679,0.818,3.39,21.0
104.723,0.836,2.847,27.0
104.716,0.853,2.301,6.0
100.281,0.835,1.673,3.0
104.764,0.89,1.203,12.0
98.339,0.853,0.619,14.0
69.712,0.614,2.388,15.0
104.706,0.941,3.042,39.0
104.704,0.96,2.498,21.0
104.729,0.978,1.942,20.0
104.722,0.996,1.397,15.0
98.545,0.956,0.802,15.0
104.555,1.029,3.776,28.0
98.834,0.99,3.054,16.0
98.753,1.007,2.535,20.0
98.679,1.024,2.01,20.0
98.629,1.042,1.496,25.0
98.576,1.059,0.982,27.0
98.125,1.07,3.724,18.0
69.846,0.774,2.286,9.0
98.646,1.112,2.714,21.0
98.568,1.13,2.188,26.0
98.55,1.148,1.674,31.0
98.543,1.167,1.16,31.0
98.64,1.183,3.922,21.0
69.868,0.851,2.412,9.0
98.578,1.22,2.89,26.0
98.534,1.238,2.364,31.0
98.545,1.257,1.849,29.0
98.521,1.275,1.334,29.0
98.264,1.288,4.082,22.0
69.78,0.928,2.533,9.0
69.785,0.942,2.169,10.0
98.524,1.349,2.536,31.0
98.618,1.369,2.023,29.0
98.55,1.388,1.507,25.0
98.137,1.398,4.248,26.0
69.872,1.009,2.659,16.0
69.969,1.024,2.295,12.0
98.526,1.462,2.706,23.0
119.938,1.804,2.667,55.0
99.337,1.514,1.688,14.0
78.734,1.214,3.544,22.0
120.465,1.883,4.792,16.0
70.101,1.109,2.421,8.0
119.896,1.922,3.499,9.0
91.964,1.493,2.202,18.0
91.9,1.511,1.719,34.0
92.261,1.535,4.313,10.0
78.747,1.325,3.266,6.0
70.119,1.195,2.541,5.0
91.97,1.587,2.841,16.0
91.855,1.604,2.354,32.0
91.785,1.622,1.872,4.0
85.498,1.527,4.14,13.0
78.759,1.423,3.398,9.0
70.223,1.284,2.661,10.0
91.851,1.699,2.99,35.0
91.772,1.717,2.505,26.0
87.109,1.648,1.92,37.0
91.406,1.748,4.578,11.0
91.507,1.769,4.101,8.0
78.81,1.54,3.116,9.0
91.736,1.812,3.134,29.0
91.854,1.835,2.656,29.0
91.882,1.856,2.174,11.0
84.961,1.733,4.393,10.0
85.335,1.76,3.962,27.0
85.343,1.778,3.513,9.0
85.303,1.796,3.052,29.0
85.326,1.815,2.603,34.0
85.295,1.833,2.153,31.0
82.417,1.789,4.392,13.0
85.318,1.871,4.097,34.0
85.288,1.89,3.645,33.0
78.89,1.765,2.947,28.0
85.261,1.928,2.737,33.0
85.242,1.946,2.286,35.0
81.037,1.868,4.447,4.0
85.346,1.986,4.232,27.0
85.354,2.006,3.78,28.0
85.309,2.023,3.319,23.0
85.285,2.042,2.867,14.0
85.277,2.062,2.418,26.0
80.6,1.967,4.546,6.0
83.566,2.058,4.271,10.0
116.702,2.901,5.347,15.0
78.854,1.978,3.187,3.0
78.843,1.995,2.769,25.0
78.988,2.018,2.357,10.0
78.776,2.031,4.562,11.0
78.786,2.049,4.144,20.0
78.8,2.068,3.727,32.0
78.811,2.086,3.302,35.0
78.805,2.105,2.885,32.0
78.831,2.124,2.467,29.0
72.237,1.964,4.29,16.0
78.817,2.16,4.261,24.0
78.812,2.18,3.843,28.0
78.827,2.198,3.417,30.0
78.842,2.216,2.999,21.0
78.821,2.235,2.58,24.0
70.955,2.03,4.316,12.0
72.827,2.1,4.041,9.0
79.524,2.312,3.99,8.0
115.891,3.396,5.187,21.0
117.864,3.482,4.648,11.0
78.839,2.347,2.69,27.0
88.693,2.665,5.519,4.0
72.155,2.185,4.104,18.0
82.168,2.507,4.236,7.0
115.146,3.541,5.312,16.0
118.096,3.659,4.818,11.0
78.883,2.462,2.798,5.0
65.553,2.064,4.168,25.0
72.083,2.286,4.197,11.0
72.533,2.318,3.836,9.0
72.487,2.334,3.44,24.0
72.465,2.351,3.053,28.0
72.48,2.369,2.668,27.0
65.824,2.17,4.272,6.0
71.945,2.389,4.285,10.0
72.244,2.416,3.917,23.0
72.347,2.436,3.527,16.0
72.371,2.455,3.143,37.0
72.401,2.474,2.758,37.0
66.539,2.292,4.404,21.0
65.741,2.281,4.0,15.0
72.128,2.519,4.002,21.0
72.272,2.542,3.616,20.0
72.387,2.564,3.234,34.0
72.414,2.582,2.848,28.0
44.619,1.604,3.01,3.0
65.837,2.383,4.087,11.0
66.369,2.418,3.764,24.0
66.152,2.427,3.391,41.0
66.314,2.448,3.043,14.0
72.562,2.697,2.942,14.0
40.922,1.533,2.81,23.0
71.944,2.713,4.554,13.0
65.621,2.49,3.8,26.0
66.147,2.526,3.469,17.0
66.219,2.545,3.118,24.0
66.17,2.56,2.761,20.0
40.799,1.591,2.849,27.0
44.823,1.759,2.889,24.0
65.198,2.575,3.852,40.0
65.946,2.621,3.535,16.0
52.852,2.113,2.548,10.0
66.163,2.662,2.836,18.0
40.816,1.655,2.898,40.0
41.097,1.677,2.696,22.0
64.879,2.663,3.906,13.0
65.581,2.707,3.588,41.0
65.934,2.738,3.253,16.0
65.977,2.757,2.9,14.0
40.608,1.71,2.927,39.0
40.976,1.736,2.733,34.0
41.032,1.748,2.515,3.0
0.0,0.0,0.0,0.0
65.981,2.844,3.326,20.0
52.777,2.288,2.376,26.0
40.541,1.771,2.966,49.0
41.066,1.804,2.782,39.0
59.398,2.624,3.703,10.0
52.96,2.352,3.01,6.0
52.941,2.364,2.722,8.0
52.916,2.377,2.436,22.0
40.431,1.83,2.999,46.0
40.818,1.857,2.807,47.0
41.071,1.879,2.601,39.0
59.444,2.734,3.437,10.0
59.523,2.752,3.12,8.0
52.597,2.445,2.472,7.0
40.481,1.896,3.042,38.0
40.803,1.921,2.845,36.0
40.97,1.939,2.634,43.0
41.934,1.995,2.464,23.0
59.462,2.843,3.172,10.0
59.44,2.856,2.849,24.0
40.57,1.964,3.087,35.0
40.667,1.979,2.873,43.0
40.963,2.003,2.671,46.0
41.665,2.047,2.486,19.0
41.794,2.064,2.267,13.0
52.696,2.616,2.573,19.0
40.524,2.026,3.119,21.0
40.679,2.044,2.91,39.0
40.901,2.065,2.703,35.0
41.342,2.097,2.503,21.0
41.754,2.128,2.301,14.0
52.851,2.707,2.625,26.0
40.377,2.084,3.143,43.0
40.741,2.112,2.949,49.0
40.881,2.129,2.736,42.0
41.164,2.154,2.526,29.0
59.351,3.12,3.319,7.0
52.935,2.796,2.673,26.0
40.411,2.15,3.179,37.0
40.689,2.175,2.978,41.0
40.902,2.196,2.77,38.0
40.915,2.206,2.543,42.0
59.4,3.218,3.368,13.0
52.695,2.867,2.701,26.0
40.613,2.226,3.226,41.0
41.059,2.26,3.036,32.0
40.91,2.262,2.801,38.0
41.01,2.277,2.58,41.0
41.299,2.304,2.373,16.0
52.476,2.94,2.728,17.0
40.578,2.29,3.253,40.0
40.89,2.317,3.053,26.0
41.087,2.338,2.842,36.0
41.03,2.344,2.61,33.0
41.678,2.391,2.423,16.0
52.742,3.039,2.778,13.0
40.582,2.356,3.281,44.0
41.388,2.412,3.118,42.0
41.4,2.422,2.892,39.0
41.778,2.455,2.685,10.0
41.692,2.46,2.451,16.0
41.862,2.48,2.232,5.0
41.406,2.471,3.374,42.0
41.348,2.477,3.142,28.0
41.416,2.491,2.919,31.0
41.395,2.499,2.686,8.0
41.551,2.519,2.469,41.0
53.159,3.235,2.867,6.0
41.56,2.548,3.412,44.0
50.912,3.133,3.899,7.0
41.649,2.572,2.96,33.0
41.57,2.577,2.722,17.0
41.632,2.59,2.497,24.0
52.404,3.273,2.856,18.0
43.902,2.761,3.629,6.0
41.874,2.643,3.23,16.0
41.673,2.64,2.985,41.0
41.478,2.637,2.738,16.0
41.543,2.65,2.513,31.0
52.287,3.348,2.876,5.0
41.988,2.708,3.492,14.0
42.056,2.721,3.265,14.0
41.731,2.71,3.009,22.0
41.489,2.703,2.759,38.0
41.507,2.714,2.531,42.0
52.259,3.429,2.9,17.0
41.85,2.765,3.5,21.0
42.195,2.798,3.296,17.0
51.412,3.421,3.731,9.0
41.556,2.774,2.782,38.0
41.51,2.78,2.55,24.0
41.514,2.79,2.321,40.0
41.77,2.827,3.512,26.0
41.863,2.842,3.287,30.0
41.855,2.851,3.055,16.0
41.433,2.831,2.791,39.0
41.588,2.851,2.571,38.0
52.34,3.6,2.947,17.0
41.611,2.882,3.515,37.0
41.902,2.911,3.306,21.0
45.985,3.205,3.373,5.0
41.478,2.899,2.808,38.0
41.636,2.919,2.589,38.0
52.53,3.695,2.976,10.0
41.467,2.937,3.516,41.0
41.648,2.958,3.3,24.0
41.683,2.97,3.072,30.0
41.637,2.975,2.832,34.0
41.561,2.979,2.597,43.0
41.718,2.999,2.376,5.0
41.546,3.008,3.536,31.0
41.551,3.017,3.305,38.0
41.641,3.032,3.08,41.0
41.785,3.052,2.855,38.0
41.567,3.045,2.609,37.0
41.726,3.066,2.387,10.0
41.471,3.067,3.54,28.0
41.505,3.079,3.312,45.0
41.664,3.099,3.093,27.0
41.825,3.12,2.867,35.0
45.995,3.441,2.897,4.0
79.489,5.963,4.567,10.0
41.404,3.127,3.544,37.0
41.57,3.148,3.326,25.0
41.651,3.162,3.1,37.0
45.927,3.496,3.157,16.0
45.949,3.508,2.903,38.0
46.004,3.522,2.651,3.0
41.32,3.184,3.544,38.0
41.744,3.225,3.346,29.0
41.619,3.224,3.104,46.0
41.843,3.25,2.883,18.0
45.895,3.574,2.906,17.0
45.916,3.585,2.652,13.0
41.345,3.25,3.551,40.0
41.649,3.281,3.344,37.0
41.622,3.287,3.109,39.0
45.936,3.637,3.17,6.0
45.841,3.639,2.908,24.0
45.84,3.648,2.652,20.0
41.303,3.308,3.552,38.0
41.499,3.332,3.335,30.0
41.674,3.354,3.116,35.0
41.787,3.371,2.887,31.0
45.74,3.699,2.904,45.0
45.793,3.713,2.652,39.0
41.418,3.38,3.563,39.0
45.553,3.725,3.664,3.0
41.69,3.417,3.119,31.0
41.698,3.426,2.882,35.0
45.722,3.765,2.904,38.0
45.775,3.779,2.652,39.0
41.328,3.433,3.556,33.0
41.354,3.443,3.326,29.0
41.845,3.492,3.13,17.0
41.723,3.49,2.883,43.0
45.746,3.835,2.905,36.0
45.794,3.848,2.651,34.0
41.317,3.494,3.554,34.0
41.388,3.507,3.327,32.0
41.503,3.524,3.102,19.0
41.741,3.552,2.882,14.0
45.772,3.903,2.903,31.0
45.838,3.918,2.651,33.0
41.329,3.555,3.551,29.0
41.446,3.572,3.328,18.0
41.607,3.593,3.107,27.0
45.836,3.967,3.16,4.0
45.835,3.975,2.903,33.0
85.297,7.413,4.924,12.0
41.461,3.625,3.558,11.0
41.531,3.638,3.329,29.0
41.572,3.649,3.099,33.0
45.85,4.032,3.155,13.0
57.516,5.069,3.635,6.0
0.0,0.0,0.0,0.0
41.529,3.689,3.557,13.0
41.746,3.716,3.34,33.0
41.497,3.701,3.086,42.0
41.692,3.725,2.861,31.0
73.24,6.558,4.614,5.0
0.0,0.0,0.0,0.0
41.526,3.747,3.549,33.0
41.495,3.751,3.312,39.0
41.471,3.755,3.076,48.0
41.695,3.782,2.853,27.0
73.025,6.637,4.585,9.0
72.72,6.621,4.157,18.0
41.557,3.806,3.542,24.0
41.48,3.805,3.3,38.0
41.508,3.814,3.068,42.0
44.748,4.119,3.05,27.0
72.739,6.708,4.548,10.0
84.693,7.824,4.819,27.0
41.551,3.861,3.53,27.0
41.459,3.859,3.287,46.0
41.633,3.881,3.065,38.0
44.54,4.159,3.023,29.0
44.611,4.173,2.776,8.0
73.531,6.891,4.161,17.0
41.725,3.932,3.531,38.0
41.504,3.917,3.278,44.0
44.365,4.193,3.252,4.0
44.106,4.176,2.979,26.0
44.619,4.231,2.762,15.0
73.017,6.937,4.107,23.0
41.832,3.996,3.525,32.0
41.623,3.982,3.272,32.0
44.395,4.253,3.238,3.0
43.335,4.158,2.911,29.0
72.726,6.99,4.474,11.0
72.99,7.026,4.078,34.0
41.959,4.061,3.52,35.0
41.655,4.037,3.258,30.0
41.978,4.074,3.045,12.0
43.288,4.208,2.89,31.0
72.85,7.093,4.452,30.0
72.984,7.116,4.047,24.0
41.985,4.116,3.504,40.0
44.349,4.353,3.45,9.0
42.173,4.145,3.04,16.0
42.882,4.22,2.844,17.0
73.09,7.204,4.434,24.0
73.132,7.22,4.022,8.0
42.026,4.17,3.488,14.0
42.619,4.234,3.295,17.0
42.699,4.248,3.058,28.0
42.828,4.267,2.82,15.0
73.179,7.3,4.403,18.0
88.531,8.845,4.826,30.0
44.037,4.422,3.633,5.0
42.775,4.3,3.285,31.0
42.751,4.303,3.04,28.0
55.316,5.574,3.614,6.0
73.455,7.413,4.382,25.0
88.557,8.949,4.781,36.0
44.08,4.477,3.613,30.0
42.905,4.362,3.272,25.0
43.243,4.402,3.051,18.0
44.591,4.544,2.889,9.0
73.414,7.492,4.339,18.0
