X,Y,Z,Reflectivity
44.215,4.578,3.346,24.0
42.901,4.443,2.996,23.0
42.7,4.423,2.737,3.0
87.885,9.106,5.129,19.0
44.04,4.577,3.793,15.0
44.17,4.591,3.549,32.0
43.532,4.525,3.247,18.0
42.772,4.446,2.94,41.0
58.172,6.049,3.664,13.0
87.668,9.118,5.019,24.0
44.14,4.603,3.753,17.0
44.146,4.604,3.498,41.0
42.684,4.452,3.136,38.0
42.78,4.462,2.893,33.0
58.486,6.101,3.619,15.0
87.52,9.132,4.912,23.0
44.194,4.624,3.707,32.0
44.113,4.615,3.446,37.0
42.784,4.476,3.095,22.0
0.0,0.0,0.0,0.0
87.457,9.151,5.312,17.0
87.388,9.144,4.807,19.0
43.993,4.615,3.64,46.0
44.11,4.627,3.395,18.0
0.0,0.0,0.0,0.0
42.69,4.477,2.789,12.0
87.327,9.16,5.204,20.0
87.261,9.154,4.698,23.0
43.889,4.615,3.58,45.0
0.0,0.0,0.0,0.0
0.0,0.0,0.0,0.0
42.672,4.485,2.737,14.0
87.249,9.171,5.097,21.0
87.146,9.16,4.59,22.0
43.975,4.633,3.534,42.0
42.677,4.495,3.184,10.0
42.86,4.514,2.95,24.0
58.234,6.132,3.667,24.0
87.114,9.172,4.985,23.0
87.079,9.169,4.483,28.0
44.039,4.646,3.487,29.0
0.0,0.0,0.0,0.0
42.86,4.52,2.898,17.0
58.301,6.147,3.601,17.0
87.055,9.178,4.876,25.0
87.018,9.173,4.374,21.0
44.081,4.656,3.436,27.0
0.0,0.0,0.0,0.0
42.805,4.518,2.842,20.0
42.646,4.501,2.581,7.0
87.022,9.183,4.768,23.0
86.954,9.174,4.265,21.0
44.269,4.679,3.396,33.0
0.0,0.0,0.0,0.0
42.713,4.511,2.783,25.0
42.618,4.5,2.527,7.0
86.985,9.183,4.658,20.0
86.929,9.175,4.156,23.0
44.433,4.697,3.352,18.0
42.946,4.538,2.993,17.0
58.05,6.132,3.71,23.0
87.007,9.188,5.05,24.0
86.964,9.181,4.547,21.0
86.918,9.174,4.045,22.0
49.505,5.233,3.672,4.0
42.843,4.526,2.93,17.0
58.24,6.151,3.648,24.0
87.031,9.188,4.941,22.0
86.96,9.177,4.437,20.0
86.93,9.171,3.936,24.0
0.0,0.0,0.0,0.0
42.855,4.525,2.876,17.0
58.327,6.155,3.578,8.0
87.026,9.18,4.829,25.0
87.006,9.175,4.327,23.0
86.962,9.166,3.826,22.0
0.0,0.0,0.0,0.0
42.755,4.509,2.814,23.0
42.636,4.494,2.56,9.0
87.099,9.177,4.721,25.0
87.075,9.171,4.218,26.0
87.027,9.162,3.716,22.0
0.0,0.0,0.0,0.0
58.149,6.123,3.752,7.0
87.178,9.175,5.123,15.0
87.14,9.166,4.609,22.0
87.104,9.158,4.106,22.0
87.097,9.153,3.606,25.0
42.849,4.506,2.956,29.0
58.306,6.128,3.686,20.0
87.26,9.165,5.013,24.0
87.217,9.155,4.499,24.0
87.211,9.15,3.997,18.0
87.187,9.143,3.495,10.0
42.832,4.494,2.898,23.0
58.53,6.137,3.622,15.0
87.353,9.153,4.903,18.0
87.346,9.146,4.391,23.0
87.29,9.135,3.886,18.0
85.731,8.967,3.325,7.0
44.512,4.658,2.953,6.0
87.489,9.147,5.299,17.0
87.486,9.14,4.795,22.0
87.457,9.131,4.281,19.0
87.445,9.124,3.777,18.0
85.819,8.949,3.215,7.0
44.627,4.654,2.901,4.0
87.666,9.136,5.194,21.0
87.656,9.128,4.688,22.0
87.609,9.116,4.173,18.0
87.59,9.107,3.669,18.0
86.026,8.939,3.108,4.0
58.186,6.047,3.705,19.0
87.867,9.123,5.089,18.0
87.783,9.106,4.579,19.0
87.784,9.099,4.065,18.0
87.719,9.086,3.558,14.0
86.123,8.914,2.999,8.0
58.326,6.036,3.637,20.0
88.023,9.101,4.981,17.0
87.98,9.088,4.473,17.0
87.895,9.072,3.954,16.0
87.959,9.071,3.453,4.0
86.388,8.902,2.895,6.0
0.0,0.0,0.0,0.0
88.216,9.079,4.875,18.0
88.192,9.068,4.366,20.0
88.116,9.052,3.847,15.0
86.748,8.903,3.289,1.0
86.574,8.879,2.786,11.0
59.722,6.122,3.565,11.0
88.432,9.055,4.769,25.0
88.395,9.043,4.258,23.0
88.385,9.033,3.741,16.0
86.861,8.868,3.177,3.0
86.828,8.858,2.678,12.0
88.51,9.023,5.164,25.0
88.529,9.015,4.657,26.0
88.556,9.008,4.149,20.0
88.525,8.996,3.629,19.0
87.109,8.843,3.072,3.0
87.103,8.834,2.572,10.0
88.532,8.972,5.049,36.0
88.54,8.962,4.541,42.0
88.547,8.954,4.032,36.0
88.555,8.944,3.514,19.0
87.353,8.814,2.966,3.0
87.386,8.809,2.465,6.0
88.544,8.916,4.933,36.0
88.546,8.905,4.424,39.0
88.551,8.896,3.915,35.0
88.436,8.874,3.393,8.0
87.731,8.793,2.863,5.0
87.694,8.78,2.359,10.0
88.521,8.853,4.814,17.0
88.547,8.844,4.306,41.0
88.536,8.831,3.797,30.0
88.111,8.778,3.264,3.0
87.982,8.756,2.755,8.0
88.01,8.748,2.251,8.0
73.173,7.263,3.882,28.0
88.527,8.776,4.188,26.0
88.512,8.763,3.68,20.0
88.223,8.723,3.152,2.0
88.402,8.73,2.652,3.0
88.405,8.72,2.145,5.0
88.602,8.726,4.585,11.0
88.647,8.718,4.078,15.0
88.649,8.706,3.569,13.0
88.679,8.698,3.053,12.0
88.72,8.69,2.546,12.0
88.718,8.68,2.038,12.0
90.659,8.854,4.573,15.0
90.616,8.836,4.05,15.0
90.541,8.816,3.527,16.0
89.069,8.661,2.95,15.0
89.147,8.657,2.442,12.0
89.154,8.646,1.931,11.0
91.081,8.815,4.475,15.0
91.016,8.796,3.95,16.0
91.013,8.782,3.427,6.0
89.478,8.621,2.849,13.0
89.562,8.618,2.339,11.0
89.611,8.61,1.827,10.0
91.557,8.778,4.382,17.0
91.459,8.755,3.851,15.0
89.961,8.598,3.273,1.0
89.922,8.581,2.748,12.0
89.981,8.575,2.234,11.0
90.014,8.565,1.72,11.0
91.969,8.73,4.283,14.0
91.93,8.713,3.754,17.0
90.372,8.55,3.172,2.0
90.403,8.539,2.646,12.0
90.457,8.531,2.131,11.0
90.454,8.519,1.614,11.0
92.494,8.688,4.19,13.0
92.406,8.665,3.657,17.0
90.777,8.498,3.072,5.0
90.864,8.492,2.546,10.0
90.993,8.49,2.03,10.0
90.961,8.474,1.51,11.0
92.944,8.635,4.094,19.0
92.91,8.617,3.561,17.0
91.445,8.465,2.981,11.0
91.435,8.449,2.449,12.0
91.47,8.438,1.927,10.0
91.489,8.425,1.405,9.0
93.019,8.541,3.981,31.0
93.039,8.527,3.449,21.0
91.863,8.403,2.88,7.0
91.941,8.394,2.348,7.0
92.01,8.385,1.824,7.0
92.083,8.378,1.299,9.0
93.014,8.436,3.865,24.0
93.002,8.418,3.333,11.0
92.492,8.356,2.785,10.0
92.529,8.343,2.249,8.0
92.599,8.333,1.722,9.0
92.611,8.32,1.194,10.0
93.067,8.333,3.754,15.0
93.133,8.321,3.224,8.0
93.093,8.3,2.69,10.0
93.173,8.291,2.152,12.0
93.205,8.278,1.621,14.0
93.218,8.263,1.089,14.0
93.12,8.226,3.644,48.0
93.113,8.207,3.112,58.0
93.129,8.191,2.58,67.0
93.129,8.174,2.04,59.0
93.147,8.159,1.509,134.0
45.89,4.012,0.482,11.0
93.116,8.11,3.534,21.0
93.15,8.096,3.004,14.0
45.888,3.979,1.218,15.0
45.82,3.964,0.95,19.0
45.805,3.955,0.689,24.0
45.794,3.946,0.428,23.0
45.899,3.94,1.689,15.0
45.831,3.924,1.424,19.0
45.798,3.912,1.162,27.0
45.776,3.902,0.896,32.0
45.768,3.893,0.635,37.0
45.748,3.882,0.375,28.0
45.826,3.873,1.633,30.0
45.786,3.86,1.371,32.0
45.771,3.849,1.109,37.0
45.754,3.839,0.844,37.0
45.765,3.831,0.583,39.0
45.743,3.82,0.323,33.0
45.806,3.809,1.58,39.0
45.79,3.798,1.319,36.0
45.777,3.787,1.058,43.0
45.774,3.778,0.793,43.0
45.774,3.768,0.532,41.0
45.764,3.758,0.272,33.0
45.82,3.746,1.529,43.0
45.818,3.735,1.268,42.0
45.816,3.726,1.008,38.0
45.817,3.717,0.743,41.0
45.823,3.708,0.482,40.0
45.789,3.696,0.222,31.0
45.867,3.684,1.481,37.0
45.895,3.676,1.221,33.0
45.928,3.669,0.961,20.0
45.942,3.661,0.695,21.0
45.922,3.649,0.434,33.0
45.858,3.634,0.173,16.0
98.819,7.795,3.086,5.0
98.873,7.776,2.526,10.0
98.984,7.763,1.967,9.0
99.043,7.745,1.395,9.0
99.11,7.73,0.833,8.0
45.874,3.568,0.125,2.0
99.635,7.709,3.008,3.0
99.695,7.69,2.443,10.0
99.851,7.68,1.88,9.0
99.925,7.663,1.304,8.0
100.013,7.648,0.738,9.0
52.063,3.97,0.089,7.0
100.597,7.629,2.933,5.0
100.681,7.612,2.365,8.0
100.808,7.598,1.796,8.0
100.852,7.578,1.214,10.0
100.948,7.563,0.643,6.0
46.078,3.442,0.032,12.0
101.865,7.567,2.87,3.0
101.801,7.538,2.291,6.0
101.853,7.519,1.714,6.0
101.846,7.495,1.128,9.0
52.288,3.836,0.283,15.0
45.966,3.362,-0.011,17.0
102.088,7.423,2.778,43.0
102.102,7.398,2.2,54.0
52.315,3.777,0.83,12.0
52.255,3.761,0.528,21.0
52.153,3.741,0.232,15.0
45.908,3.283,-0.054,25.0
52.262,3.715,1.372,18.0
52.23,3.699,1.076,25.0
52.215,3.685,0.78,25.0
52.172,3.669,0.479,26.0
52.065,3.649,0.183,19.0
45.896,3.206,-0.097,26.0
52.205,3.623,1.323,35.0
52.195,3.609,1.027,38.0
52.188,3.596,0.732,38.0
52.188,3.583,0.431,26.0
51.965,3.555,0.136,19.0
45.799,3.121,-0.138,20.0
52.205,3.535,1.276,42.0
52.208,3.521,0.981,40.0
52.223,3.509,0.686,40.0
52.197,3.495,0.385,28.0
51.84,3.458,0.09,17.0
45.477,3.022,-0.176,20.0
52.293,3.452,1.233,4.0
52.306,3.439,0.938,32.0
52.317,3.426,0.643,37.0
52.275,3.41,0.342,25.0
51.736,3.362,0.047,15.0
45.3,2.933,-0.213,19.0
47.544,3.056,1.082,26.0
47.577,3.045,0.814,3.0
110.277,7.03,1.266,8.0
52.4,3.326,0.3,3.0
51.63,3.264,0.005,17.0
45.333,2.854,-0.25,13.0
47.773,2.986,1.048,19.0
47.624,2.964,0.777,41.0
111.098,6.885,1.187,57.0
52.455,3.236,0.259,3.0
51.521,3.166,-0.035,20.0
45.667,2.794,-0.288,17.0
47.977,2.912,1.016,13.0
47.847,2.891,0.743,20.0
47.718,2.87,0.473,40.0
52.451,3.141,0.219,3.0
51.419,3.065,-0.073,20.0
46.336,2.75,-0.327,15.0
48.241,2.84,0.985,7.0
48.033,2.814,0.711,18.0
47.931,2.796,0.44,14.0
59.322,3.444,0.205,10.0
51.286,2.963,-0.11,20.0
46.846,2.694,-0.364,4.0
48.624,2.773,0.958,5.0
48.29,2.741,0.681,9.0
59.4,3.355,0.504,14.0
59.239,3.329,0.163,15.0
51.106,2.858,-0.145,24.0
45.99,2.56,-0.389,0.0
49.015,2.705,0.933,10.0
48.604,2.668,0.652,10.0
59.324,3.24,0.463,27.0
59.157,3.214,0.124,16.0
0.0,0.0,0.0,0.0
42.595,2.291,-0.388,1.0
49.714,2.649,0.914,4.0
48.988,2.596,0.626,6.0
59.375,3.129,0.425,31.0
59.079,3.097,0.086,19.0
0.0,0.0,0.0,0.0
42.503,2.204,-0.414,2.0
50.091,2.574,0.89,16.0
49.46,2.526,0.601,3.0
72.77,3.697,0.477,2.0
58.981,2.979,0.051,17.0
50.361,2.528,-0.238,12.0
42.694,2.131,-0.441,1.0
50.554,2.499,0.869,14.0
50.26,2.469,0.582,2.0
120.064,5.863,0.719,6.0
58.739,2.851,0.017,14.0
51.424,2.48,-0.272,1.0
40.202,1.927,-0.438,0.0
50.83,2.412,0.845,8.0
120.005,5.659,1.324,16.0
66.153,3.099,0.36,12.0
58.667,2.731,-0.014,11.0
52.484,2.428,-0.306,5.0
0.0,0.0,0.0,0.0
66.09,3.007,1.064,24.0
66.069,2.986,0.695,28.0
66.016,2.962,0.326,16.0
58.598,2.611,-0.043,8.0
0.0,0.0,0.0,0.0
39.185,1.723,-0.466,0.0
62.231,2.708,0.972,9.0
61.477,2.656,0.618,9.0
65.955,2.829,0.295,17.0
58.701,2.5,-0.07,11.0
48.858,2.066,-0.331,0.0
39.65,1.664,-0.489,0.0
66.19,2.748,1.005,16.0
66.151,2.725,0.635,29.0
65.929,2.694,0.266,18.0
58.627,2.377,-0.095,3.0
48.751,1.962,-0.351,0.0
0.0,0.0,0.0,0.0
120.112,4.741,1.774,11.0
119.945,4.698,1.103,18.0
65.823,2.557,0.239,11.0
58.555,2.255,-0.118,4.0
48.068,1.836,-0.365,1.0
0.0,0.0,0.0,0.0
72.471,2.712,1.043,20.0
72.378,2.686,0.639,18.0
65.844,2.421,0.215,7.0
58.427,2.13,-0.139,2.0
47.862,1.73,-0.38,0.0
37.562,1.345,-0.507,0.0
72.34,2.559,1.016,32.0
72.356,2.536,0.614,27.0
71.208,2.472,0.209,7.0
59.531,2.049,-0.161,7.0
45.542,1.552,-0.376,1.0
0.0,0.0,0.0,0.0
72.378,2.41,0.995,32.0
72.317,2.385,0.592,35.0
71.182,2.324,0.188,8.0
60.895,1.969,-0.182,3.0
45.51,1.457,-0.388,1.0
0.0,0.0,0.0,0.0
119.982,3.747,1.617,8.0
78.959,2.441,0.626,11.0
70.742,2.164,0.169,11.0
62.379,1.888,-0.202,2.0
45.522,1.363,-0.4,0.0
36.076,1.068,-0.517,0.0
75.765,2.208,1.003,5.0
78.828,2.272,0.607,15.0
70.869,2.019,0.153,9.0
57.172,1.609,-0.198,10.0
0.0,0.0,0.0,0.0
35.416,0.973,-0.514,0.0
78.882,2.134,1.029,33.0
78.857,2.106,0.592,22.0
71.247,1.878,0.141,8.0
0.0,0.0,0.0,0.0
0.0,0.0,0.0,0.0
0.0,0.0,0.0,0.0
85.309,2.126,1.099,28.0
85.081,2.091,0.626,14.0
71.492,1.733,0.131,7.0
0.0,0.0,0.0,0.0
0.0,0.0,0.0,0.0
35.278,0.819,-0.523,0.0
85.237,1.944,1.088,36.0
85.136,1.914,0.617,14.0
71.741,1.588,0.124,7.0
0.0,0.0,0.0,0.0
0.0,0.0,0.0,0.0
35.665,0.753,-0.532,0.0
85.426,1.767,1.083,20.0
85.311,1.738,0.611,18.0
73.691,1.475,0.122,2.0
0.0,0.0,0.0,0.0
45.89,0.888,-0.434,0.0
35.53,0.675,-0.531,0.0
91.894,1.707,1.161,5.0
91.821,1.676,0.654,16.0
73.515,1.316,0.119,5.0
0.0,0.0,0.0,0.0
0.0,0.0,0.0,0.0
0.0,0.0,0.0,0.0
91.931,1.515,1.16,38.0
91.821,1.48,0.654,15.0
75.438,1.19,0.122,1.0
0.0,0.0,0.0,0.0
0.0,0.0,0.0,0.0
35.892,0.529,-0.537,0.0
98.6,1.414,1.247,33.0
98.361,1.377,0.704,11.0
77.703,1.061,0.129,2.0
0.0,0.0,0.0,0.0
43.963,0.569,-0.413,1.0
35.69,0.449,-0.531,0.0
98.568,1.203,1.253,32.0
98.12,1.164,0.709,10.0
80.412,0.925,0.14,3.0
0.0,0.0,0.0,0.0
0.0,0.0,0.0,0.0
35.492,0.371,-0.525,0.0
98.708,0.993,1.265,25.0
98.334,0.954,0.721,15.0
83.243,0.779,0.154,1.0
55.24,0.497,-0.205,0.0
42.967,0.371,-0.395,0.0
35.515,0.295,-0.521,0.0
100.857,0.8,1.307,1.0
104.753,0.793,0.784,16.0
85.923,0.619,0.173,6.0
0.0,0.0,0.0,0.0
45.898,0.298,-0.414,1.0
36.599,0.225,-0.53,0.0
111.043,0.64,1.459,31.0
104.769,0.566,0.803,8.0
87.921,0.443,0.194,3.0
0.0,0.0,0.0,0.0
42.933,0.187,-0.378,0.0
36.347,0.144,-0.519,0.0
119.803,0.433,1.6,10.0
110.915,0.363,0.875,14.0
0.0,0.0,0.0,0.0
0.0,0.0,0.0,0.0
45.288,0.1,-0.388,1.0
36.302,0.067,-0.509,0.0
111.138,0.165,1.512,20.0
111.039,0.125,0.905,10.0
95.634,0.074,0.258,4.0
0.0,0.0,0.0,0.0
45.234,0.003,-0.375,2.0
0.0,0.0,0.0,0.0
117.379,-0.075,1.631,15.0
117.286,-0.117,0.991,8.0
0.0,0.0,0.0,0.0
0.0,0.0,0.0,0.0
45.298,-0.093,-0.361,0.0
37.949,-0.091,-0.509,0.0
119.731,-0.33,1.703,9.0
119.726,-0.372,1.051,11.0
0.0,0.0,0.0,0.0
0.0,0.0,0.0,0.0
0.0,0.0,0.0,0.0
37.56,-0.169,-0.49,0.0
119.774,-0.582,1.747,17.0
119.726,-0.625,1.096,17.0
0.0,0.0,0.0,0.0
0.0,0.0,0.0,0.0
0.0,0.0,0.0,0.0
39.847,-0.264,-0.505,0.0
119.752,-0.832,1.794,20.0
119.686,-0.873,1.143,18.0
0.0,0.0,0.0,0.0
0.0,0.0,0.0,0.0
0.0,0.0,0.0,0.0
0.0,0.0,0.0,0.0
119.748,-1.082,1.846,150.0
119.752,-1.124,1.197,150.0
119.644,-1.164,0.547,2.0
0.0,0.0,0.0,0.0
0.0,0.0,0.0,0.0
40.035,-0.433,-0.471,0.0
139.247,-1.547,2.212,3.0
139.284,-1.596,1.458,13.0
0.0,0.0,0.0,0.0
0.0,0.0,0.0,0.0
51.206,-0.641,-0.3,0.0
40.748,-0.524,-0.459,0.0
204.172,-2.692,3.348,9.0
139.251,-1.885,1.53,7.0
138.805,-1.927,0.774,9.0
0.0,0.0,0.0,0.0
0.0,0.0,0.0,0.0
0.0,0.0,0.0,0.0
193.846,-2.955,3.284,8.0
139.183,-2.17,1.605,3.0
138.997,-2.216,0.852,9.0
0.0,0.0,0.0,0.0
0.0,0.0,0.0,0.0
42.113,-0.716,-0.428,0.0
193.465,-3.343,3.388,20.0
139.383,-2.459,1.689,4.0
139.014,-2.501,0.934,14.0
0.0,0.0,0.0,0.0
0.0,0.0,0.0,0.0
44.956,-0.856,-0.429,1.0
193.193,-3.734,3.503,21.0
0.0,0.0,0.0,0.0
138.961,-2.782,1.021,18.0
0.0,0.0,0.0,0.0
0.0,0.0,0.0,0.0
44.725,-0.943,-0.398,0.0
193.452,-4.132,3.633,25.0
0.0,0.0,0.0,0.0
138.921,-3.064,1.113,20.0
0.0,0.0,0.0,0.0
0.0,0.0,0.0,0.0
46.646,-1.077,-0.383,0.0
193.153,-4.512,3.759,25.0
138.991,-3.296,1.958,4.0
138.889,-3.339,1.209,27.0
0.0,0.0,0.0,0.0
0.0,0.0,0.0,0.0
47.293,-1.186,-0.355,0.0
0.0,0.0,0.0,0.0
138.704,-3.561,2.053,4.0
138.814,-3.613,1.309,24.0
0.0,0.0,0.0,0.0
0.0,0.0,0.0,0.0
48.121,-1.302,-0.325,0.0
195.123,-5.328,4.083,14.0
138.627,-3.833,2.157,9.0
138.506,-3.877,1.412,14.0
0.0,0.0,0.0,0.0
0.0,0.0,0.0,0.0
0.0,0.0,0.0,0.0
194.862,-5.701,4.229,18.0
138.72,-4.103,2.266,4.0
138.7,-4.151,1.523,7.0
0.0,0.0,0.0,0.0
0.0,0.0,0.0,0.0
0.0,0.0,0.0,0.0
194.111,-6.053,4.371,24.0
193.265,-6.091,3.316,20.0
0.0,0.0,0.0,0.0
138.559,-4.46,0.88,9.0
0.0,0.0,0.0,0.0
0.0,0.0,0.0,0.0
187.437,-6.2,4.377,23.0
187.477,-6.263,3.375,48.0
0.0,0.0,0.0,0.0
138.537,-4.72,0.997,16.0
0.0,0.0,0.0,0.0
0.0,0.0,0.0,0.0
193.524,-6.767,4.689,16.0
193.685,-6.837,3.658,9.0
0.0,0.0,0.0,0.0
138.499,-4.978,1.121,18.0
0.0,0.0,0.0,0.0
0.0,0.0,0.0,0.0
192.877,-7.104,4.849,28.0
193.988,-7.205,3.84,6.0
138.435,-5.188,2.001,6.0
138.47,-5.235,1.249,23.0
0.0,0.0,0.0,0.0
0.0,0.0,0.0,0.0
192.692,-7.454,5.026,27.0
194.437,-7.585,4.035,9.0
138.245,-5.437,2.131,10.0
138.429,-5.487,1.381,25.0
0.0,0.0,0.0,0.0
76.431,-3.08,-0.051,0.0
192.981,-7.814,5.219,26.0
193.782,-7.909,4.208,23.0
138.127,-5.68,2.263,96.0
138.394,-5.736,1.517,12.0
138.159,-5.772,0.779,9.0
0.0,0.0,0.0,0.0
193.461,-8.182,5.426,19.0
193.5,-8.245,4.397,19.0
138.061,-5.926,2.402,31.0
138.091,-5.972,1.654,9.0
137.984,-6.012,0.919,19.0
0.0,0.0,0.0,0.0
20.156,-0.888,0.586,0.0
193.971,-8.611,4.609,9.0
193.641,-8.654,3.571,18.0
194.606,-8.759,2.535,15.0
138.278,-6.268,1.067,15.0
0.0,0.0,0.0,0.0
20.116,-0.922,0.606,17.0
20.128,-0.928,0.499,14.0
20.148,-0.935,0.393,11.0
20.114,-0.94,0.283,0.0
138.227,-6.503,1.215,24.0
0.0,0.0,0.0,0.0
20.119,-0.956,0.628,25.0
20.122,-0.962,0.521,24.0
20.134,-0.969,0.414,20.0
20.132,-0.975,0.305,19.0
20.16,-0.982,0.199,10.0
20.028,-0.982,0.091,5.0
20.112,-0.99,0.65,24.0
20.141,-0.997,0.544,22.0
20.127,-1.003,0.437,19.0
20.116,-1.008,0.328,20.0
20.096,-1.013,0.221,21.0
20.007,-1.015,0.114,17.0
19.99,-1.017,0.669,15.0
19.97,-1.022,0.562,16.0
19.964,-1.028,0.456,14.0
19.962,-1.033,0.348,13.0
20.009,-1.041,0.243,33.0
19.985,-1.046,0.137,19.0
19.994,-1.05,0.692,17.0
19.981,-1.055,0.586,20.0
19.964,-1.06,0.479,19.0
19.934,-1.064,0.371,18.0
19.982,-1.072,0.266,22.0
19.982,-1.078,0.161,22.0
19.986,-1.081,0.715,18.0
19.975,-1.086,0.609,22.0
19.966,-1.091,0.503,19.0
19.93,-1.095,0.395,18.0
19.95,-1.101,0.29,22.0
19.998,-1.11,0.185,26.0
19.997,-1.113,0.74,17.0
19.973,-1.117,0.633,23.0
19.961,-1.122,0.527,24.0
19.951,-1.127,0.419,22.0
19.939,-1.131,0.314,19.0
20.035,-1.142,0.21,9.0
19.996,-1.144,0.764,18.0
19.96,-1.147,0.657,19.0
19.961,-1.152,0.552,21.0
19.923,-1.155,0.443,19.0
19.947,-1.162,0.339,19.0
19.957,-1.168,0.234,17.0
20.008,-1.174,0.79,19.0
19.957,-1.176,0.682,18.0
19.988,-1.183,0.578,21.0
19.919,-1.184,0.469,19.0
19.92,-1.19,0.363,18.0
19.946,-1.197,0.259,25.0
20.021,-1.204,0.816,14.0
19.961,-1.206,0.708,17.0
19.966,-1.211,0.603,22.0
19.924,-1.213,0.494,19.0
19.93,-1.219,0.389,25.0
19.936,-1.225,0.284,27.0
20.058,-1.235,0.843,2.0
19.973,-1.235,0.734,14.0
19.95,-1.238,0.628,23.0
19.935,-1.242,0.52,21.0
19.942,-1.248,0.416,21.0
19.935,-1.252,0.31,22.0
73.377,-4.621,3.182,14.0
19.979,-1.263,0.761,11.0
19.941,-1.265,0.654,19.0
19.937,-1.27,0.547,23.0
19.916,-1.273,0.441,17.0
19.926,-1.279,0.337,18.0
72.868,-4.689,3.258,16.0
20.005,-1.292,0.788,9.0
19.95,-1.293,0.681,12.0
19.936,-1.296,0.574,14.0
19.937,-1.301,0.469,12.0
19.942,-1.306,0.364,14.0
70.794,-4.649,3.261,13.0
72.161,-4.755,2.943,25.0
20.003,-1.322,0.71,9.0
20.062,-1.331,0.604,10.0
20.067,-1.335,0.499,8.0
20.05,-1.339,0.393,3.0
70.812,-4.741,3.358,16.0
72.597,-4.876,3.059,21.0
20.01,-1.348,0.737,8.0
19.998,-1.351,0.63,10.0
20.036,-1.358,0.525,9.0
20.052,-1.364,0.42,4.0
70.928,-4.836,3.46,13.0
67.9,-4.644,2.955,47.0
67.89,-4.657,2.596,38.0
20.002,-1.376,0.657,11.0
19.994,-1.38,0.552,10.0
20.026,-1.386,0.447,9.0
67.894,-4.711,3.407,49.0
67.901,-4.726,3.049,51.0
67.888,-4.738,2.691,54.0
20.003,-1.4,0.685,9.0
20.0,-1.404,0.58,9.0
19.995,-1.408,0.475,10.0
67.89,-4.79,3.502,48.0
67.919,-4.805,3.146,60.0
67.9,-4.817,2.787,57.0
67.881,-4.829,2.422,27.0
20.014,-1.427,0.609,9.0
20.007,-1.431,0.503,9.0
67.879,-4.867,3.598,17.0
67.915,-4.881,3.243,61.0
67.918,-4.895,2.886,56.0
67.899,-4.906,2.52,45.0
20.04,-1.452,0.638,2.0
20.029,-1.454,0.533,6.0
71.395,-5.197,3.888,29.0
67.903,-4.955,3.339,61.0
67.922,-4.968,2.983,63.0
67.908,-4.979,2.619,49.0
72.045,-5.296,2.4,25.0
71.568,-5.274,2.008,25.0
71.555,-5.284,4.0,28.0
67.915,-5.027,3.439,58.0
67.919,-5.038,3.081,58.0
67.912,-5.05,2.717,49.0
67.891,-5.06,2.36,33.0
71.681,-5.355,2.116,29.0
71.54,-5.356,4.105,35.0
67.923,-5.096,3.539,36.0
67.937,-5.108,3.182,43.0
67.918,-5.117,2.818,38.0
102.88,-7.769,3.727,17.0
71.879,-5.44,2.227,13.0
71.784,-5.444,4.224,14.0
70.9,-5.387,3.799,10.0
71.264,-5.426,3.442,13.0
67.94,-5.183,2.918,28.0
67.942,-5.194,2.561,43.0
67.925,-5.203,2.203,65.0
67.964,-5.217,4.099,78.0
67.944,-5.226,3.74,85.0
67.939,-5.234,3.382,83.0
67.928,-5.244,3.017,86.0
67.917,-5.253,2.66,81.0
67.909,-5.262,2.302,69.0
67.962,-5.277,4.199,50.0
67.962,-5.286,3.841,44.0
67.958,-5.295,3.483,36.0
67.94,-5.303,3.117,32.0
67.954,-5.312,2.761,27.0
67.926,-5.32,2.403,18.0
75.725,-5.943,4.791,7.0
71.601,-5.628,4.153,10.0
71.376,-5.62,3.764,29.0
71.121,-5.609,3.369,22.0
72.126,-5.698,3.037,17.0
74.544,-5.898,2.747,2.0
75.956,-6.022,4.919,6.0
71.398,-5.669,4.247,22.0
71.475,-5.684,3.875,10.0
71.283,-5.676,3.482,34.0
71.375,-5.692,3.111,32.0
71.766,-5.732,2.75,10.0
70.892,-5.674,4.695,14.0
72.012,-5.772,4.39,12.0
71.584,-5.744,3.987,13.0
71.102,-5.714,3.578,27.0
71.343,-5.74,3.215,10.0
71.34,-5.748,2.839,12.0
71.048,-5.737,4.811,27.0
71.919,-5.814,4.491,18.0
71.568,-5.793,4.091,20.0
71.331,-5.781,3.695,14.0
67.944,-5.513,3.162,43.0
67.951,-5.521,2.804,47.0
71.016,-5.782,4.915,32.0
71.817,-5.853,4.591,7.0
71.69,-5.849,4.205,39.0
71.264,-5.82,3.797,29.0
67.939,-5.555,3.262,43.0
67.949,-5.563,2.906,41.0
71.139,-5.837,5.029,11.0
70.036,-5.751,4.581,17.0
71.759,-5.899,4.315,29.0
71.431,-5.877,3.912,14.0
67.961,-5.597,3.364,61.0
67.96,-5.604,3.007,49.0
70.464,-5.823,5.087,17.0
70.135,-5.8,4.693,45.0
71.678,-5.932,4.417,14.0
71.377,-5.913,4.015,12.0
67.939,-5.633,3.463,41.0
67.961,-5.64,3.107,47.0
70.662,-5.877,5.207,15.0
70.276,-5.849,4.807,28.0
70.94,-5.908,4.477,13.0
71.431,-5.954,4.125,28.0
67.965,-5.67,3.566,7.0
67.959,-5.674,3.208,48.0
70.833,-5.927,5.325,25.0
70.242,-5.881,4.908,18.0
70.085,-5.871,4.527,36.0
71.503,-5.994,4.234,10.0
71.379,-5.988,3.85,9.0
67.952,-5.704,3.307,57.0
70.99,-5.972,5.441,14.0
75.131,-6.324,5.361,10.0
70.162,-5.908,4.635,32.0
71.555,-6.029,4.342,22.0
71.058,-5.99,3.937,24.0
67.951,-5.731,3.407,54.0
71.046,-6.006,5.551,20.0
70.588,-5.97,5.141,13.0
70.29,-5.947,4.747,34.0
71.619,-6.061,4.452,25.0
71.174,-6.027,4.048,26.0
67.948,-5.757,3.506,23.0
71.014,-6.029,5.654,12.0
70.824,-6.015,5.263,8.0
70.135,-5.958,4.84,37.0
71.409,-6.068,4.543,12.0
71.418,-6.071,4.166,13.0
71.326,-6.066,3.784,23.0
71.017,-6.052,5.757,18.0
73.181,-6.238,5.544,5.0
69.936,-5.962,4.927,33.0
70.87,-6.043,4.611,38.0
71.593,-6.106,4.28,14.0
70.866,-6.046,3.862,47.0
71.191,-6.088,5.875,17.0
70.731,-6.048,5.462,16.0
70.34,-6.015,5.059,47.0
70.572,-6.036,4.695,38.0
71.578,-6.122,4.383,17.0
70.844,-6.061,3.964,35.0
71.472,-6.129,6.003,18.0
70.948,-6.084,5.581,17.0
70.671,-6.059,5.185,15.0
70.34,-6.031,4.781,15.0
71.873,-6.163,4.504,10.0
71.199,-6.105,4.086,11.0
71.368,-6.133,6.098,7.0
70.9,-6.092,5.681,15.0
70.906,-6.092,5.304,8.0
70.148,-6.026,4.869,19.0
71.381,-6.132,4.576,20.0
71.681,-6.157,4.216,10.0
0.0,0.0,0.0,0.0
72.216,-6.215,5.89,11.0
70.822,-6.094,5.4,9.0
69.973,-6.02,4.956,15.0
70.672,-6.079,4.631,43.0
71.637,-6.161,4.315,15.0
71.42,-6.157,6.306,10.0
0.0,0.0,0.0,0.0
70.862,-6.104,5.502,19.0
70.258,-6.05,5.075,25.0
70.487,-6.068,4.717,23.0
75.545,-6.502,4.655,8.0
71.398,-6.159,6.405,10.0
71.458,-6.162,6.028,13.0
70.921,-6.113,5.605,18.0
70.788,-6.098,5.211,15.0
70.277,-6.052,4.8,12.0
71.709,-6.173,4.518,10.0
73.517,-6.343,6.697,8.0
71.342,-6.152,6.117,5.0
71.036,-6.123,5.712,8.0
70.93,-6.11,5.319,8.0
70.129,-6.038,4.886,18.0
71.051,-6.115,4.573,35.0
73.624,-6.352,6.807,16.0
71.698,-6.181,6.246,9.0
72.198,-6.22,5.904,13.0
70.837,-6.099,5.408,11.0
70.029,-6.026,4.973,18.0
70.592,-6.071,4.637,34.0
73.418,-6.33,6.887,11.0
71.41,-6.151,6.317,15.0
0.0,0.0,0.0,0.0
70.871,-6.096,5.505,21.0
70.416,-6.052,5.094,17.0
70.358,-6.043,4.716,20.0
73.369,-6.317,6.982,20.0
71.398,-6.142,6.411,17.0
71.42,-6.139,6.031,14.0
70.939,-6.093,5.603,19.0
70.794,-6.075,5.214,12.0
70.33,-6.03,4.806,23.0
73.49,-6.317,7.09,24.0
73.48,-6.31,6.694,8.0
71.261,-6.113,6.11,9.0
71.046,-6.089,5.705,10.0
73.229,-6.271,5.488,5.0
69.975,-5.988,4.871,32.0
73.65,-6.316,7.201,18.0
73.213,-6.273,6.765,21.0
71.44,-6.115,6.217,15.0
71.084,-6.078,5.798,20.0
70.671,-6.037,5.386,8.0
70.039,-5.977,4.965,33.0
73.734,-6.307,7.303,6.0
73.137,-6.249,6.85,19.0
71.455,-6.098,6.308,21.0
71.166,-6.067,5.894,8.0
71.0,-6.047,5.5,26.0
70.548,-6.001,5.088,30.0
70.217,-5.988,7.042,12.0
78.997,-6.728,7.498,11.0
71.475,-6.08,6.399,8.0
72.516,-6.161,6.096,10.0
71.055,-6.03,5.591,13.0
70.793,-6.001,5.192,15.0
70.233,-5.967,7.131,24.0
73.243,-6.215,7.041,9.0
72.627,-6.154,6.591,10.0
72.345,-6.122,6.169,12.0
70.719,-5.977,5.651,20.0
70.875,-5.983,5.283,19.0
70.271,-5.946,7.22,13.0
73.333,-6.197,7.139,16.0
72.333,-6.103,6.651,12.0
71.64,-6.036,6.194,17.0
70.426,-5.925,5.711,10.0
70.996,-5.966,5.375,23.0
70.344,-5.925,7.311,6.0
73.229,-6.159,7.215,8.0
71.136,-5.973,6.624,9.0
72.147,-6.049,6.322,15.0
70.559,-5.907,5.803,12.0
71.199,-5.952,5.473,10.0
70.767,-5.931,7.437,18.0
78.718,-6.586,7.846,8.0
71.072,-5.937,6.699,12.0
72.202,-6.022,6.409,15.0
70.579,-5.877,5.885,12.0
73.077,-6.076,5.699,10.0
70.748,-5.896,7.515,40.0
78.696,-6.547,7.932,7.0
71.098,-5.905,6.781,14.0
72.132,-5.981,6.483,12.0
73.015,-6.044,6.168,5.0
73.024,-6.035,5.776,17.0
70.818,-5.867,7.601,45.0
73.121,-6.046,7.452,7.0
73.76,-6.088,7.117,7.0
71.754,-5.912,6.527,14.0
72.89,-5.995,6.236,10.0
73.078,-6.0,5.858,12.0
70.744,-5.822,7.67,19.0
70.286,-5.773,7.238,8.0
73.606,-6.034,7.181,6.0
71.653,-5.863,6.594,15.0
72.99,-5.961,6.322,11.0
73.277,-5.974,5.951,10.0
71.307,-5.827,7.806,34.0
70.333,-5.736,7.317,13.0
73.535,-5.985,7.249,13.0
71.96,-5.846,6.696,15.0
72.907,-5.911,6.389,14.0
73.343,-5.934,6.031,8.0
70.448,-5.714,7.784,26.0
0.0,0.0,0.0,0.0
73.235,-5.915,7.294,12.0
71.945,-5.799,6.767,15.0
70.983,-5.71,6.29,8.0
73.244,-5.88,6.094,15.0
70.404,-5.665,7.849,18.0
71.71,-5.757,7.603,19.0
72.229,-5.787,7.263,20.0
71.863,-5.745,6.828,13.0
71.01,-5.665,6.36,8.0
75.768,-6.032,6.375,6.0
70.908,-5.658,7.972,11.0
71.351,-5.68,7.631,18.0
71.8,-5.703,7.287,12.0
71.692,-5.682,6.877,12.0
70.894,-5.606,6.415,24.0
70.684,-5.578,6.011,19.0
70.58,-5.582,8.0,13.0
71.144,-5.613,7.674,23.0
71.666,-5.64,7.338,11.0
71.614,-5.623,6.934,13.0
70.841,-5.55,6.473,15.0
70.629,-5.521,6.069,18.0
70.568,-5.528,8.061,23.0
71.36,-5.576,7.76,27.0
71.455,-5.57,7.378,25.0
71.063,-5.526,6.942,12.0
70.727,-5.487,6.523,21.0
68.012,-5.264,5.902,63.0
70.645,-5.479,8.13,33.0
71.528,-5.534,7.838,25.0
70.547,-5.445,7.343,21.0
71.237,-5.483,7.018,7.0
68.018,-5.223,6.328,61.0
68.01,-5.21,5.956,31.0
0.0,0.0,0.0,0.0
71.333,-5.461,7.875,33.0
70.547,-5.386,7.4,32.0
73.941,-5.631,7.343,7.0
68.029,-5.167,6.383,32.0
72.096,-5.463,6.37,12.0
69.797,-5.299,8.144,28.0
71.054,-5.38,7.899,17.0
71.456,-5.396,7.55,17.0
71.41,-5.378,7.145,8.0
71.164,-5.344,6.73,14.0
76.442,-5.727,6.811,5.0
69.793,-5.238,8.195,27.0
71.014,-5.315,7.947,25.0
70.728,-5.278,7.524,25.0
0.0,0.0,0.0,0.0
76.149,-5.652,7.256,3.0
70.897,-5.247,6.367,3.0
69.72,-5.17,8.236,30.0
70.717,-5.229,7.963,30.0
70.561,-5.203,7.555,38.0
68.057,-5.004,6.905,7.0
73.04,-5.355,7.008,10.0
71.024,-5.192,6.425,22.0
70.213,-5.141,8.342,49.0
70.803,-5.17,8.019,31.0
70.744,-5.15,7.621,44.0
68.033,-4.938,6.947,15.0
73.304,-5.305,7.081,9.0
71.236,-5.141,6.489,13.0
69.979,-5.059,8.358,48.0
70.569,-5.086,8.036,22.0
70.5,-5.065,7.638,33.0
68.059,-4.875,6.99,21.0
73.162,-5.225,7.11,8.0
78.064,-5.559,7.156,3.0
69.58,-4.963,8.351,43.0
70.404,-5.005,8.059,31.0
70.473,-4.994,7.676,42.0
68.065,-4.809,7.029,23.0
71.924,-5.066,7.03,24.0
72.965,-5.124,6.729,12.0
69.864,-4.914,8.424,41.0
70.258,-4.925,8.08,36.0
71.52,-4.997,7.828,17.0
68.071,-4.74,7.065,25.0
70.892,-4.922,6.965,29.0
69.826,-4.833,6.475,19.0
70.178,-4.864,8.497,31.0
69.819,-4.822,8.065,35.0
70.79,-4.873,7.783,9.0
68.066,-4.67,7.098,25.0
69.863,-4.777,6.898,19.0
69.723,-4.753,6.498,12.0
70.067,-4.782,8.518,14.0
70.271,-4.78,8.149,26.0
70.262,-4.763,7.757,14.0
68.101,-4.6,7.132,26.0
70.258,-4.73,6.968,46.0
69.756,-4.68,6.532,17.0
0.0,0.0,0.0,0.0
70.318,-4.707,8.185,47.0
70.262,-4.686,7.786,11.0
68.103,-4.526,7.16,24.0
0.0,0.0,0.0,0.0
64.072,-4.23,6.024,15.0
70.428,-4.654,8.619,21.0
70.406,-4.636,8.222,21.0
70.473,-4.623,7.836,18.0
68.086,-4.451,7.183,20.0
0.0,0.0,0.0,0.0
64.056,-4.157,6.045,31.0
0.0,0.0,0.0,0.0
70.103,-4.538,8.21,18.0
70.467,-4.545,7.858,30.0
59.598,-3.83,6.307,19.0
59.599,-3.816,5.974,15.0
64.065,-4.087,6.065,35.0
70.942,-4.529,8.728,31.0
69.974,-4.45,8.216,23.0
70.401,-4.46,7.871,36.0
59.561,-3.759,6.319,13.0
59.392,-3.734,5.97,33.0
64.095,-4.015,6.085,31.0
71.054,-4.455,8.76,13.0
69.863,-4.363,8.22,38.0
70.223,-4.368,7.868,37.0
70.193,-4.349,7.464,15.0
59.127,-3.649,5.957,28.0
63.997,-3.935,6.09,8.0
65.451,-4.027,8.084,35.0
0.0,0.0,0.0,0.0
58.871,-3.593,6.608,19.0
59.039,-3.589,6.289,8.0
59.221,-3.586,5.977,32.0
59.131,-3.567,5.637,24.0
65.086,-3.927,8.05,42.0
64.986,-3.905,7.671,11.0
58.772,-3.517,6.606,33.0
59.062,-3.519,6.301,31.0
59.002,-3.502,5.963,32.0
59.316,-3.507,5.663,32.0
64.84,-3.834,8.028,35.0
64.977,-3.827,7.678,31.0
58.815,-3.449,6.617,33.0
58.975,-3.444,6.297,34.0
58.666,-3.412,5.935,32.0
59.393,-3.44,5.675,33.0
64.682,-3.747,8.014,37.0
59.155,-3.412,6.994,22.0
59.019,-3.39,6.644,33.0
58.388,-3.34,6.238,33.0
58.629,-3.339,5.934,33.0
58.917,-3.341,5.632,34.0
64.728,-3.671,8.022,36.0
59.037,-3.332,6.982,30.0
58.512,-3.289,6.589,32.0
58.477,-3.272,6.249,33.0
58.262,-3.247,5.897,31.0
57.707,-3.202,5.517,32.0
64.794,-3.594,8.03,41.0
51.75,-2.857,6.119,19.0
58.353,-3.208,6.57,22.0
58.607,-3.207,6.261,33.0
58.265,-3.174,5.896,32.0
56.941,-3.088,5.441,30.0
52.215,-2.831,6.468,26.0
51.745,-2.792,6.116,33.0
58.513,-3.143,6.584,15.0
58.936,-3.152,6.292,31.0
58.389,-3.109,5.903,32.0
56.792,-3.01,5.422,30.0
52.064,-2.758,6.445,26.0
51.697,-2.726,6.105,24.0
51.729,-2.714,5.815,22.0
58.92,-3.078,6.283,33.0
0.0,0.0,0.0,0.0
56.837,-2.941,5.418,29.0
51.921,-2.684,6.419,34.0
57.97,-2.982,6.837,7.0
51.784,-2.651,5.813,24.0
58.596,-2.986,6.239,33.0
56.624,-2.872,5.708,19.0
56.68,-2.861,5.393,30.0
51.881,-2.616,6.405,43.0
51.71,-2.594,6.089,24.0
51.848,-2.589,5.81,35.0
58.299,-2.897,6.195,9.0
56.466,-2.792,5.68,19.0
56.613,-2.787,5.374,28.0
52.188,-2.565,6.431,27.0
51.687,-2.527,6.074,25.0
51.788,-2.52,5.79,29.0
46.923,-2.272,4.974,22.0
56.345,-2.715,5.653,23.0
56.477,-2.708,5.346,8.0
51.545,-2.467,6.337,27.0
51.692,-2.461,6.059,34.0
51.828,-2.455,5.779,25.0
46.84,-2.207,4.951,48.0
46.686,-2.189,4.67,31.0
46.887,-2.188,4.424,40.0
51.397,-2.393,6.302,26.0
51.768,-2.397,6.051,25.0
51.787,-2.386,5.757,25.0
46.799,-2.145,4.931,36.0
46.627,-2.126,4.647,33.0
46.745,-2.12,4.393,36.0
51.474,-2.33,6.292,26.0
51.752,-2.33,6.03,25.0
51.821,-2.32,5.741,25.0
46.654,-2.078,4.897,26.0
46.703,-2.069,4.636,30.0
46.619,-2.055,4.363,36.0
51.198,-2.251,6.237,21.0
51.707,-2.261,6.002,25.0
51.624,-2.245,5.697,23.0
46.709,-2.02,4.883,39.0
46.429,-1.997,4.588,29.0
46.646,-1.996,4.344,22.0
51.49,-2.196,6.249,9.0
57.685,-2.447,6.669,11.0
51.665,-2.18,5.677,17.0
52.583,-2.206,5.471,8.0
46.375,-1.935,4.561,40.0
46.484,-1.928,4.306,20.0
51.195,-2.118,6.187,11.0
44.855,-1.845,5.163,38.0
59.292,-2.425,6.484,26.0
52.351,-2.129,5.42,20.0
46.38,-1.875,4.537,39.0
46.061,-1.852,4.242,8.0
44.907,-1.8,5.402,33.0
44.848,-1.787,5.137,39.0
58.794,-2.329,6.397,11.0
46.803,-1.843,4.819,21.0
46.598,-1.824,4.531,29.0
44.197,-1.72,4.045,30.0
44.862,-1.74,5.37,36.0
44.82,-1.728,5.107,27.0
51.466,-1.972,5.568,15.0
46.612,-1.775,4.77,21.0
46.619,-1.765,4.504,43.0
44.178,-1.663,4.016,25.0
45.132,-1.692,5.374,26.0
44.68,-1.665,5.062,45.0
45.393,-1.681,4.882,21.0
46.66,-1.717,4.745,25.0
46.646,-1.707,4.476,22.0
44.141,-1.605,3.982,34.0
44.92,-1.626,5.318,12.0
44.702,-1.608,5.034,32.0
44.65,-1.597,4.77,39.0
52.796,-1.875,5.331,7.0
46.398,-1.638,4.419,24.0
44.129,-1.549,3.95,27.0
44.935,-1.569,5.287,30.0
44.67,-1.55,4.997,43.0
44.87,-1.547,4.76,37.0
46.61,-1.597,4.672,20.0
46.515,-1.584,4.395,24.0
44.09,-1.492,3.913,39.0
44.996,-1.514,5.259,36.0
44.682,-1.493,4.964,19.0
44.295,-1.471,4.665,48.0
52.464,-1.731,5.217,10.0
46.742,-1.532,4.379,5.0
43.946,-1.431,3.865,35.0
44.58,-1.443,5.173,29.0
44.037,-1.416,4.856,31.0
44.349,-1.417,4.634,35.0
43.895,-1.393,4.328,18.0
43.699,-1.378,4.058,18.0
43.795,-1.372,3.815,37.0
43.648,-1.358,5.028,38.0
43.843,-1.355,4.796,42.0
44.313,-1.36,4.591,35.0
43.666,-1.331,4.267,23.0
43.988,-1.332,4.045,26.0
43.707,-1.315,3.768,40.0
43.689,-1.306,4.993,41.0
43.711,-1.297,4.742,46.0
44.315,-1.305,4.55,30.0
43.663,-1.277,4.227,35.0
43.619,-1.267,3.971,33.0
43.649,-1.259,3.722,46.0
43.724,-1.252,4.955,39.0
43.726,-1.243,4.702,43.0
44.333,-1.251,4.51,27.0
43.529,-1.219,4.172,30.0
43.428,-1.208,3.911,45.0
43.629,-1.205,3.678,42.0
43.784,-1.2,4.918,42.0
43.695,-1.188,4.654,39.0
44.532,-1.202,4.485,21.0
43.519,-1.166,4.127,33.0
43.424,-1.155,3.867,41.0
43.672,-1.153,3.637,34.0
43.752,-1.145,4.869,40.0
43.625,-1.134,4.601,45.0
45.714,-1.179,4.557,31.0
43.625,-1.117,4.091,29.0
43.543,-1.106,3.832,38.0
43.671,-1.101,3.591,46.0
43.642,-1.09,4.81,43.0
43.512,-1.079,4.543,41.0
43.5,-1.07,4.289,20.0
43.376,-1.058,4.02,24.0
43.445,-1.052,3.776,41.0
43.659,-1.049,3.542,40.0
43.313,-1.03,4.725,46.0
43.547,-1.027,4.497,41.0
43.692,-1.023,4.258,24.0
42.865,-0.995,3.924,42.0
43.701,-1.007,3.748,36.0
43.162,-0.986,3.452,47.0
43.307,-0.979,4.674,42.0
43.397,-0.973,4.431,37.0
43.569,-0.969,4.195,42.0
42.78,-0.944,3.866,46.0
43.49,-0.951,3.678,46.0
43.249,-0.938,3.408,22.0
43.298,-0.929,4.621,45.0
43.334,-0.922,4.372,39.0
43.44,-0.917,4.13,40.0
42.685,-0.893,3.806,39.0
42.999,-0.892,3.585,40.0
43.064,-0.886,3.341,25.0
43.501,-0.884,4.589,41.0
43.275,-0.872,4.313,44.0
42.69,-0.853,4.006,23.0
42.809,-0.848,3.764,37.0
42.768,-0.839,3.512,42.0
42.933,-0.835,3.277,35.0
43.333,-0.832,4.516,44.0
0.0,0.0,0.0,0.0
42.064,-0.793,3.893,42.0
42.473,-0.794,3.68,47.0
42.794,-0.793,3.459,39.0
43.133,-0.792,3.237,17.0
43.232,-0.783,4.449,47.0
41.894,-0.751,4.066,30.0
41.968,-0.746,3.829,39.0
42.657,-0.751,3.639,39.0
42.727,-0.745,3.397,42.0
43.287,-0.748,3.19,32.0
42.547,-0.724,4.32,37.0
41.959,-0.708,4.016,19.0
41.968,-0.701,3.772,42.0
42.825,-0.708,3.595,38.0
42.817,-0.701,3.346,36.0
48.46,-0.786,3.505,14.0
42.544,-0.679,4.261,21.0
41.824,-0.661,3.945,44.0
41.968,-0.657,3.713,42.0
42.71,-0.662,3.527,43.0
42.796,-0.657,3.285,43.0
48.42,-0.736,3.435,19.0
41.82,-0.625,4.129,24.0
42.011,-0.621,3.903,39.0
42.02,-0.615,3.658,42.0
44.574,-0.645,3.616,5.0
42.217,-0.605,3.179,45.0
48.447,-0.687,3.367,36.0
41.842,-0.582,4.07,41.0
41.899,-0.577,3.83,39.0
42.474,-0.578,3.635,32.0
42.175,-0.569,3.36,37.0
42.59,-0.568,3.144,42.0
48.422,-0.638,3.294,31.0
42.215,-0.545,4.043,39.0
41.886,-0.535,3.766,42.0
41.805,-0.528,3.515,49.0
42.105,-0.526,3.291,39.0
42.485,-0.525,3.073,42.0
48.285,-0.59,3.211,31.0
41.97,-0.502,3.955,41.0
41.732,-0.493,3.688,42.0
41.862,-0.489,3.455,31.0
42.047,-0.485,3.221,38.0
42.5,-0.484,3.008,40.0
48.315,-0.544,3.138,43.0
41.557,-0.458,3.851,40.0
41.743,-0.454,3.623,38.0
42.135,-0.453,3.412,35.0
42.243,-0.448,3.17,37.0
48.042,-0.504,3.325,13.0
48.591,-0.503,3.08,22.0
41.499,-0.419,3.779,47.0
41.573,-0.414,3.542,49.0
41.967,-0.413,3.331,37.0
42.216,-0.41,3.1,41.0
48.152,-0.461,3.255,35.0
48.684,-0.461,3.007,13.0
41.595,-0.383,3.72,48.0
41.679,-0.378,3.483,36.0
41.969,-0.376,3.262,42.0
42.944,-0.379,3.083,18.0
48.63,-0.424,3.208,22.0
60.749,-0.523,3.654,3.0
41.682,-0.348,3.659,40.0
41.787,-0.343,3.423,41.0
42.049,-0.341,3.198,43.0
48.102,-0.384,3.373,5.0
48.24,-0.38,3.101,27.0
80.069,-0.622,4.681,12.0
41.534,-0.312,3.575,45.0
42.001,-0.31,3.369,41.0
42.11,-0.306,3.131,48.0
48.323,-0.347,3.306,28.0
60.118,-0.424,3.762,14.0
60.756,-0.422,3.448,17.0
41.941,-0.281,3.538,44.0
42.0,-0.277,3.297,40.0
42.928,-0.279,3.119,18.0
48.152,-0.307,3.211,22.0
60.841,-0.382,3.703,20.0
60.754,-0.375,3.344,5.0
41.977,-0.249,3.468,35.0
42.423,-0.247,3.256,17.0
45.89,-0.263,3.254,25.0
48.021,-0.27,3.119,30.0
60.603,-0.335,3.583,8.0
77.668,-0.421,4.139,12.0
41.754,-0.216,3.375,46.0
42.402,-0.216,3.179,30.0
48.273,-0.241,3.337,14.0
60.15,-0.294,3.8,21.0
60.671,-0.291,3.479,9.0
77.68,-0.365,4.001,22.0
41.705,-0.186,3.296,49.0
45.868,-0.201,3.356,32.0
48.155,-0.206,3.241,30.0
60.655,-0.254,3.722,19.0
60.583,-0.248,3.363,5.0
81.089,-0.325,4.028,4.0
42.283,-0.16,3.264,36.0
45.987,-0.17,3.28,19.0
60.184,-0.217,3.941,11.0
60.58,-0.213,3.606,20.0
60.264,-0.207,3.235,6.0
80.973,-0.271,3.874,9.0
42.214,-0.132,3.18,15.0
47.998,-0.146,3.334,20.0
60.412,-0.179,3.844,29.0
60.71,-0.175,3.501,21.0
77.696,-0.218,4.027,12.0
80.805,-0.22,3.715,9.0
45.899,-0.115,3.372,17.0
48.102,-0.116,3.251,17.0
60.49,-0.142,3.734,11.0
60.237,-0.137,3.36,23.0
80.705,-0.178,4.031,15.0
95.331,-0.203,4.204,14.0
48.325,-0.092,3.459,15.0
60.502,-0.112,3.975,11.0
60.61,-0.108,3.627,6.0
60.25,-0.103,3.247,11.0
80.635,-0.132,3.875,5.0
95.377,-0.15,4.026,10.0
49.199,-0.067,3.426,6.0
60.217,-0.078,3.841,20.0
60.415,-0.074,3.499,17.0
80.829,-0.094,4.2,11.0
80.813,-0.09,3.727,4.0
189.837,-0.199,7.649,29.0
60.42,-0.051,4.091,14.0
60.609,-0.048,3.749,4.0
60.157,-0.044,3.367,20.0
80.449,-0.053,4.025,19.0
227.006,-0.139,10.03,7.0
70.105,-0.038,2.689,18.0
60.329,-0.022,3.968,28.0
60.505,-0.019,3.624,2.0
77.913,-0.02,4.209,27.0
80.586,-0.016,3.874,21.0
189.841,-0.027,8.015,13.0
70.042,-0.006,2.548,26.0
60.398,0.004,3.851,8.0
73.939,0.01,4.281,9.0
80.716,0.014,4.201,3.0
102.674,0.024,4.731,7.0
117.72,0.032,4.736,15.0
69.873,0.023,2.403,31.0
60.538,0.03,3.74,3.0
73.998,0.04,4.136,7.0
80.546,0.047,4.03,23.0
70.187,0.044,3.093,6.0
70.102,0.047,2.679,20.0
69.983,0.05,2.266,26.0
71.73,0.063,4.286,3.0
78.073,0.072,4.207,27.0
80.583,0.077,3.869,12.0
70.172,0.07,2.952,9.0
69.85,0.072,2.529,31.0
69.977,0.075,2.125,24.0
74.208,0.091,4.283,5.0
81.15,0.102,4.208,6.0
102.807,0.133,4.728,14.0
70.153,0.093,2.808,13.0
69.875,0.095,2.388,30.0
70.122,0.098,1.987,19.0
81.536,0.125,4.539,10.0
80.687,0.126,4.018,22.0
70.198,0.112,3.085,21.0
70.144,0.114,2.664,31.0
69.833,0.115,2.244,24.0
119.859,0.201,3.152,8.0
78.65,0.142,4.217,19.0
80.451,0.147,3.841,7.0
111.194,0.206,4.657,20.0
70.125,0.132,2.519,28.0
70.0,0.133,2.105,33.0
119.897,0.23,2.905,9.0
81.387,0.166,4.196,14.0
102.855,0.212,4.698,16.0
70.298,0.146,2.799,24.0
69.812,0.146,2.365,32.0
70.23,0.148,1.967,22.0
119.853,0.255,2.657,25.0
80.63,0.181,3.989,18.0
70.225,0.158,3.063,5.0
70.081,0.159,2.646,27.0
69.775,0.159,2.219,35.0
119.824,0.275,3.11,22.0
119.804,0.276,2.407,13.0
80.362,0.193,3.809,13.0
70.344,0.17,2.921,7.0
70.091,0.17,2.499,25.0
70.118,0.17,2.082,22.0
119.85,0.292,2.857,14.0
119.88,0.293,2.158,16.0
102.866,0.26,4.659,13.0
70.149,0.178,2.765,24.0
69.762,0.177,2.342,32.0
70.256,0.178,1.939,3.0
119.848,0.304,2.607,8.0
119.863,0.304,1.905,16.0
70.13,0.184,3.028,13.0
70.047,0.183,2.613,31.0
69.856,0.183,2.196,36.0
119.842,0.313,3.054,12.0
119.876,0.313,2.353,9.0
119.834,0.312,1.652,13.0
70.317,0.188,2.887,8.0
69.994,0.186,2.463,17.0
70.152,0.186,2.058,13.0
119.801,0.317,2.8,8.0
119.883,0.316,2.102,11.0
119.735,0.315,1.399,16.0
70.08,0.188,2.729,28.0
69.759,0.186,2.308,34.0
119.858,0.319,3.263,12.0
195.321,0.517,4.153,13.0
119.86,0.315,1.849,16.0
111.116,0.29,1.064,10.0
70.068,0.186,2.58,27.0
69.915,0.185,2.166,33.0
119.847,0.315,3.009,11.0
119.825,0.312,2.294,10.0
111.205,0.287,1.478,10.0
110.816,0.284,0.826,8.0
69.864,0.181,2.425,21.0
70.244,0.181,2.026,9.0
119.799,0.306,2.754,11.0
119.85,0.303,2.042,11.0
119.765,0.3,1.338,13.0
103.773,0.257,0.554,7.0
69.769,0.174,2.273,34.0
119.821,0.296,3.203,21.0
119.869,0.293,2.502,11.0
119.811,0.289,1.788,18.0
111.084,0.264,1.005,17.0
92.569,0.218,0.297,1.0
70.006,0.165,2.132,27.0
119.85,0.279,2.948,18.0
119.873,0.275,2.246,24.0
111.187,0.251,1.422,14.0
104.361,0.232,0.723,8.0
0.0,0.0,0.0,0.0
70.238,0.154,1.989,18.0
119.843,0.258,2.693,30.0
119.864,0.253,1.99,29.0
111.1,0.23,1.185,15.0
94.614,0.192,0.454,2.0
0.0,0.0,0.0,0.0
119.853,0.237,3.137,12.0
119.868,0.231,2.435,9.0
111.156,0.21,1.608,15.0
110.957,0.204,0.945,9.0
93.06,0.167,0.248,1.0
0.0,0.0,0.0,0.0
193.513,0.334,4.657,19.0
193.445,0.325,3.523,6.0
111.13,0.181,1.372,22.0
103.617,0.163,0.661,6.0
0.0,0.0,0.0,0.0
52.589,0.077,-0.279,0.0
117.469,0.169,2.576,11.0
111.114,0.154,1.785,9.0
111.144,0.147,1.135,12.0
93.978,0.119,0.401,1.0
0.0,0.0,0.0,0.0
45.648,0.053,-0.338,0.0
117.401,0.131,2.327,19.0
111.116,0.117,1.551,21.0
110.789,0.11,0.897,10.0
0.0,0.0,0.0,0.0
0.0,0.0,0.0,0.0
45.124,0.036,-0.43,1.0
117.339,0.089,2.078,18.0
111.144,0.077,1.317,18.0
103.609,0.065,0.622,7.0
0.0,0.0,0.0,0.0
0.0,0.0,0.0,0.0
0.0,0.0,0.0,0.0
111.12,0.04,1.734,11.0
111.184,0.032,1.085,7.0
95.62,0.021,0.372,7.0
0.0,0.0,0.0,0.0
45.534,0.003,-0.359,2.0
37.654,0.0,-0.516,0.0
111.08,-0.007,1.501,14.0
110.786,-0.015,0.849,12.0
0.0,0.0,0.0,0.0
0.0,0.0,0.0,0.0
44.82,-0.016,-0.447,0.0
0.0,0.0,0.0,0.0
117.359,-0.063,1.341,13.0
103.228,-0.063,0.576,1.0
0.0,0.0,0.0,0.0
0.0,0.0,0.0,0.0
0.0,0.0,0.0,0.0
0.0,0.0,0.0,0.0
117.297,-0.122,1.096,11.0
0.0,0.0,0.0,0.0
0.0,0.0,0.0,0.0
45.34,-0.059,-0.376,2.0
36.059,-0.05,-0.51,0.0
0.0,0.0,0.0,0.0
110.793,-0.175,0.806,15.0
0.0,0.0,0.0,0.0
0.0,0.0,0.0,0.0
0.0,0.0,0.0,0.0
0.0,0.0,0.0,0.0
28.079,-0.057,-0.619,0.0
0.0,0.0,0.0,0.0
0.0,0.0,0.0,0.0
0.0,0.0,0.0,0.0
0.0,0.0,0.0,0.0
31.333,-0.08,-0.573,0.0
26.579,-0.07,-0.641,0.0
0.0,0.0,0.0,0.0
0.0,0.0,0.0,0.0
45.096,-0.134,-0.384,1.0
35.791,-0.11,-0.518,0.0
29.15,-0.093,-0.592,0.0
25.395,-0.083,-0.664,0.0
0.0,0.0,0.0,0.0
0.0,0.0,0.0,0.0
0.0,0.0,0.0,0.0
0.0,0.0,0.0,0.0
0.0,0.0,0.0,0.0
24.113,-0.095,-0.68,0.0
0.0,0.0,0.0,0.0
0.0,0.0,0.0,0.0
38.019,-0.165,-0.478,0.0
31.178,-0.138,-0.577,0.0
26.479,-0.121,-0.645,0.0
22.648,-0.106,-0.684,0.0
0.0,0.0,0.0,0.0
0.0,0.0,0.0,0.0
35.077,-0.177,-0.511,0.0
29.386,-0.152,-0.603,0.0
24.928,-0.132,-0.657,0.0
21.867,-0.118,-0.704,0.0
0.0,0.0,0.0,0.0
0.0,0.0,0.0,0.0
0.0,0.0,0.0,0.0
27.84,-0.165,-0.627,0.0
23.741,-0.144,-0.673,0.0
21.015,-0.13,-0.719,0.0
0.0,0.0,0.0,0.0
0.0,0.0,0.0,0.0
30.809,-0.204,-0.572,0.0
26.368,-0.178,-0.646,0.0
22.646,-0.156,-0.687,0.0
20.2,-0.141,-0.731,0.0
0.0,0.0,0.0,0.0
0.0,0.0,0.0,0.0
29.204,-0.218,-0.599,0.0
24.81,-0.188,-0.656,0.0
21.758,-0.168,-0.702,0.0
19.414,-0.152,-0.74,0.0
0.0,0.0,0.0,0.0
0.0,0.0,0.0,0.0
0.0,0.0,0.0,0.0
0.0,0.0,0.0,0.0
21.043,-0.181,-0.72,0.0
18.831,-0.164,-0.755,0.0
0.0,0.0,0.0,0.0
30.898,-0.28,-0.573,0.0
26.18,-0.241,-0.638,0.0
22.683,-0.212,-0.687,0.0
20.244,-0.192,-0.731,0.0
18.196,-0.175,-0.764,0.0
0.0,0.0,0.0,0.0
0.0,0.0,0.0,0.0
24.956,-0.253,-0.655,0.0
21.898,-0.225,-0.705,0.0
19.631,-0.205,-0.746,0.0
17.505,-0.185,-0.768,0.0
33.484,-0.361,-0.552,0.0
27.525,-0.301,-0.614,0.0
23.799,-0.264,-0.669,0.0
20.855,-0.235,-0.71,0.0
18.785,-0.214,-0.75,0.0
16.982,-0.196,-0.777,0.0
30.904,-0.364,-0.567,0.0
26.389,-0.315,-0.638,0.0
22.832,-0.276,-0.685,0.0
20.328,-0.249,-0.73,0.0
18.271,-0.227,-0.763,0.0
16.703,-0.21,-0.795,0.0
29.209,-0.373,-0.589,0.0
24.921,-0.323,-0.648,0.0
22.077,-0.289,-0.702,0.0
19.593,-0.26,-0.739,0.0
17.729,-0.238,-0.773,0.0
16.086,-0.219,-0.795,0.0
28.095,-0.388,-0.617,0.0
24.099,-0.337,-0.67,0.0
21.189,-0.3,-0.712,0.0
18.871,-0.27,-0.746,0.0
17.115,-0.248,-0.776,0.0
15.632,-0.229,-0.8,0.0
26.516,-0.395,-0.63,0.0
23.14,-0.348,-0.684,0.0
20.201,-0.308,-0.715,0.0
18.344,-0.282,-0.758,0.0
16.643,-0.259,-0.784,0.0
15.255,-0.24,-0.808,0.0
25.506,-0.407,-0.65,0.0
22.256,-0.359,-0.697,0.0
19.883,-0.324,-0.738,0.0
17.826,-0.294,-0.767,0.0
16.305,-0.272,-0.797,0.0
14.833,-0.25,-0.811,0.0
24.684,-0.422,-0.672,0.0
21.376,-0.369,-0.706,0.0
19.119,-0.334,-0.742,0.0
17.304,-0.305,-0.774,0.0
15.786,-0.281,-0.798,0.0
14.498,-0.261,-0.818,0.0
23.464,-0.428,-0.678,0.0
20.763,-0.382,-0.72,0.0
18.12,-0.337,-0.734,7.0
16.756,-0.315,-0.778,0.0
15.382,-0.292,-0.804,0.0
14.194,-0.272,-0.824,0.0
22.656,-0.44,-0.692,0.0
20.052,-0.393,-0.729,0.0
18.117,-0.358,-0.764,16.0
16.417,-0.328,-0.789,0.0
15.116,-0.305,-0.815,0.0
13.898,-0.283,-0.83,0.0
18.163,-0.374,-0.585,28.0
18.155,-0.378,-0.69,15.0
18.053,-0.379,-0.791,1.0
18.147,-0.385,-0.902,6.0
18.16,-0.388,-1.008,0.0
13.646,-0.295,-0.837,0.0
18.112,-0.395,-0.612,156.0
18.14,-0.399,-0.718,58.0
18.116,-0.403,-0.823,4.0
18.149,-0.407,-0.931,21.0
18.155,-0.411,-1.037,1.0
18.155,-0.415,-1.143,0.0
18.119,-0.418,-0.641,154.0
18.107,-0.421,-0.745,34.0
18.136,-0.426,-0.852,23.0
18.131,-0.429,-0.959,11.0
18.133,-0.433,-1.064,1.0
18.138,-0.437,-1.17,1.0
18.134,-0.441,-0.669,70.0
18.097,-0.444,-0.772,5.0
18.141,-0.449,-0.88,48.0
18.14,-0.453,-0.987,7.0
18.176,-0.457,-1.094,0.0
18.122,-0.46,-1.196,0.0
18.143,-0.465,-0.697,33.0
18.023,-0.465,-0.797,1.0
18.141,-0.472,-0.907,3.0
18.139,-0.476,-1.014,0.0
13.56,-0.359,-0.837,0.0
12.541,-0.335,-0.847,0.0
21.882,-0.589,-0.873,14.0
21.912,-0.595,-1.001,0.0
21.877,-0.599,-1.126,0.0
14.296,-0.394,-0.82,0.0
13.39,-0.372,-0.846,0.0
12.312,-0.345,-0.849,0.0
21.883,-0.619,-0.905,6.0
21.875,-0.623,-1.031,0.0
15.204,-0.437,-0.804,0.0
14.077,-0.407,-0.828,0.0
13.031,-0.38,-0.842,0.0
12.072,-0.355,-0.85,0.0
18.038,-0.534,-0.771,0.0
16.252,-0.485,-0.788,0.0
14.897,-0.448,-0.809,0.0
13.717,-0.416,-0.826,0.0
12.767,-0.39,-0.842,0.0
11.857,-0.365,-0.851,0.0
17.499,-0.542,-0.772,0.0
15.974,-0.498,-0.797,0.0
14.551,-0.457,-0.81,0.0
13.555,-0.429,-0.834,0.0
12.521,-0.399,-0.843,0.0
11.653,-0.375,-0.852,0.0
17.018,-0.551,-0.773,0.0
15.655,-0.51,-0.802,0.0
14.347,-0.471,-0.817,0.0
13.319,-0.44,-0.837,0.0
12.361,-0.412,-0.849,0.0
11.486,-0.385,-0.855,0.0
16.598,-0.561,-0.776,0.0
15.3,-0.52,-0.803,0.0
14.064,-0.482,-0.819,0.0
13.124,-0.452,-0.842,0.0
12.155,-0.422,-0.85,0.0
11.355,-0.397,-0.86,0.0
16.443,-0.579,-0.789,0.0
15.06,-0.534,-0.809,0.0
13.976,-0.499,-0.832,0.0
12.946,-0.465,-0.847,0.0
11.962,-0.433,-0.851,0.0
11.206,-0.408,-0.862,0.0
15.983,-0.585,-0.787,0.0
14.734,-0.543,-0.81,0.0
13.642,-0.506,-0.828,0.0
12.69,-0.474,-0.845,0.0
11.789,-0.443,-0.853,0.0
11.051,-0.418,-0.864,0.0
15.868,-0.604,-0.799,0.0
14.488,-0.555,-0.813,0.0
13.526,-0.522,-0.837,0.0
12.454,-0.483,-0.844,0.0
11.616,-0.454,-0.854,0.0
10.993,-0.432,-0.872,0.0
15.343,-0.606,-0.791,0.0
14.335,-0.57,-0.821,0.0
13.351,-0.534,-0.841,0.0
12.359,-0.498,-0.851,0.0
11.452,-0.464,-0.855,0.0
10.873,-0.444,-0.875,0.0
15.306,-0.627,-0.806,0.0
14.143,-0.583,-0.826,0.0
13.001,-0.54,-0.834,0.0
12.152,-0.507,-0.851,0.0
11.358,-0.477,-0.86,0.0
10.7,-0.453,-0.872,0.0
15.025,-0.638,-0.807,0.0
13.96,-0.597,-0.83,0.0
12.993,-0.559,-0.847,0.0
11.998,-0.519,-0.852,0.0
11.223,-0.488,-0.862,0.0
10.598,-0.464,-0.875,0.0
14.787,-0.65,-0.809,0.0
13.699,-0.606,-0.828,0.0
12.861,-0.572,-0.851,0.0
11.819,-0.529,-0.851,0.0
11.083,-0.499,-0.862,0.0
10.515,-0.476,-0.879,0.0
14.628,-0.665,-0.815,0.0
13.555,-0.62,-0.833,0.0
12.551,-0.577,-0.843,0.0
11.707,-0.542,-0.855,0.0
11.012,-0.512,-0.867,0.0
10.442,-0.489,-0.882,0.0
14.473,-0.68,-0.82,0.0
13.477,-0.636,-0.84,0.0
12.443,-0.591,-0.847,0.0
11.559,-0.552,-0.855,0.0
10.96,-0.526,-0.873,0.0
10.329,-0.499,-0.882,0.0
14.405,-0.698,-0.829,0.0
13.291,-0.648,-0.841,0.0
12.313,-0.603,-0.849,0.0
11.471,-0.565,-0.858,0.0
10.849,-0.538,-0.874,0.0
10.242,-0.51,-0.884,0.0
14.116,-0.706,-0.824,0.0
20.043,-1.008,-1.285,0.0
12.206,-0.617,-0.852,0.0
11.36,-0.577,-0.859,0.0
10.746,-0.549,-0.875,0.0
10.181,-0.523,-0.887,0.0
14.005,-0.721,-0.829,0.0
20.04,-1.038,-1.301,0.0
12.061,-0.628,-0.852,0.0
11.261,-0.589,-0.861,0.0
10.67,-0.561,-0.877,0.0
10.111,-0.535,-0.889,0.0
13.829,-0.733,-0.829,0.0
12.811,-0.683,-0.841,0.0
11.941,-0.64,-0.852,0.0
11.184,-0.602,-0.864,0.0
10.587,-0.573,-0.878,0.0
10.065,-0.548,-0.892,0.0
13.652,-0.745,-0.829,0.0
12.71,-0.697,-0.844,0.0
11.836,-0.652,-0.853,0.0
11.096,-0.615,-0.865,0.0
10.539,-0.587,-0.882,0.0
10.015,-0.56,-0.895,0.0
13.573,-0.761,-0.833,0.0
12.601,-0.71,-0.845,0.0
11.73,-0.665,-0.854,0.0
11.024,-0.628,-0.867,0.0
10.456,-0.598,-0.882,0.0
9.927,-0.571,-0.894,0.0
13.487,-0.777,-0.837,0.0
12.431,-0.72,-0.842,0.0
11.656,-0.678,-0.856,0.0
10.957,-0.641,-0.868,0.0
10.39,-0.61,-0.883,0.0
9.856,-0.582,-0.894,0.0
13.377,-0.791,-0.838,0.0
12.396,-0.737,-0.847,0.0
11.555,-0.69,-0.855,0.0
10.917,-0.655,-0.871,0.0
10.339,-0.623,-0.884,0.0
9.819,-0.595,-0.896,0.0
13.253,-0.804,-0.838,0.0
12.31,-0.751,-0.848,0.0
11.499,-0.704,-0.858,0.0
10.893,-0.67,-0.875,0.0
10.287,-0.636,-0.885,0.0
9.786,-0.608,-0.898,0.0
13.251,-0.825,-0.844,0.0
12.258,-0.766,-0.851,0.0
11.487,-0.721,-0.863,0.0
10.833,-0.683,-0.876,0.0
10.24,-0.649,-0.886,0.0
9.719,-0.619,-0.897,0.0
13.088,-0.834,-0.84,0.0
12.182,-0.78,-0.851,0.0
11.429,-0.735,-0.863,0.0
10.764,-0.695,-0.875,0.0
10.216,-0.663,-0.889,0.0
9.692,-0.632,-0.899,0.0
13.054,-0.852,-0.844,0.0
12.144,-0.796,-0.854,0.0
11.355,-0.747,-0.863,0.0
10.76,-0.712,-0.88,0.0
10.185,-0.676,-0.89,0.0
9.676,-0.646,-0.901,0.0
20.089,-1.342,-1.307,0.0
12.075,-0.81,-0.853,0.0
11.313,-0.762,-0.864,0.0
10.74,-0.726,-0.882,0.0
10.165,-0.691,-0.892,0.0
9.631,-0.657,-0.9,0.0
12.925,-0.883,-0.845,0.0
12.035,-0.825,-0.855,0.0
11.282,-0.777,-0.865,0.0
10.674,-0.738,-0.88,0.0
10.143,-0.704,-0.894,0.0
9.642,-0.672,-0.904,0.0
12.886,-0.899,-0.846,0.0
11.998,-0.841,-0.856,0.0
11.237,-0.791,-0.865,0.0
10.644,-0.752,-0.88,0.0
10.114,-0.717,-0.894,0.0
9.603,-0.684,-0.903,0.0
12.833,-0.915,-0.846,0.0
11.972,-0.857,-0.857,0.0
11.214,-0.806,-0.866,0.0
10.598,-0.765,-0.879,0.0
10.07,-0.729,-0.892,0.0
9.593,-0.698,-0.905,0.0
12.808,-0.932,-0.847,0.0
11.944,-0.872,-0.857,0.0
11.206,-0.822,-0.867,0.0
10.614,-0.781,-0.883,0.0
10.063,-0.744,-0.894,0.0
9.581,-0.711,-0.905,0.0
12.812,-0.951,-0.85,0.0
11.916,-0.888,-0.857,0.0
11.191,-0.837,-0.868,0.0
10.58,-0.794,-0.881,0.0
10.047,-0.757,-0.894,0.0
9.574,-0.725,-0.906,0.0
12.778,-0.967,-0.849,0.0
11.928,-0.906,-0.86,0.0
11.186,-0.853,-0.869,0.0
10.579,-0.81,-0.883,0.0
10.053,-0.773,-0.895,0.0
9.538,-0.736,-0.903,0.0
12.744,-0.983,-0.848,0.0
11.91,-0.922,-0.859,0.0
11.177,-0.868,-0.869,0.0
10.559,-0.823,-0.882,0.0
10.015,-0.784,-0.893,0.0
9.56,-0.751,-0.906,0.0
12.751,-1.002,-0.849,0.0
11.907,-0.939,-0.86,0.0
11.174,-0.884,-0.869,0.0
10.565,-0.839,-0.882,0.0
10.024,-0.799,-0.894,0.0
9.553,-0.764,-0.905,0.0
12.769,-1.021,-0.851,0.0
11.9,-0.955,-0.859,0.0
11.194,-0.902,-0.871,0.0
10.574,-0.855,-0.883,0.0
10.021,-0.813,-0.893,0.0
9.568,-0.779,-0.907,0.0
12.741,-1.037,-0.848,0.0
11.942,-0.975,-0.862,0.0
11.178,-0.916,-0.869,0.0
10.577,-0.87,-0.883,0.0
10.046,-0.829,-0.895,0.0
