X,Y,Z,Reflectivity
10.795,0.891,-0.865,0.0
10.267,0.846,-0.881,0.0
9.744,0.801,-0.892,0.0
9.362,0.769,-0.911,0.0
8.875,0.727,-0.914,0.0
8.495,0.695,-0.923,0.0
10.752,0.875,-0.866,0.0
10.191,0.828,-0.879,0.0
9.8,0.795,-0.901,0.0
9.297,0.753,-0.908,0.0
8.812,0.712,-0.911,0.0
8.452,0.682,-0.922,0.0
10.712,0.86,-0.867,0.0
10.171,0.815,-0.881,0.0
9.738,0.779,-0.898,0.0
9.263,0.739,-0.908,0.0
8.895,0.709,-0.923,0.0
8.458,0.673,-0.926,0.0
10.674,0.844,-0.867,0.0
10.16,0.802,-0.883,0.0
9.67,0.762,-0.895,0.0
0.0,0.0,0.0,0.0
8.798,0.691,-0.915,0.0
8.393,0.658,-0.921,0.0
10.631,0.828,-0.867,0.0
10.141,0.788,-0.884,0.0
9.674,0.751,-0.898,0.0
9.213,0.713,-0.909,0.0
8.822,0.682,-0.92,0.0
8.38,0.646,-0.922,0.0
10.594,0.812,-0.866,0.0
10.086,0.772,-0.882,0.0
9.681,0.739,-0.901,0.0
9.179,0.7,-0.907,0.0
8.746,0.665,-0.914,0.0
8.338,0.633,-0.919,0.0
10.573,0.798,-0.867,0.0
10.071,0.758,-0.883,0.0
9.611,0.722,-0.896,0.0
9.159,0.687,-0.907,0.0
8.744,0.654,-0.915,0.0
8.365,0.625,-0.923,0.0
10.59,0.786,-0.87,0.0
10.083,0.747,-0.885,0.0
9.594,0.709,-0.896,0.0
9.12,0.672,-0.904,0.0
8.709,0.641,-0.913,0.0
8.384,0.615,-0.926,0.0
10.533,0.768,-0.867,0.0
10.047,0.731,-0.883,0.0
9.64,0.7,-0.902,0.0
9.117,0.66,-0.905,0.0
8.722,0.63,-0.915,0.0
8.34,0.601,-0.922,0.0
10.563,0.757,-0.87,0.0
10.048,0.718,-0.884,0.0
9.588,0.684,-0.897,0.0
9.211,0.655,-0.915,0.0
8.728,0.62,-0.916,0.0
8.37,0.593,-0.926,0.0
10.57,0.744,-0.871,0.0
10.046,0.705,-0.884,0.0
9.581,0.671,-0.897,0.0
9.053,0.632,-0.899,0.0
8.729,0.608,-0.916,0.0
8.349,0.58,-0.924,0.0
10.543,0.728,-0.869,0.0
10.076,0.694,-0.887,0.0
9.602,0.66,-0.899,0.0
9.198,0.63,-0.913,0.0
8.749,0.598,-0.918,0.0
8.389,0.572,-0.928,0.0
10.571,0.716,-0.87,0.0
10.098,0.682,-0.888,0.0
9.573,0.645,-0.895,0.0
9.182,0.617,-0.911,0.0
8.754,0.587,-0.918,0.0
8.346,0.558,-0.922,0.0
10.587,0.703,-0.871,0.0
10.064,0.666,-0.884,0.0
9.623,0.635,-0.899,0.0
9.107,0.6,-0.903,0.0
8.801,0.578,-0.922,0.0
8.346,0.547,-0.921,0.0
10.609,0.69,-0.871,0.0
10.094,0.655,-0.885,0.0
9.634,0.623,-0.899,0.0
9.156,0.59,-0.906,0.0
8.801,0.566,-0.92,0.0
8.377,0.537,-0.923,0.0
10.65,0.679,-0.872,0.0
10.124,0.643,-0.886,0.0
9.662,0.612,-0.899,0.0
9.166,0.579,-0.905,0.0
8.84,0.557,-0.923,0.0
8.418,0.528,-0.926,0.0
10.639,0.663,-0.869,0.0
10.127,0.629,-0.884,0.0
9.686,0.6,-0.899,0.0
9.231,0.57,-0.909,0.0
8.804,0.542,-0.917,0.0
8.415,0.517,-0.923,0.0
10.664,0.65,-0.868,0.0
10.164,0.618,-0.884,0.0
9.732,0.59,-0.901,0.0
9.27,0.56,-0.911,0.0
8.859,0.533,-0.92,0.0
8.429,0.506,-0.922,0.0
10.734,0.64,-0.871,0.0
10.166,0.604,-0.881,0.0
9.729,0.576,-0.897,0.0
9.276,0.547,-0.908,0.0
8.865,0.521,-0.917,0.0
8.476,0.497,-0.924,0.0
10.713,0.624,-0.865,0.0
10.212,0.592,-0.881,0.0
9.726,0.562,-0.893,0.0
9.298,0.535,-0.907,0.0
8.876,0.509,-0.915,0.0
8.486,0.485,-0.922,0.0
10.782,0.612,-0.866,0.0
10.26,0.581,-0.881,0.0
9.793,0.552,-0.895,0.0
9.308,0.523,-0.904,0.0
8.931,0.5,-0.917,0.0
8.503,0.474,-0.92,0.0
10.809,0.599,-0.864,0.0
10.318,0.569,-0.882,0.0
9.854,0.542,-0.896,0.0
9.366,0.513,-0.905,0.0
8.956,0.489,-0.915,0.0
8.544,0.464,-0.92,0.0
10.954,0.591,-0.87,0.0
10.303,0.554,-0.875,0.0
9.863,0.528,-0.892,0.0
9.375,0.5,-0.901,0.0
8.996,0.478,-0.914,0.0
8.583,0.454,-0.92,0.0
11.021,0.58,-0.869,0.0
10.421,0.546,-0.879,0.0
9.906,0.517,-0.891,0.0
9.414,0.489,-0.899,0.0
9.085,0.47,-0.918,0.0
8.605,0.443,-0.917,0.0
11.072,0.567,-0.867,0.0
10.494,0.535,-0.879,0.0
9.988,0.507,-0.892,0.0
9.523,0.481,-0.904,0.0
9.054,0.456,-0.91,0.0
8.701,0.436,-0.922,0.0
11.142,0.555,-0.865,0.0
10.536,0.522,-0.876,0.0
10.033,0.495,-0.89,0.0
9.649,0.474,-0.91,0.0
9.13,0.447,-0.911,0.0
8.746,0.426,-0.921,0.0
11.214,0.543,-0.864,0.0
10.569,0.509,-0.872,0.0
10.081,0.484,-0.887,0.0
9.646,0.461,-0.903,0.0
9.24,0.439,-0.916,0.0
8.798,0.416,-0.92,0.0
11.277,0.53,-0.861,0.0
10.646,0.498,-0.871,0.0
10.144,0.472,-0.885,0.0
9.687,0.449,-0.9,0.0
9.264,0.427,-0.911,0.0
8.799,0.404,-0.914,0.0
11.299,0.515,-0.854,0.0
10.782,0.489,-0.873,0.0
10.221,0.462,-0.884,0.0
9.778,0.439,-0.9,0.0
9.269,0.414,-0.904,0.0
8.893,0.396,-0.917,0.0
11.346,0.502,-0.848,0.0
10.857,0.478,-0.871,0.0
10.29,0.45,-0.882,0.0
9.8,0.427,-0.894,0.0
9.402,0.407,-0.909,0.0
8.968,0.387,-0.917,0.0
11.543,0.494,-0.853,0.0
10.992,0.468,-0.872,0.0
10.393,0.44,-0.881,0.0
9.883,0.417,-0.893,0.0
9.49,0.398,-0.91,0.0
8.985,0.375,-0.91,0.0
11.634,0.482,-0.85,0.0
11.069,0.456,-0.869,0.0
10.454,0.429,-0.877,0.0
9.987,0.407,-0.893,0.0
9.497,0.385,-0.901,0.0
9.075,0.366,-0.911,0.0
11.768,0.472,-0.848,0.0
11.166,0.445,-0.866,1.0
10.549,0.418,-0.875,0.0
10.054,0.396,-0.89,0.0
9.631,0.377,-0.905,0.0
9.164,0.357,-0.911,0.0
11.88,0.46,-0.845,0.0
11.274,0.434,-0.863,0.0
10.692,0.409,-0.876,0.0
10.134,0.386,-0.887,0.0
9.706,0.367,-0.902,0.0
9.248,0.348,-0.91,0.0
12.04,0.45,-0.844,0.0
11.362,0.422,-0.858,0.0
10.827,0.4,-0.876,0.0
10.227,0.375,-0.884,0.0
9.774,0.356,-0.898,0.0
9.323,0.338,-0.908,0.0
12.246,0.441,-0.846,0.0
11.448,0.41,-0.853,0.0
10.929,0.389,-0.873,0.0
10.329,0.365,-0.882,0.0
9.869,0.347,-0.896,0.0
9.435,0.329,-0.908,0.0
12.349,0.428,-0.84,0.0
11.618,0.4,-0.852,0.0
11.052,0.378,-0.871,1.0
10.419,0.354,-0.878,0.0
9.939,0.336,-0.891,0.0
9.526,0.32,-0.906,0.0
12.689,0.423,-0.848,0.0
11.754,0.39,-0.849,0.0
11.171,0.368,-0.867,1.0
10.498,0.343,-0.873,0.0
10.058,0.327,-0.89,0.0
9.611,0.31,-0.903,0.0
12.942,0.415,-0.85,0.0
11.925,0.38,-0.847,0.0
11.316,0.358,-0.865,1.0
10.723,0.337,-0.879,0.0
10.21,0.318,-0.892,0.0
9.751,0.302,-0.904,0.0
13.096,0.403,-0.844,0.0
12.148,0.371,-0.849,0.0
11.403,0.346,-0.858,0.0
10.864,0.327,-0.877,0.0
10.287,0.308,-0.886,0.0
9.807,0.291,-0.897,0.0
13.368,0.395,-0.845,0.0
12.376,0.363,-0.849,0.0
11.517,0.335,-0.852,0.0
10.986,0.317,-0.873,0.0
10.4,0.298,-0.882,0.0
9.932,0.283,-0.896,0.0
13.537,0.383,-0.839,0.0
12.547,0.352,-0.844,0.0
11.698,0.326,-0.85,0.0
11.147,0.308,-0.871,1.0
10.518,0.288,-0.878,0.0
10.06,0.274,-0.894,0.0
13.751,0.372,-0.834,0.0
12.896,0.346,-0.851,0.0
11.868,0.316,-0.846,0.0
11.296,0.298,-0.867,1.0
10.693,0.28,-0.878,0.0
10.196,0.265,-0.892,0.0
14.037,0.362,-0.832,0.0
13.157,0.337,-0.85,0.0
12.15,0.308,-0.85,0.0
11.394,0.287,-0.859,0.0
10.866,0.271,-0.877,0.0
10.301,0.255,-0.887,0.0
14.349,0.353,-0.83,0.0
13.345,0.325,-0.843,0.0
12.423,0.3,-0.851,0.0
11.542,0.277,-0.854,0.0
11.027,0.262,-0.874,0.0
10.417,0.245,-0.882,0.0
14.584,0.342,-0.823,0.0
13.616,0.316,-0.841,0.0
12.636,0.291,-0.847,0.0
11.743,0.268,-0.851,0.0
11.197,0.253,-0.871,1.0
10.568,0.237,-0.879,0.0
14.917,0.332,-0.82,0.0
13.876,0.306,-0.836,0.0
13.012,0.284,-0.853,0.0
11.962,0.259,-0.849,0.0
11.353,0.243,-0.866,1.0
10.753,0.228,-0.878,0.0
15.196,0.321,-0.812,0.0
14.13,0.296,-0.83,0.0
13.163,0.273,-0.843,0.0
12.285,0.252,-0.853,0.0
11.452,0.233,-0.856,0.0
10.963,0.221,-0.878,0.0
15.576,0.312,-0.808,0.0
14.447,0.286,-0.826,0.0
13.502,0.265,-0.844,0.0
12.487,0.242,-0.848,0.0
11.681,0.224,-0.855,0.0
11.133,0.212,-0.874,0.0
15.953,0.302,-0.803,0.0
14.748,0.276,-0.82,0.0
13.824,0.256,-0.842,0.0
12.869,0.236,-0.853,0.0
11.887,0.216,-0.851,0.0
11.306,0.203,-0.869,0.0
16.319,0.291,-0.795,0.0
15.122,0.267,-0.817,0.0
14.078,0.246,-0.835,0.0
13.131,0.227,-0.849,0.0
12.202,0.208,-0.854,0.0
11.431,0.193,-0.86,0.0
16.788,0.282,-0.791,0.0
15.503,0.257,-0.812,0.0
14.376,0.236,-0.829,0.0
13.425,0.218,-0.846,0.0
12.439,0.2,-0.85,0.0
11.624,0.184,-0.855,0.0
17.493,0.276,-0.795,0.0
15.876,0.248,-0.805,0.0
14.734,0.227,-0.825,0.0
13.694,0.209,-0.84,0.0
12.805,0.193,-0.853,0.0
11.857,0.176,-0.852,0.0
17.644,0.261,-0.772,1.0
16.375,0.239,-0.802,0.0
15.048,0.217,-0.816,0.0
14.034,0.2,-0.836,0.0
13.158,0.185,-0.854,0.0
12.215,0.17,-0.857,0.0
18.277,0.253,-0.768,1.0
16.801,0.229,-0.794,0.0
15.432,0.208,-0.81,0.0
14.34,0.191,-0.83,0.0
13.434,0.176,-0.848,0.0
12.459,0.161,-0.852,0.0
18.788,0.242,-0.757,0.0
17.247,0.219,-0.785,0.0
15.897,0.199,-0.807,0.0
14.738,0.182,-0.826,0.0
13.722,0.167,-0.842,0.0
12.753,0.154,-0.849,0.0
40.555,1.026,3.505,37.0
40.649,1.036,3.295,39.0
40.783,1.048,3.088,35.0
41.074,1.064,2.886,16.0
70.735,1.848,4.593,9.0
72.216,1.902,4.304,13.0
40.615,1.077,3.567,40.0
40.716,1.088,3.357,33.0
40.705,1.096,3.138,46.0
40.884,1.109,2.928,36.0
65.335,1.786,4.33,17.0
71.097,1.959,4.333,23.0
40.566,1.126,3.617,40.0
40.773,1.14,3.416,38.0
40.744,1.147,3.195,47.0
40.952,1.162,2.988,20.0
65.344,1.868,4.417,13.0
78.436,2.26,4.883,5.0
40.56,1.176,3.67,39.0
40.553,1.184,3.451,37.0
40.786,1.2,3.251,44.0
78.706,2.332,5.844,8.0
65.436,1.953,4.507,5.0
65.495,1.97,4.16,15.0
40.531,1.227,3.719,40.0
40.464,1.233,3.495,39.0
40.658,1.247,3.292,41.0
59.518,1.839,4.493,7.0
66.637,2.073,4.672,13.0
65.503,2.053,4.241,16.0
40.563,1.279,3.772,35.0
40.473,1.285,3.545,36.0
40.484,1.295,3.328,40.0
40.769,1.313,3.127,40.0
66.579,2.158,4.749,16.0
79.615,2.599,5.25,11.0
40.44,1.329,3.81,20.0
40.443,1.338,3.591,41.0
40.555,1.35,3.382,37.0
40.712,1.364,3.17,46.0
45.225,1.525,3.278,12.0
66.563,2.259,4.467,21.0
40.571,1.387,3.869,34.0
40.331,1.387,3.627,38.0
40.334,1.396,3.409,40.0
40.637,1.415,3.211,39.0
40.861,1.432,3.008,25.0
45.233,1.596,3.086,37.0
40.423,1.436,3.901,46.0
40.316,1.44,3.672,38.0
40.367,1.451,3.457,46.0
40.59,1.468,3.252,33.0
40.633,1.479,3.036,41.0
40.785,1.493,2.827,33.0
40.558,1.495,3.958,41.0
40.406,1.498,3.723,43.0
40.6,1.514,3.52,37.0
40.685,1.526,3.303,27.0
40.645,1.534,3.079,33.0
40.743,1.546,2.866,36.0
40.649,1.554,4.009,22.0
40.388,1.552,3.763,43.0
40.316,1.558,3.537,46.0
40.391,1.57,3.319,45.0
40.521,1.584,3.11,42.0
40.717,1.6,2.904,46.0
40.557,1.605,4.04,33.0
40.43,1.609,3.806,41.0
40.445,1.618,3.587,41.0
40.379,1.624,3.357,44.0
40.525,1.639,3.149,34.0
40.838,1.661,2.951,36.0
40.627,1.664,4.086,20.0
40.399,1.663,3.842,45.0
40.381,1.671,3.619,45.0
40.427,1.681,3.398,40.0
40.457,1.691,3.18,37.0
40.555,1.705,2.968,38.0
40.728,1.724,4.133,16.0
40.613,1.727,3.898,35.0
40.282,1.722,3.646,39.0
40.642,1.746,3.453,25.0
40.344,1.742,3.207,37.0
40.476,1.757,2.997,40.0
41.182,1.8,4.215,37.0
40.839,1.794,3.956,30.0
40.308,1.779,3.683,41.0
40.852,1.812,3.505,36.0
40.328,1.797,3.239,44.0
40.412,1.81,3.025,42.0
41.168,1.857,4.248,32.0
40.747,1.846,3.98,40.0
40.55,1.846,3.738,41.0
40.462,1.85,3.504,32.0
40.402,1.856,3.277,42.0
40.399,1.865,3.056,39.0
40.947,1.904,4.256,39.0
40.765,1.904,4.013,47.0
40.542,1.901,3.768,40.0
40.307,1.899,3.52,37.0
40.608,1.922,3.324,23.0
40.286,1.915,3.077,41.0
40.899,1.959,4.282,41.0
40.99,1.971,4.065,28.0
41.198,1.99,3.859,16.0
40.31,1.956,3.549,38.0
40.524,1.975,3.346,38.0
40.445,1.98,3.117,35.0
40.783,2.01,4.298,42.0
41.104,2.035,4.105,38.0
41.016,2.04,3.869,32.0
40.336,2.014,3.579,40.0
40.408,2.027,3.363,38.0
40.407,2.036,3.141,29.0
40.769,2.068,4.324,40.0
40.814,2.079,4.102,28.0
40.967,2.095,3.891,36.0
40.419,2.075,3.611,33.0
40.664,2.096,3.409,40.0
40.462,2.095,3.17,36.0
40.765,2.125,4.348,42.0
45.175,2.364,4.568,8.0
40.955,2.152,3.914,33.0
40.787,2.152,3.668,39.0
40.516,2.146,3.42,37.0
40.364,2.147,3.185,37.0
40.702,2.179,4.364,41.0
45.973,2.47,4.674,4.0
40.899,2.206,3.931,42.0
41.22,2.232,3.73,38.0
40.445,2.199,3.436,42.0
40.548,2.213,3.22,28.0
40.827,2.243,4.399,21.0
40.946,2.258,4.184,25.0
40.949,2.267,3.956,28.0
41.27,2.293,3.754,38.0
40.513,2.259,3.461,46.0
40.849,2.286,3.264,35.0
40.948,2.308,4.431,24.0
40.83,2.309,4.191,21.0
45.916,2.606,4.458,20.0
41.345,2.355,3.78,45.0
40.802,2.332,3.504,25.0
40.59,2.328,3.261,35.0
40.997,2.368,4.454,18.0
58.834,3.41,6.064,8.0
44.859,2.609,4.373,26.0
41.405,2.416,3.802,32.0
40.978,2.399,3.535,28.0
40.703,2.391,3.286,35.0
40.98,2.424,4.468,6.0
40.886,2.426,4.229,31.0
44.711,2.662,4.376,35.0
41.344,2.469,3.811,31.0
41.304,2.475,3.578,43.0
41.546,2.498,3.368,38.0
46.656,2.825,5.103,3.0
40.868,2.482,4.241,4.0
44.785,2.728,4.397,19.0
45.408,2.775,4.201,20.0
41.531,2.546,3.61,34.0
41.637,2.561,3.388,41.0
52.26,3.236,5.732,10.0
52.292,3.249,5.442,42.0
52.332,3.261,5.153,5.0
45.314,2.832,4.204,41.0
41.899,2.626,3.654,32.0
41.979,2.64,3.427,29.0
52.225,3.306,5.741,10.0
52.273,3.319,5.452,30.0
52.315,3.331,5.163,11.0
45.153,2.884,4.199,11.0
41.925,2.686,3.665,33.0
42.051,2.701,3.442,22.0
46.766,3.025,5.15,4.0
52.332,3.395,5.469,5.0
42.24,2.748,4.177,39.0
45.663,2.979,4.255,10.0
41.84,2.737,3.665,41.0
41.856,2.746,3.433,42.0
46.709,3.085,5.152,6.0
46.582,3.085,4.875,5.0
42.02,2.79,4.162,39.0
42.031,2.798,3.923,19.0
41.9,2.797,3.676,37.0
41.771,2.796,3.431,37.0
62.406,4.206,6.891,11.0
46.505,3.142,4.872,13.0
41.939,2.841,4.158,43.0
41.994,2.852,3.923,39.0
41.493,2.825,3.644,33.0
41.717,2.848,3.43,39.0
41.925,2.881,4.632,24.0
46.505,3.204,4.876,5.0
41.869,2.891,4.154,39.0
41.562,2.877,3.885,16.0
41.446,2.876,3.641,38.0
41.708,2.902,3.431,36.0
41.976,2.94,4.639,34.0
53.003,3.721,5.558,11.0
41.891,2.948,4.156,34.0
41.391,2.919,3.869,21.0
41.352,2.923,3.633,29.0
41.531,2.944,3.416,35.0
41.706,2.975,4.609,35.0
53.077,3.795,5.565,11.0
46.271,3.316,4.59,5.0
41.311,2.968,3.861,31.0
41.331,2.976,3.63,38.0
41.53,2.997,3.414,32.0
46.054,3.345,5.086,6.0
46.036,3.351,4.824,15.0
41.166,3.003,4.081,21.0
41.235,3.014,3.85,42.0
41.383,3.032,3.631,37.0
41.5,3.047,3.408,32.0
45.95,3.396,5.071,8.0
46.012,3.407,4.816,20.0
41.21,3.058,4.08,35.0
41.325,3.073,3.854,30.0
41.21,3.072,3.611,36.0
41.495,3.1,3.402,43.0
45.263,3.403,4.988,6.0
41.199,3.103,4.307,5.0
41.234,3.112,4.076,12.0
41.166,3.113,3.832,38.0
41.231,3.124,3.605,44.0
41.472,3.149,3.393,29.0
45.26,3.458,4.98,38.0
51.531,3.945,5.377,10.0
41.185,3.159,4.064,17.0
41.561,3.194,3.861,16.0
41.402,3.188,3.612,40.0
41.603,3.21,3.395,24.0
45.234,3.512,4.966,12.0
45.25,3.519,4.711,19.0
41.222,3.212,4.057,32.0
41.239,3.219,3.821,29.0
41.311,3.231,3.594,40.0
41.565,3.257,3.381,43.0
45.243,3.566,4.955,22.0
45.312,3.578,4.705,4.0
41.211,3.26,4.045,31.0
41.657,3.301,3.848,17.0
41.405,3.287,3.59,36.0
45.624,3.628,3.698,3.0
45.249,3.62,4.942,37.0
45.302,3.631,4.69,13.0
45.185,3.627,4.42,19.0
41.812,3.362,3.848,30.0
41.261,3.323,3.564,33.0
41.312,3.334,3.334,18.0
50.717,4.117,5.522,5.0
45.331,3.685,4.677,27.0
45.322,3.69,4.417,12.0
41.989,3.424,3.849,20.0
41.339,3.377,3.555,41.0
41.336,3.383,3.32,35.0
48.005,3.951,5.207,15.0
63.559,5.239,6.532,7.0
41.345,3.413,4.013,34.0
41.295,3.414,3.769,42.0
41.308,3.421,3.535,36.0
45.592,3.782,3.643,4.0
48.026,4.007,5.189,25.0
63.539,5.308,6.502,13.0
41.333,3.458,3.993,26.0
41.357,3.465,3.756,33.0
41.264,3.462,3.513,42.0
41.563,3.493,3.302,26.0
47.957,4.053,5.159,7.0
43.363,3.67,4.417,2.0
41.579,3.523,3.997,41.0
41.313,3.506,3.732,34.0
41.247,3.505,3.491,39.0
48.588,4.135,3.836,8.0
48.032,4.111,5.142,13.0
41.267,3.536,4.182,14.0
41.273,3.541,3.947,42.0
41.296,3.547,3.709,29.0
41.437,3.565,3.485,16.0
41.532,3.578,3.257,17.0
47.823,4.142,5.094,30.0
41.272,3.579,4.159,25.0
41.269,3.583,3.923,43.0
41.29,3.589,3.685,40.0
44.463,3.869,3.715,4.0
41.577,3.623,3.237,32.0
47.905,4.197,5.075,9.0
41.256,3.618,4.134,44.0
41.471,3.641,3.918,16.0
41.286,3.629,3.66,21.0
44.373,3.905,3.68,5.0
41.72,3.676,3.223,16.0
45.9,4.066,4.834,16.0
41.308,3.663,4.113,31.0
41.39,3.674,3.884,19.0
41.244,3.665,3.631,36.0
41.602,3.701,3.424,18.0
41.672,3.711,3.193,23.0
45.886,4.108,4.802,28.0
41.284,3.699,4.084,31.0
41.31,3.705,3.849,22.0
41.258,3.704,3.604,37.0
41.458,3.727,3.384,45.0
41.578,3.741,3.157,40.0
45.895,4.151,4.772,14.0
41.24,3.733,4.05,17.0
41.257,3.738,3.816,39.0
41.267,3.742,3.576,35.0
41.404,3.758,3.351,44.0
41.589,3.779,3.128,36.0
48.178,4.399,4.974,12.0
48.754,4.456,4.753,10.0
41.587,3.804,3.816,18.0
41.264,3.777,3.545,40.0
41.501,3.803,3.328,31.0
41.557,3.811,3.095,37.0
48.084,4.432,4.928,8.0
48.754,4.497,4.716,10.0
41.239,3.807,3.752,46.0
41.607,3.844,3.542,30.0
41.479,3.835,3.294,39.0
41.548,3.845,3.062,35.0
48.375,4.498,4.919,5.0
45.404,4.225,4.356,6.0
41.314,3.847,3.726,39.0
41.682,3.884,3.515,37.0
41.605,3.88,3.27,30.0
41.805,3.902,3.047,35.0
45.374,4.255,4.576,26.0
41.728,3.915,3.968,22.0
41.52,3.898,3.71,16.0
41.806,3.927,3.491,32.0
41.482,3.9,3.226,41.0
44.413,4.179,3.2,6.0
44.575,4.213,4.458,21.0
41.685,3.942,3.928,18.0
42.056,3.98,3.721,15.0
41.804,3.958,3.455,42.0
41.511,3.933,3.192,42.0
44.37,4.207,3.158,7.0
44.196,4.209,4.38,33.0
41.741,3.977,3.896,27.0
42.057,4.009,3.684,15.0
41.885,3.995,3.424,39.0
41.717,3.981,3.171,34.0
42.041,4.015,2.954,18.0
44.114,4.231,4.332,21.0
41.679,3.999,3.852,33.0
41.997,4.032,3.639,30.0
41.783,4.013,3.377,35.0
41.636,4.001,3.126,41.0
42.185,4.057,2.925,20.0
44.143,4.262,4.292,20.0
41.784,4.036,3.822,39.0
41.936,4.052,3.594,15.0
41.766,4.037,3.335,34.0
42.063,4.068,3.117,40.0
0.0,0.0,0.0,0.0
44.359,4.31,4.27,14.0
43.936,4.27,3.975,4.0
41.93,4.077,3.552,29.0
44.353,4.314,3.498,6.0
42.112,4.098,3.079,31.0
43.35,4.22,2.921,21.0
44.709,4.37,4.258,19.0
43.869,4.288,3.925,31.0
41.94,4.101,3.51,19.0
42.108,4.119,3.277,17.0
42.211,4.131,3.043,6.0
43.255,4.234,2.87,18.0
44.701,4.392,4.211,8.0
43.882,4.313,3.88,16.0
42.015,4.13,3.473,24.0
42.483,4.177,3.263,18.0
54.53,5.363,3.875,6.0
42.932,4.224,2.804,15.0
41.714,4.119,3.885,10.0
43.865,4.332,3.833,25.0
42.033,4.152,3.43,15.0
42.658,4.215,3.231,22.0
0.0,0.0,0.0,0.0
42.88,4.239,2.755,8.0
49.388,4.899,4.547,7.0
43.88,4.353,3.786,21.0
42.053,4.172,3.386,15.0
42.421,4.209,3.167,28.0
0.0,0.0,0.0,0.0
73.105,7.258,4.618,14.0
44.174,4.4,4.018,14.0
43.858,4.368,3.736,22.0
42.02,4.186,3.337,28.0
42.568,4.241,3.131,18.0
43.777,4.362,2.968,19.0
73.12,7.287,4.537,24.0
44.144,4.413,3.965,20.0
41.925,4.191,3.523,31.0
42.057,4.204,3.292,11.0
43.201,4.319,3.128,18.0
43.07,4.307,2.871,32.0
73.13,7.314,4.454,30.0
44.065,4.419,3.907,12.0
42.0,4.212,3.481,16.0
43.185,4.331,3.33,17.0
42.699,4.282,3.042,34.0
42.92,4.304,2.811,27.0
73.185,7.341,4.374,25.0
44.016,4.427,3.852,24.0
44.121,4.437,3.605,5.0
42.833,4.307,3.253,37.0
42.746,4.298,2.995,26.0
42.86,4.31,2.757,13.0
88.519,8.901,5.186,25.0
43.89,4.425,3.788,23.0
44.124,4.448,3.553,9.0
42.845,4.318,3.202,25.0
42.976,4.331,2.96,21.0
73.448,7.402,4.637,11.0
88.54,8.923,5.08,36.0
43.877,4.433,3.733,22.0
44.264,4.471,3.51,16.0
42.988,4.341,3.161,17.0
43.236,4.365,2.926,35.0
73.368,7.408,4.542,22.0
88.527,8.937,4.972,37.0
44.05,4.457,3.694,23.0
44.027,4.453,3.437,28.0
42.999,4.348,3.108,26.0
43.151,4.363,2.866,26.0
73.317,7.412,4.448,26.0
88.537,8.949,4.863,39.0
44.097,4.467,3.643,22.0
43.237,4.378,3.322,18.0
42.946,4.348,3.051,26.0
42.919,4.344,2.798,13.0
88.525,8.958,5.262,17.0
88.542,8.958,4.754,40.0
44.084,4.469,3.586,31.0
42.811,4.338,3.235,18.0
42.927,4.348,2.996,26.0
42.823,4.336,2.737,4.0
88.519,8.962,5.149,37.0
88.529,8.96,4.641,38.0
44.151,4.477,3.535,15.0
0.0,0.0,0.0,0.0
43.055,4.362,2.95,35.0
73.465,7.44,4.603,12.0
88.527,8.963,5.036,41.0
88.541,8.962,4.528,39.0
44.279,4.489,3.488,22.0
43.084,4.365,3.145,24.0
43.29,4.384,2.91,29.0
73.292,7.42,4.497,25.0
88.541,8.961,4.923,42.0
88.546,8.958,4.415,37.0
43.524,4.41,3.372,21.0
42.943,4.348,3.078,30.0
43.026,4.354,2.836,17.0
73.328,7.418,4.404,20.0
88.54,8.954,4.807,43.0
88.55,8.951,4.298,38.0
42.829,4.335,3.261,30.0
42.967,4.346,3.023,25.0
42.868,4.334,2.769,13.0
88.514,8.944,5.199,35.0
88.545,8.942,4.691,45.0
88.555,8.94,4.182,39.0
42.869,4.332,3.207,16.0
43.043,4.347,2.972,25.0
73.484,7.417,4.649,12.0
88.524,8.93,5.082,38.0
88.549,8.928,4.574,36.0
88.547,8.923,4.064,35.0
43.016,4.339,3.161,19.0
43.264,4.361,2.929,32.0
73.291,7.382,4.54,19.0
88.534,8.913,4.965,40.0
88.542,8.908,4.456,41.0
88.563,8.905,3.949,37.0
42.781,4.305,3.086,34.0
43.032,4.327,2.856,34.0
73.206,7.355,4.437,30.0
88.514,8.887,4.845,31.0
88.531,8.884,4.337,37.0
88.539,8.879,3.829,32.0
42.711,4.286,3.024,27.0
42.87,4.298,2.788,15.0
73.083,7.322,4.331,17.0
88.513,8.861,4.727,15.0
88.526,8.856,4.218,36.0
88.555,8.853,3.71,31.0
43.72,4.372,3.036,21.0
73.136,7.308,4.657,12.0
88.495,8.836,5.124,14.0
73.054,7.288,3.802,18.0
88.525,8.825,4.098,35.0
88.551,8.821,3.59,29.0
43.8,4.364,2.982,21.0
73.038,7.271,4.551,26.0
73.082,7.269,4.132,11.0
88.538,8.799,4.487,31.0
88.55,8.792,3.978,30.0
88.518,8.782,3.469,17.0
42.937,4.26,2.865,28.0
72.891,7.225,4.442,32.0
73.113,7.24,4.034,22.0
88.515,8.757,4.366,21.0
88.519,8.751,3.858,21.0
88.479,8.739,3.346,7.0
42.891,4.236,2.802,12.0
72.814,7.183,4.339,31.0
73.134,7.208,3.936,24.0
88.567,8.72,4.247,16.0
88.603,8.715,3.74,15.0
88.665,8.714,3.234,7.0
72.875,7.16,4.662,13.0
72.911,7.155,4.244,22.0
73.186,7.174,3.838,9.0
88.781,8.695,4.137,11.0
88.756,8.683,3.625,11.0
88.855,8.685,3.12,12.0
72.811,7.113,4.558,25.0
73.032,7.127,4.151,27.0
90.739,8.844,4.635,14.0
90.691,8.829,4.102,16.0
90.604,8.812,3.577,19.0
89.078,8.655,3.006,13.0
72.776,7.066,4.456,34.0
73.015,7.081,4.05,23.0
91.0,8.814,4.524,15.0
90.964,8.801,3.991,17.0
90.922,8.787,3.466,10.0
89.336,8.625,2.894,14.0
72.803,7.022,4.359,23.0
73.276,7.058,3.965,36.0
91.357,8.789,4.417,16.0
91.265,8.77,3.879,15.0
91.204,8.753,3.353,1.0
89.69,8.599,2.783,11.0
73.05,6.996,4.274,30.0
73.421,7.022,3.873,11.0
91.646,8.754,4.307,14.0
91.616,8.74,3.771,20.0
90.069,8.581,3.19,3.0
90.014,8.565,2.672,12.0
73.563,6.992,4.204,32.0
92.063,8.737,4.731,11.0
92.002,8.719,4.199,12.0
91.938,8.702,3.659,21.0
90.433,8.548,3.081,4.0
90.392,8.534,2.561,12.0
84.499,7.966,4.714,20.0
92.445,8.702,4.626,12.0
92.442,8.689,4.094,13.0
92.338,8.666,3.55,16.0
90.722,8.504,2.968,11.0
90.809,8.5,2.45,11.0
84.502,7.896,4.599,41.0
85.665,7.992,4.17,15.0
92.796,8.645,3.984,17.0
92.752,8.628,3.44,11.0
91.162,8.467,2.858,9.0
91.204,8.46,2.338,8.0
84.948,7.865,4.509,51.0
93.016,8.598,4.402,18.0
93.025,8.585,3.869,16.0
92.988,8.569,3.325,5.0
91.582,8.426,2.75,13.0
91.654,8.42,2.227,11.0
85.54,7.842,4.426,33.0
93.03,8.515,4.279,28.0
93.04,8.501,3.746,33.0
0.0,0.0,0.0,0.0
92.093,8.388,2.643,4.0
92.091,8.375,2.117,4.0
85.589,7.766,4.315,34.0
92.995,8.423,4.154,23.0
93.022,8.411,3.623,18.0
92.537,8.353,3.064,6.0
92.581,8.344,2.535,7.0
92.635,8.334,2.007,8.0
85.658,7.688,4.205,37.0
93.042,8.335,4.035,13.0
93.091,8.323,3.503,14.0
93.099,8.309,2.96,7.0
93.117,8.297,2.427,10.0
93.159,8.286,1.895,14.0
85.966,7.625,4.107,19.0
93.103,8.242,3.915,45.0
93.127,8.23,3.382,47.0
93.117,8.214,2.84,56.0
93.145,8.202,2.308,55.0
93.144,8.187,1.776,54.0
92.029,8.067,4.279,23.0
93.113,8.145,3.796,51.0
93.118,8.129,3.263,51.0
93.132,8.115,2.722,44.0
45.897,3.991,1.078,12.0
45.839,3.979,0.816,17.0
91.856,7.949,4.154,25.0
96.386,8.324,3.807,15.0
45.9,3.956,1.55,15.0
45.823,3.941,1.281,20.0
45.805,3.932,1.018,27.0
45.793,3.923,0.757,30.0
45.889,3.918,2.017,27.0
45.85,3.907,1.753,19.0
45.826,3.896,1.49,25.0
45.791,3.885,1.222,30.0
45.765,3.875,0.96,34.0
45.755,3.866,0.699,36.0
45.83,3.859,1.957,35.0
45.811,3.848,1.694,34.0
45.788,3.838,1.431,39.0
45.77,3.828,1.165,40.0
45.772,3.82,0.904,36.0
45.759,3.811,0.643,36.0
45.804,3.801,1.899,40.0
45.804,3.792,1.637,39.0
45.793,3.782,1.376,41.0
45.782,3.773,1.11,42.0
45.783,3.764,0.848,45.0
45.78,3.756,0.587,43.0
45.83,3.745,1.844,43.0
45.828,3.735,1.583,43.0
45.824,3.726,1.321,41.0
45.818,3.717,1.055,38.0
45.836,3.709,0.794,42.0
45.838,3.701,0.533,41.0
45.862,3.688,1.791,33.0
45.875,3.679,1.529,36.0
45.905,3.673,1.269,34.0
45.939,3.666,1.003,16.0
45.938,3.657,0.741,15.0
45.941,3.649,0.48,29.0
45.975,3.635,1.741,15.0
100.651,7.938,3.237,6.0
98.878,7.777,2.617,11.0
98.963,7.765,2.046,11.0
99.014,7.748,1.483,8.0
99.113,7.737,0.921,9.0
101.393,7.879,3.723,17.0
101.418,7.859,3.145,3.0
99.701,7.704,2.524,10.0
99.794,7.689,1.948,9.0
99.862,7.675,1.381,8.0
99.9,7.657,0.813,9.0
102.007,7.781,3.627,36.0
100.438,7.639,2.998,4.0
100.555,7.626,2.43,9.0
100.595,7.608,1.849,9.0
100.689,7.594,1.278,10.0
100.734,7.576,0.706,8.0
47.217,3.533,1.626,62.0
47.307,3.529,1.36,7.0
101.507,7.551,2.341,5.0
101.616,7.536,1.755,5.0
101.652,7.518,1.178,5.0
52.316,3.858,0.309,6.0
47.576,3.489,1.586,4.0
47.367,3.464,1.309,39.0
47.443,3.458,1.042,69.0
47.553,3.456,0.77,17.0
52.314,3.791,0.55,20.0
52.187,3.77,0.252,14.0
48.284,3.468,1.558,9.0
47.704,3.416,1.268,3.0
47.668,3.402,0.996,18.0
47.694,3.393,0.721,20.0
47.697,3.382,0.45,36.0
52.105,3.683,0.196,16.0
48.697,3.423,1.519,10.0
48.306,3.384,1.233,12.0
47.918,3.345,0.951,8.0
47.949,3.336,0.675,14.0
48.012,3.329,0.404,11.0
51.984,3.593,0.142,18.0
49.228,3.383,1.486,13.0
48.684,3.334,1.193,7.0
48.335,3.298,0.91,6.0
48.198,3.277,0.63,11.0
48.308,3.273,0.358,8.0
51.858,3.502,0.09,15.0
49.858,3.346,1.455,10.0
49.184,3.289,1.156,12.0
48.935,3.26,0.873,6.0
48.574,3.224,0.587,7.0
48.692,3.22,0.312,6.0
51.709,3.407,0.039,16.0
50.701,3.319,1.43,6.0
49.853,3.251,1.124,6.0
49.237,3.198,0.831,3.0
48.995,3.17,0.544,4.0
52.303,3.372,0.285,8.0
51.533,3.31,-0.009,17.0
50.833,3.243,1.385,1.0
50.559,3.213,1.091,21.0
50.226,3.178,0.8,8.0
49.661,3.129,0.505,4.0
52.413,3.289,0.237,9.0
51.405,3.214,-0.057,19.0
111.078,6.897,2.924,72.0
111.075,6.867,2.296,57.0
50.592,3.115,0.759,7.0
50.389,3.089,0.467,4.0
52.394,3.198,0.189,17.0
51.244,3.115,-0.103,22.0
0.0,0.0,0.0,0.0
113.978,6.847,2.253,7.0
114.115,6.824,1.611,8.0
50.8,3.024,0.425,3.0
52.615,3.119,0.143,6.0
50.98,3.008,-0.148,22.0
115.625,6.772,2.838,7.0
115.726,6.746,2.187,9.0
115.879,6.723,1.536,9.0
115.959,6.698,0.871,6.0
52.595,3.024,0.099,10.0
50.909,2.914,-0.191,6.0
59.493,3.378,1.41,3.0
59.416,3.357,1.073,21.0
59.388,3.339,0.738,24.0
59.336,3.32,0.397,24.0
52.431,2.92,0.055,24.0
48.327,2.678,-0.221,3.0
59.395,3.264,1.359,27.0
59.36,3.246,1.024,32.0
59.335,3.228,0.69,29.0
59.302,3.209,0.349,26.0
52.369,2.82,0.013,13.0
49.001,2.625,-0.262,2.0
59.403,3.155,1.313,38.0
59.397,3.139,0.979,31.0
59.391,3.121,0.644,33.0
59.361,3.102,0.304,28.0
52.361,2.721,-0.026,25.0
49.728,2.571,-0.304,2.0
124.802,6.397,2.665,150.0
124.808,6.359,1.963,150.0
120.082,6.085,1.213,17.0
59.495,2.998,0.261,4.0
52.283,2.62,-0.063,25.0
50.351,2.509,-0.344,7.0
120.144,5.932,2.479,8.0
120.211,5.901,1.806,20.0
120.022,5.857,1.129,15.0
65.834,3.194,0.243,9.0
52.399,2.527,-0.1,17.0
0.0,0.0,0.0,0.0
127.651,6.059,2.547,2.0
120.107,5.667,1.722,9.0
66.176,3.103,0.578,5.0
65.62,3.057,0.198,12.0
52.901,2.448,-0.136,26.0
44.859,2.063,-0.367,0.0
66.104,3.01,1.275,12.0
66.071,2.988,0.904,25.0
66.066,2.969,0.534,22.0
65.344,2.916,0.155,9.0
53.896,2.39,-0.173,4.0
44.454,1.957,-0.392,1.0
62.752,2.735,1.171,8.0
62.235,2.693,0.813,8.0
66.044,2.837,0.493,9.0
65.208,2.781,0.115,11.0
54.642,2.315,-0.208,3.0
44.805,1.884,-0.422,1.0
66.204,2.754,1.197,13.0
66.176,2.732,0.826,25.0
66.101,2.709,0.455,26.0
65.125,2.649,0.078,7.0
55.708,2.248,-0.244,2.0
44.634,1.788,-0.445,0.0
193.995,7.682,3.399,16.0
119.956,4.711,1.431,19.0
72.018,2.806,0.457,8.0
64.861,2.508,0.042,9.0
54.322,2.084,-0.267,0.0
44.702,1.7,-0.469,0.0
120.056,4.515,2.042,28.0
72.429,2.7,0.827,17.0
72.024,2.662,0.42,14.0
59.308,2.174,0.009,6.0
54.055,1.964,-0.293,1.0
0.0,0.0,0.0,0.0
72.347,2.574,1.195,30.0
72.345,2.55,0.791,33.0
71.865,2.511,0.385,16.0
64.737,2.241,-0.019,2.0
54.189,1.859,-0.318,1.0
40.272,1.369,-0.461,0.0
72.376,2.427,1.163,34.0
72.374,2.404,0.759,35.0
71.885,2.365,0.354,17.0
60.863,1.982,-0.045,3.0
0.0,0.0,0.0,0.0
38.846,1.24,-0.461,0.0
120.038,3.779,1.879,11.0
79.041,2.462,0.797,7.0
71.801,2.214,0.324,12.0
62.335,1.9,-0.071,5.0
0.0,0.0,0.0,0.0
0.0,0.0,0.0,0.0
76.206,2.241,1.164,9.0
76.557,2.226,0.743,4.0
71.816,2.065,0.298,12.0
63.842,1.815,-0.095,7.0
0.0,0.0,0.0,0.0
0.0,0.0,0.0,0.0
78.882,2.157,1.178,36.0
78.87,2.13,0.74,29.0
71.698,1.912,0.274,16.0
65.493,1.725,-0.119,6.0
0.0,0.0,0.0,0.0
38.47,0.987,-0.497,0.0
85.326,2.153,1.248,24.0
85.126,2.12,0.772,19.0
71.962,1.767,0.253,19.0
66.57,1.613,-0.14,4.0
0.0,0.0,0.0,0.0
0.0,0.0,0.0,0.0
85.238,1.972,1.223,37.0
85.232,1.944,0.751,27.0
72.053,1.619,0.235,13.0
0.0,0.0,0.0,0.0
0.0,0.0,0.0,0.0
0.0,0.0,0.0,0.0
85.362,1.795,1.205,29.0
85.353,1.765,0.732,26.0
77.948,1.584,0.237,5.0
0.0,0.0,0.0,0.0
45.744,0.899,-0.371,0.0
0.0,0.0,0.0,0.0
91.932,1.739,1.28,3.0
91.84,1.706,0.771,24.0
73.874,1.348,0.211,5.0
0.0,0.0,0.0,0.0
45.932,0.806,-0.38,0.0
36.394,0.626,-0.502,0.0
91.924,1.543,1.265,42.0
91.838,1.51,0.756,22.0
81.12,1.305,0.22,3.0
0.0,0.0,0.0,0.0
47.073,0.725,-0.396,0.0
0.0,0.0,0.0,0.0
98.616,1.445,1.345,28.0
98.519,1.41,0.8,15.0
81.032,1.132,0.211,2.0
0.0,0.0,0.0,0.0
43.984,0.583,-0.374,0.0
0.0,0.0,0.0,0.0
98.515,1.233,1.335,31.0
98.342,1.196,0.791,12.0
80.122,0.947,0.203,3.0
0.0,0.0,0.0,0.0
46.487,0.517,-0.398,0.0
0.0,0.0,0.0,0.0
98.656,1.024,1.332,28.0
98.465,0.987,0.788,15.0
84.015,0.814,0.21,2.0
0.0,0.0,0.0,0.0
44.897,0.403,-0.386,0.0
35.96,0.31,-0.507,0.0
100.105,0.827,1.351,6.0
104.765,0.827,0.838,19.0
85.563,0.645,0.214,8.0
0.0,0.0,0.0,0.0
45.956,0.313,-0.394,1.0
36.332,0.235,-0.511,0.0
101.376,0.617,1.371,1.0
110.88,0.637,0.89,7.0
87.999,0.474,0.223,4.0
0.0,0.0,0.0,0.0
45.973,0.214,-0.392,0.0
36.764,0.158,-0.515,0.0
119.805,0.472,1.628,16.0
110.871,0.397,0.898,12.0
91.872,0.297,0.24,1.0
0.0,0.0,0.0,0.0
0.0,0.0,0.0,0.0
0.0,0.0,0.0,0.0
111.149,0.199,1.522,21.0
0.0,0.0,0.0,0.0
95.565,0.103,0.261,1.0
0.0,0.0,0.0,0.0
45.298,0.016,-0.376,2.0
37.332,0.0,-0.514,0.0
111.288,-0.04,1.539,15.0
111.311,-0.08,0.93,8.0
99.379,-0.106,0.287,1.0
64.032,-0.092,-0.171,0.0
45.407,-0.081,-0.37,1.0
37.645,-0.08,-0.512,0.0
113.303,-0.282,1.587,7.0
114.365,-0.326,0.977,10.0
0.0,0.0,0.0,0.0
0.0,0.0,0.0,0.0
45.655,-0.179,-0.362,0.0
37.424,-0.16,-0.501,0.0
114.42,-0.528,1.627,7.0
119.693,-0.594,1.049,13.0
0.0,0.0,0.0,0.0
0.0,0.0,0.0,0.0
0.0,0.0,0.0,0.0
37.826,-0.242,-0.497,0.0
119.689,-0.806,1.732,7.0
119.673,-0.85,1.079,17.0
0.0,0.0,0.0,0.0
0.0,0.0,0.0,0.0
0.0,0.0,0.0,0.0
37.603,-0.322,-0.484,0.0
119.749,-1.065,1.768,150.0
119.748,-1.108,1.116,116.0
0.0,0.0,0.0,0.0
0.0,0.0,0.0,0.0
0.0,0.0,0.0,0.0
40.108,-0.429,-0.503,0.0
139.215,-1.533,2.101,8.0
139.245,-1.582,1.344,18.0
0.0,0.0,0.0,0.0
0.0,0.0,0.0,0.0
0.0,0.0,0.0,0.0
0.0,0.0,0.0,0.0
139.127,-1.824,2.15,8.0
138.978,-1.872,1.392,14.0
127.642,-1.766,0.585,2.0
0.0,0.0,0.0,0.0
0.0,0.0,0.0,0.0
0.0,0.0,0.0,0.0
138.973,-2.113,2.203,8.0
139.086,-2.164,1.45,9.0
113.425,-1.804,0.566,6.0
0.0,0.0,0.0,0.0
50.211,-0.835,-0.298,0.0
41.887,-0.712,-0.476,0.0
193.396,-3.344,3.15,8.0
139.182,-2.456,1.512,13.0
138.882,-2.501,0.756,6.0
0.0,0.0,0.0,0.0
0.0,0.0,0.0,0.0
0.0,0.0,0.0,0.0
193.113,-3.741,3.236,17.0
138.963,-2.741,1.576,4.0
138.95,-2.791,0.824,9.0
0.0,0.0,0.0,0.0
0.0,0.0,0.0,0.0
44.766,-0.947,-0.465,0.0
193.204,-4.143,3.336,21.0
0.0,0.0,0.0,0.0
138.897,-3.078,0.895,12.0
0.0,0.0,0.0,0.0
54.504,-1.246,-0.243,0.0
43.669,-1.014,-0.43,1.0
193.089,-4.539,3.439,20.0
0.0,0.0,0.0,0.0
138.855,-3.362,0.973,13.0
0.0,0.0,0.0,0.0
0.0,0.0,0.0,0.0
44.131,-1.115,-0.41,1.0
193.523,-4.943,3.559,5.0
0.0,0.0,0.0,0.0
138.786,-3.642,1.054,16.0
0.0,0.0,0.0,0.0
0.0,0.0,0.0,0.0
44.62,-1.219,-0.387,1.0
0.0,0.0,0.0,0.0
138.715,-3.874,1.888,4.0
138.394,-3.911,1.137,23.0
0.0,0.0,0.0,0.0
0.0,0.0,0.0,0.0
47.554,-1.395,-0.382,0.0
194.452,-5.749,3.821,10.0
138.572,-4.146,1.976,5.0
138.711,-4.198,1.231,23.0
0.0,0.0,0.0,0.0
0.0,0.0,0.0,0.0
47.688,-1.493,-0.351,1.0
194.136,-6.129,3.947,20.0
138.665,-4.427,2.073,7.0
138.637,-4.475,1.327,24.0
0.0,0.0,0.0,0.0
0.0,0.0,0.0,0.0
0.0,0.0,0.0,0.0
187.446,-6.288,3.946,52.0
138.537,-4.695,2.172,7.0
138.588,-4.747,1.429,21.0
0.0,0.0,0.0,0.0
0.0,0.0,0.0,0.0
0.0,0.0,0.0,0.0
193.436,-6.871,4.218,13.0
138.423,-4.966,2.276,4.0
138.561,-5.016,1.534,10.0
138.502,-5.061,0.776,7.0
0.0,0.0,0.0,0.0
0.0,0.0,0.0,0.0
194.436,-7.282,4.392,8.0
193.376,-7.309,3.331,16.0
138.627,-5.287,1.645,3.0
138.459,-5.329,0.887,11.0
0.0,0.0,0.0,0.0
0.0,0.0,0.0,0.0
193.012,-7.603,4.519,21.0
192.889,-7.664,3.483,18.0
0.0,0.0,0.0,0.0
138.426,-5.591,1.002,17.0
0.0,0.0,0.0,0.0
0.0,0.0,0.0,0.0
192.851,-7.958,4.677,13.0
192.657,-8.015,3.641,25.0
138.059,-5.79,1.871,14.0
138.049,-5.835,1.118,19.0
0.0,0.0,0.0,0.0
0.0,0.0,0.0,0.0
193.322,-8.34,4.858,24.0
192.96,-8.385,3.816,17.0
138.093,-6.045,1.992,64.0
138.166,-6.096,1.242,12.0
0.0,0.0,0.0,0.0
0.0,0.0,0.0,0.0
20.143,-0.905,0.524,2.0
20.168,-0.913,0.417,0.0
138.064,-6.298,2.119,33.0
138.217,-6.35,1.369,25.0
0.0,0.0,0.0,0.0
20.005,-0.932,-0.015,2.0
20.119,-0.941,0.542,20.0
20.126,-0.948,0.435,18.0
20.148,-0.955,0.328,14.0
20.178,-0.963,0.219,0.0
138.165,-6.641,0.763,7.0
20.018,-0.968,0.004,6.0
20.12,-0.977,0.562,26.0
20.134,-0.984,0.455,20.0
20.154,-0.991,0.347,26.0
20.16,-0.998,0.238,28.0
20.046,-0.999,0.13,10.0
19.983,-1.002,0.023,17.0
20.046,-1.009,0.579,16.0
19.989,-1.012,0.471,11.0
19.995,-1.018,0.365,11.0
20.004,-1.025,0.257,25.0
19.992,-1.031,0.15,17.0
19.975,-1.036,0.043,32.0
19.977,-1.04,0.598,19.0
19.96,-1.044,0.491,18.0
19.951,-1.05,0.384,16.0
19.978,-1.058,0.277,23.0
19.977,-1.064,0.17,22.0
19.983,-1.071,0.064,27.0
19.983,-1.074,0.619,25.0
19.982,-1.08,0.512,21.0
19.969,-1.085,0.406,20.0
19.929,-1.089,0.297,19.0
20.006,-1.099,0.192,25.0
20.01,-1.105,0.086,23.0
19.974,-1.107,0.64,25.0
19.956,-1.112,0.533,24.0
19.961,-1.117,0.427,22.0
19.926,-1.122,0.318,19.0
19.971,-1.13,0.213,15.0
20.114,-1.144,0.108,10.0
19.972,-1.139,0.661,22.0
19.966,-1.145,0.555,21.0
19.949,-1.149,0.449,19.0
19.925,-1.154,0.341,19.0
19.945,-1.161,0.235,14.0
20.017,-1.171,0.13,36.0
19.955,-1.171,0.684,18.0
19.95,-1.176,0.577,20.0
19.943,-1.181,0.471,19.0
19.901,-1.185,0.363,18.0
19.95,-1.193,0.258,28.0
19.981,-1.201,0.152,150.0
19.968,-1.203,0.707,17.0
19.951,-1.207,0.6,23.0
19.935,-1.212,0.494,19.0
19.928,-1.217,0.386,25.0
19.939,-1.223,0.281,26.0
19.983,-1.232,0.176,22.0
19.971,-1.234,0.73,16.0
19.952,-1.238,0.624,22.0
19.948,-1.243,0.518,21.0
19.928,-1.248,0.41,20.0
19.942,-1.254,0.305,20.0
19.972,-1.261,0.199,24.0
19.972,-1.264,0.754,13.0
19.949,-1.268,0.648,19.0
19.94,-1.273,0.542,21.0
19.911,-1.276,0.433,17.0
19.918,-1.282,0.328,16.0
19.958,-1.29,0.223,28.0
20.002,-1.296,0.78,11.0
19.966,-1.299,0.672,11.0
19.959,-1.303,0.566,13.0
19.946,-1.308,0.459,10.0
19.952,-1.313,0.353,13.0
19.97,-1.32,0.248,23.0
72.234,-4.785,2.906,26.0
20.008,-1.33,0.698,11.0
20.042,-1.337,0.594,10.0
20.073,-1.344,0.486,3.0
119.447,-8.034,2.266,19.0
119.289,-8.054,1.633,10.0
72.47,-4.903,3.006,26.0
20.001,-1.358,0.723,9.0
19.998,-1.362,0.618,10.0
20.015,-1.368,0.51,9.0
20.041,-1.375,0.405,9.0
20.047,-1.38,0.299,2.0
67.915,-4.687,2.903,55.0
67.891,-4.702,2.543,24.0
20.0,-1.39,0.643,11.0
19.985,-1.393,0.535,11.0
20.013,-1.4,0.43,10.0
20.009,-1.405,0.324,10.0
67.909,-4.778,2.991,65.0
67.899,-4.793,2.631,51.0
20.018,-1.417,0.67,8.0
19.994,-1.42,0.561,10.0
19.997,-1.425,0.456,9.0
20.011,-1.431,0.351,11.0
67.912,-4.867,3.08,65.0
67.905,-4.882,2.721,55.0
67.868,-4.894,2.361,27.0
20.023,-1.448,0.589,4.0
20.028,-1.453,0.483,7.0
20.02,-1.457,0.377,7.0
67.918,-4.953,3.17,67.0
67.918,-4.968,2.811,56.0
67.872,-4.978,2.45,44.0
72.012,-5.297,2.212,17.0
72.757,-5.369,1.852,9.0
119.386,-8.837,2.411,29.0
67.921,-5.036,3.261,64.0
67.925,-5.051,2.903,54.0
67.899,-5.063,2.544,43.0
71.933,-5.379,2.308,29.0
75.273,-5.644,2.018,4.0
119.392,-8.979,2.573,32.0
67.919,-5.118,3.354,39.0
67.925,-5.132,2.996,25.0
102.786,-7.785,3.991,16.0
102.816,-7.808,3.438,20.0
67.899,-5.17,1.913,11.0
67.929,-5.187,1.556,27.0
67.95,-5.198,3.449,59.0
67.932,-5.209,3.089,65.0
67.917,-5.221,2.73,79.0
67.89,-5.232,2.365,70.0
67.883,-5.245,2.007,90.0
67.886,-5.259,1.649,82.0
67.952,-5.274,3.543,56.0
67.938,-5.284,3.184,44.0
67.95,-5.298,2.826,40.0
67.934,-5.309,2.46,32.0
67.943,-5.323,2.103,21.0
71.699,-5.631,1.843,14.0
71.294,-5.609,3.818,22.0
71.031,-5.601,3.428,37.0
0.0,0.0,0.0,0.0
104.523,-8.278,3.932,7.0
72.545,-5.758,2.346,11.0
71.701,-5.704,1.942,14.0
71.491,-5.698,3.928,10.0
71.33,-5.696,3.542,37.0
71.378,-5.712,3.167,31.0
71.908,-5.766,2.805,20.0
72.18,-5.801,2.436,13.0
74.901,-6.032,2.133,8.0
71.496,-5.768,4.029,21.0
71.245,-5.759,3.638,15.0
67.933,-5.502,3.111,39.0
67.931,-5.512,2.746,44.0
67.91,-5.522,2.387,39.0
72.14,-5.877,2.156,31.0
71.522,-5.837,4.131,19.0
71.201,-5.822,3.737,12.0
67.945,-5.565,3.207,43.0
67.935,-5.575,2.842,48.0
67.921,-5.584,2.484,43.0
72.087,-5.938,2.257,7.0
71.558,-5.905,4.236,13.0
71.358,-5.898,3.848,15.0
67.948,-5.626,3.306,54.0
67.956,-5.636,2.941,44.0
67.936,-5.644,2.582,44.0
71.946,-5.988,2.357,8.0
75.786,-6.319,4.596,10.0
71.396,-5.963,3.953,19.0
67.941,-5.683,3.403,62.0
67.96,-5.693,3.039,62.0
67.95,-5.702,2.681,48.0
67.917,-5.709,2.322,28.0
71.596,-6.029,4.446,21.0
71.376,-6.019,4.056,22.0
67.943,-5.738,3.502,35.0
67.955,-5.747,3.137,45.0
67.961,-5.756,2.78,47.0
67.933,-5.762,2.421,41.0
71.567,-6.082,4.548,12.0
71.329,-6.069,4.155,15.0
71.451,-6.088,3.786,19.0
67.949,-5.797,3.235,48.0
67.976,-5.807,2.878,52.0
67.946,-5.813,2.519,50.0
71.321,-6.113,4.635,27.0
71.668,-6.15,4.279,13.0
70.934,-6.094,3.861,10.0
67.968,-5.846,3.335,44.0
67.969,-5.854,2.976,47.0
67.951,-5.86,2.618,46.0
70.581,-6.098,4.69,25.0
71.557,-6.189,4.376,9.0
70.675,-6.119,3.95,24.0
67.954,-5.89,3.432,44.0
67.976,-5.899,3.075,46.0
67.97,-5.905,2.717,38.0
70.837,-6.165,4.81,24.0
71.21,-6.204,4.459,11.0
70.887,-6.182,4.065,18.0
67.958,-5.933,3.531,21.0
67.978,-5.94,3.174,45.0
67.98,-5.946,2.816,51.0
70.406,-6.171,4.884,33.0
70.868,-6.216,4.541,9.0
70.902,-6.224,4.169,22.0
71.226,-6.258,3.804,17.0
67.985,-5.979,3.273,49.0
67.969,-5.983,2.914,45.0
70.659,-6.232,5.005,33.0
70.822,-6.251,4.641,24.0
71.17,-6.286,4.288,24.0
70.934,-6.27,3.892,33.0
67.974,-6.013,3.37,32.0
71.562,-6.336,3.171,7.0
70.353,-6.241,5.085,35.0
70.678,-6.273,4.734,12.0
71.049,-6.311,4.383,10.0
70.797,-6.292,3.985,19.0
71.362,-6.347,3.641,13.0
71.543,-6.367,3.273,13.0
70.415,-6.279,5.191,24.0
70.735,-6.311,4.839,24.0
71.185,-6.354,4.493,15.0
0.0,0.0,0.0,0.0
71.213,-6.364,3.735,47.0
71.616,-6.404,3.379,8.0
70.518,-6.318,5.3,25.0
69.996,-6.274,4.889,11.0
70.729,-6.342,4.566,13.0
70.079,-6.287,4.146,11.0
70.794,-6.354,3.814,25.0
71.308,-6.403,3.465,8.0
70.641,-6.355,5.41,32.0
70.03,-6.302,4.992,40.0
33.169,-2.986,2.188,2.0
70.817,-6.378,4.291,9.0
70.84,-6.382,3.918,28.0
71.37,-6.432,3.569,11.0
71.0,-6.412,5.54,25.0
70.383,-6.358,5.118,34.0
70.755,-6.392,4.77,25.0
71.337,-6.446,4.424,20.0
69.877,-6.316,3.963,33.0
71.166,-6.434,3.66,9.0
71.121,-6.443,5.65,19.0
70.374,-6.376,5.217,24.0
70.897,-6.424,4.879,34.0
70.976,-6.432,4.502,12.0
69.753,-6.323,4.054,28.0
70.691,-6.409,3.734,14.0
71.054,-6.455,5.746,12.0
70.295,-6.386,5.31,25.0
70.594,-6.413,4.957,38.0
71.008,-6.451,4.602,14.0
70.189,-6.377,4.178,12.0
70.487,-6.404,3.823,22.0
71.107,-6.474,5.851,5.0
70.707,-6.437,5.441,24.0
70.392,-6.407,5.042,38.0
70.86,-6.449,4.692,11.0
70.514,-6.418,4.295,14.0
70.274,-6.396,3.908,16.0
76.329,-6.962,6.386,6.0
71.06,-6.48,5.568,22.0
70.528,-6.43,5.15,30.0
70.994,-6.471,4.799,42.0
70.461,-6.421,4.39,21.0
69.776,-6.359,3.977,21.0
73.658,-6.727,6.265,10.0
71.036,-6.485,5.663,12.0
70.307,-6.416,5.23,16.0
70.68,-6.449,4.875,38.0
70.722,-6.451,4.502,47.0
69.792,-6.365,4.072,12.0
71.382,-6.524,6.169,11.0
71.081,-6.493,5.763,11.0
70.354,-6.424,5.33,32.0
70.37,-6.424,4.949,38.0
71.051,-6.483,4.619,25.0
70.128,-6.397,4.186,14.0
73.802,-6.747,6.478,11.0
76.474,-6.988,6.304,4.0
70.841,-6.47,5.461,35.0
70.355,-6.423,5.041,42.0
70.989,-6.477,4.709,13.0
70.339,-6.416,4.292,13.0
76.825,-7.023,6.846,6.0
73.688,-6.732,6.172,8.0
71.033,-6.485,5.571,21.0
70.508,-6.433,5.146,32.0
71.026,-6.478,4.805,40.0
70.505,-6.427,4.395,19.0
77.099,-7.043,6.973,5.0
73.686,-6.727,6.269,8.0
71.083,-6.484,5.668,12.0
70.368,-6.415,5.228,21.0
70.8,-6.45,4.882,41.0
70.87,-6.453,4.51,31.0
76.734,-7.002,7.041,1.0
71.368,-6.507,6.165,11.0
71.08,-6.476,5.76,10.0
70.29,-6.399,5.313,27.0
70.569,-6.42,4.958,39.0
71.031,-6.458,4.611,10.0
76.742,-6.992,7.14,7.0
73.572,-6.697,6.451,9.0
73.481,-6.683,6.049,5.0
70.663,-6.421,5.431,24.0
70.433,-6.395,5.037,37.0
70.735,-6.418,4.681,12.0
73.642,-6.696,6.946,18.0
73.508,-6.678,6.538,19.0
76.502,-6.943,6.394,6.0
71.036,-6.44,5.549,22.0
70.451,-6.382,5.127,31.0
70.765,-6.404,4.771,23.0
73.708,-6.685,7.046,18.0
73.477,-6.657,6.628,12.0
74.281,-6.723,6.301,9.0
71.173,-6.435,5.648,12.0
70.365,-6.356,5.207,25.0
70.698,-6.38,4.853,11.0
73.681,-6.663,7.133,20.0
73.437,-6.633,6.714,9.0
74.237,-6.698,6.388,5.0
71.229,-6.419,5.739,10.0
70.526,-6.349,5.303,25.0
69.816,-6.279,4.876,11.0
73.637,-6.637,7.218,19.0
73.561,-6.622,6.813,11.0
71.301,-6.41,6.22,7.0
0.0,0.0,0.0,0.0
70.755,-6.346,5.404,26.0
70.226,-6.291,4.987,27.0
73.733,-6.62,7.315,9.0
73.615,-6.6,6.905,17.0
76.152,-6.818,6.733,11.0
74.132,-6.629,6.147,16.0
70.834,-6.326,5.493,22.0
70.315,-6.272,5.075,31.0
73.929,-6.609,7.42,6.0
73.438,-6.556,6.974,33.0
76.4,-6.81,6.842,9.0
74.238,-6.608,6.24,27.0
70.807,-6.294,5.57,23.0
70.522,-6.261,5.168,18.0
73.14,-6.508,7.423,17.0
73.404,-6.521,7.053,34.0
80.238,-7.117,7.276,7.0
73.407,-6.501,6.253,16.0
71.236,-6.3,5.684,11.0
70.691,-6.243,5.259,13.0
72.756,-6.439,7.466,15.0
73.709,-6.513,7.164,26.0
73.701,-6.502,6.763,9.0
73.198,-6.447,6.314,10.0
74.291,-6.534,6.007,18.0
70.755,-6.213,5.34,21.0
72.06,-6.342,7.472,24.0
73.943,-6.496,7.266,7.0
73.468,-6.443,6.821,27.0
73.306,-6.418,6.402,8.0
74.472,-6.51,6.101,12.0
70.861,-6.184,5.422,20.0
70.597,-6.175,7.396,28.0
73.411,-6.409,7.291,6.0
73.459,-6.401,6.897,21.0
0.0,0.0,0.0,0.0
71.581,-6.216,5.938,17.0
70.932,-6.149,5.501,19.0
70.537,-6.129,7.462,18.0
71.17,-6.171,7.142,10.0
73.347,-6.348,6.962,19.0
71.383,-6.167,6.38,12.0
71.543,-6.17,6.006,15.0
70.9,-6.103,5.568,22.0
73.035,-6.301,7.799,6.0
76.524,-6.589,7.754,9.0
73.382,-6.305,7.037,21.0
71.402,-6.123,6.452,8.0
71.251,-6.099,6.051,24.0
70.958,-6.062,5.641,10.0
70.377,-6.026,7.584,10.0
70.214,-6.0,7.182,8.0
73.314,-6.251,7.1,18.0
71.631,-6.095,6.539,7.0
72.063,-6.12,6.186,23.0
70.622,-5.986,5.679,37.0
70.57,-5.994,7.67,30.0
70.322,-5.96,7.258,5.0
73.337,-6.202,7.169,15.0
0.0,0.0,0.0,0.0
71.792,-6.046,6.228,15.0
70.435,-5.92,5.728,28.0
70.561,-5.943,7.733,31.0
70.854,-5.954,7.377,11.0
73.165,-6.135,7.217,11.0
79.504,-6.651,7.4,7.0
72.232,-6.03,6.329,7.0
70.487,-5.872,5.792,26.0
70.386,-5.876,7.775,35.0
70.664,-5.884,7.418,34.0
73.157,-6.078,7.279,13.0
71.061,-5.89,6.674,12.0
75.846,-6.273,6.71,5.0
70.515,-5.819,5.853,18.0
70.357,-5.818,7.831,19.0
70.934,-5.851,7.505,36.0
73.104,-6.015,7.334,14.0
71.092,-5.836,6.735,7.0
77.38,-6.337,6.908,4.0
70.516,-5.762,5.91,13.0
70.446,-5.767,7.898,8.0
70.423,-5.75,7.508,13.0
73.117,-5.956,7.393,13.0
73.711,-5.989,7.041,5.0
79.363,-6.433,7.146,9.0
75.825,-6.131,6.413,5.0
69.989,-5.671,7.9,16.0
71.493,-5.777,7.676,23.0
0.0,0.0,0.0,0.0
71.63,-5.759,6.895,12.0
70.909,-5.686,6.437,8.0
70.564,-5.644,6.02,7.0
69.986,-5.608,7.952,18.0
71.587,-5.721,7.738,39.0
71.673,-5.713,7.352,11.0
71.674,-5.698,6.95,28.0
70.891,-5.621,6.485,20.0
70.658,-5.588,6.076,19.0
70.259,-5.566,8.031,20.0
71.093,-5.617,7.733,27.0
71.656,-5.646,7.399,7.0
71.63,-5.628,6.994,21.0
70.84,-5.551,6.527,22.0
70.607,-5.518,6.118,19.0
70.379,-5.51,8.091,37.0
71.399,-5.574,7.813,26.0
71.366,-5.556,7.414,32.0
71.241,-5.53,7.001,12.0
70.796,-5.481,6.567,8.0
68.003,-5.251,5.933,81.0
69.407,-5.367,8.022,12.0
71.356,-5.502,7.851,39.0
70.499,-5.419,7.367,29.0
71.507,-5.481,7.069,7.0
68.006,-5.198,6.348,69.0
70.652,-5.385,6.206,4.0
69.588,-5.312,8.084,23.0
71.125,-5.413,7.867,24.0
70.717,-5.366,7.429,11.0
71.151,-5.383,7.073,9.0
71.008,-5.356,6.667,12.0
71.739,-5.396,6.34,11.0
69.861,-5.262,8.153,31.0
71.266,-5.352,7.92,33.0
0.0,0.0,0.0,0.0
68.042,-5.078,6.799,11.0
71.246,-5.301,6.725,8.0
70.983,-5.265,6.308,9.0
69.727,-5.18,8.172,31.0
70.937,-5.253,7.918,48.0
70.811,-5.227,7.51,46.0
68.017,-5.005,6.829,35.0
73.517,-5.393,6.974,6.0
70.882,-5.184,6.331,24.0
69.886,-5.117,8.223,36.0
71.306,-5.204,7.992,48.0
71.417,-5.195,7.606,25.0
68.035,-4.932,6.861,34.0
73.442,-5.308,6.998,8.0
71.053,-5.119,6.377,22.0
70.523,-5.088,8.327,32.0
70.698,-5.083,7.953,28.0
70.213,-5.031,7.506,16.0
71.421,-5.1,7.23,10.0
73.234,-5.213,7.006,15.0
73.645,-5.225,6.637,6.0
69.787,-4.957,8.267,42.0
70.884,-5.018,7.999,14.0
70.236,-4.954,7.534,36.0
70.861,-4.981,7.199,17.0
69.366,-4.859,6.66,20.0
72.947,-5.093,6.599,22.0
70.169,-4.904,8.336,38.0
70.943,-4.94,8.03,44.0
70.83,-4.915,7.621,27.0
70.737,-4.891,7.208,7.0
69.556,-4.793,6.7,29.0
73.266,-5.031,6.649,17.0
70.062,-4.816,8.344,30.0
70.447,-4.824,7.994,23.0
71.051,-4.849,7.664,18.0
70.781,-4.813,7.231,15.0
69.618,-4.717,6.724,13.0
71.531,-4.83,6.51,3.0
70.028,-4.732,8.357,29.0
70.137,-4.722,7.975,45.0
71.304,-4.782,7.708,13.0
59.521,-3.977,6.094,5.0
63.98,-4.26,6.193,36.0
64.139,-4.255,5.85,12.0
70.286,-4.666,8.402,35.0
70.869,-4.687,8.073,28.0
70.357,-4.635,7.619,15.0
59.499,-3.905,6.103,29.0
63.997,-4.184,6.206,38.0
64.105,-4.176,5.858,34.0
70.535,-4.597,8.444,27.0
70.892,-4.603,8.086,34.0
70.395,-4.553,7.634,34.0
59.478,-3.832,6.109,34.0
63.937,-4.104,6.208,18.0
64.025,-4.094,5.859,45.0
69.841,-4.468,8.369,37.0
70.675,-4.503,8.07,30.0
70.386,-4.467,7.64,27.0
59.416,-3.756,6.108,34.0
59.385,-3.739,5.772,33.0
64.029,-4.016,5.864,39.0
69.83,-4.381,8.373,24.0
70.199,-4.386,8.02,12.0
70.252,-4.371,7.63,22.0
59.514,-3.688,6.122,15.0
59.168,-3.653,5.753,32.0
63.989,-3.934,5.863,33.0
70.18,-4.316,8.417,12.0
58.776,-3.6,6.716,16.0
59.172,-3.608,6.427,29.0
59.465,-3.611,6.117,34.0
59.088,-3.573,5.746,32.0
63.972,-3.853,5.861,35.0
65.457,-3.943,7.85,23.0
58.8,-3.527,6.718,33.0
58.945,-3.52,6.401,30.0
58.603,-3.485,6.027,33.0
58.886,-3.488,5.724,33.0
64.008,-3.775,5.861,14.0
64.925,-3.829,7.782,33.0
58.775,-3.451,6.711,33.0
58.751,-3.434,6.376,33.0
58.276,-3.392,5.988,32.0
58.501,-3.391,5.681,32.0
59.294,-3.422,5.424,24.0
65.015,-3.75,7.787,26.0
58.653,-3.368,6.691,33.0
58.788,-3.361,6.372,33.0
58.292,-3.317,5.983,32.0
58.233,-3.3,5.647,31.0
58.733,-3.314,5.364,33.0
64.896,-3.659,7.763,21.0
58.246,-3.269,6.636,8.0
59.274,-3.312,6.416,33.0
58.245,-3.24,5.968,32.0
57.878,-3.205,5.603,32.0
0.0,0.0,0.0,0.0
58.15,-3.203,6.944,7.0
52.005,-2.851,5.914,26.0
59.147,-3.227,6.39,33.0
58.445,-3.174,5.976,33.0
56.997,-3.082,5.505,30.0
57.127,-3.074,5.194,31.0
51.931,-2.792,6.19,31.0
51.998,-2.782,5.9,24.0
58.772,-3.131,6.334,33.0
58.416,-3.096,5.958,32.0
56.866,-3.001,5.477,30.0
57.069,-2.997,5.173,30.0
51.948,-2.725,6.177,23.0
51.987,-2.713,5.884,25.0
58.473,-3.038,6.285,33.0
56.706,-2.932,5.766,23.0
56.825,-2.925,5.455,30.0
57.015,-2.92,5.151,31.0
51.888,-2.654,6.153,40.0
51.995,-2.646,5.868,26.0
58.25,-2.95,6.241,32.0
56.623,-2.853,5.738,31.0
56.7,-2.844,5.423,30.0
57.124,-2.851,5.14,31.0
51.872,-2.584,6.132,26.0
51.896,-2.572,5.837,25.0
58.272,-2.874,6.221,13.0
56.491,-2.772,5.703,14.0
56.566,-2.762,5.388,32.0
57.144,-2.776,5.118,27.0
51.859,-2.514,6.108,31.0
51.89,-2.502,5.814,31.0
47.04,-2.257,5.001,15.0
46.807,-2.234,4.704,21.0
47.255,-2.244,4.48,20.0
57.483,-2.716,5.122,25.0
52.028,-2.453,6.104,22.0
51.928,-2.436,5.794,26.0
46.998,-2.192,4.975,41.0
46.806,-2.172,4.682,33.0
46.969,-2.169,4.43,34.0
44.402,-2.039,3.934,23.0
51.889,-2.377,6.061,26.0
51.871,-2.363,5.76,25.0
46.944,-2.127,4.944,29.0
46.741,-2.107,4.65,44.0
46.698,-2.094,4.379,39.0
44.325,-1.977,3.904,24.0
51.826,-2.306,6.025,26.0
51.845,-2.294,5.729,27.0
46.839,-2.061,4.906,34.0
46.556,-2.037,4.605,32.0
46.651,-2.031,4.348,35.0
44.266,-1.916,3.873,39.0
51.956,-2.242,6.009,25.0
51.91,-2.228,5.705,25.0
46.923,-2.003,4.887,36.0
46.52,-1.974,4.573,47.0
46.512,-1.963,4.306,27.0
44.338,-1.861,3.851,27.0
51.763,-2.165,5.953,11.0
46.852,-1.949,5.118,18.0
52.646,-2.177,5.448,26.0
46.346,-1.906,4.525,33.0
46.18,-1.888,4.244,7.0
44.371,-1.804,3.824,35.0
44.945,-1.82,5.138,32.0
52.86,-2.129,5.738,24.0
52.835,-2.115,5.431,27.0
46.467,-1.849,4.504,35.0
44.228,-1.75,4.033,40.0
44.394,-1.747,3.794,33.0
44.874,-1.758,5.097,34.0
52.316,-2.037,5.64,26.0
52.962,-2.05,5.404,9.0
46.595,-1.793,4.482,24.0
44.216,-1.691,3.999,34.0
44.294,-1.684,3.752,37.0
44.763,-1.695,5.049,40.0
51.428,-1.935,5.504,16.0
46.562,-1.742,4.714,35.0
46.669,-1.735,4.451,32.0
44.182,-1.633,3.96,42.0
44.045,-1.618,3.695,42.0
44.701,-1.634,5.005,33.0
44.802,-1.627,4.758,40.0
52.828,-1.907,5.305,26.0
46.974,-1.686,4.441,22.0
44.203,-1.576,3.925,38.0
43.85,-1.554,3.642,41.0
44.708,-1.576,4.968,39.0
44.919,-1.574,4.731,28.0
53.343,-1.857,5.31,22.0
46.961,-1.624,4.399,22.0
43.976,-1.512,3.866,40.0
43.905,-1.5,3.607,41.0
44.587,-1.514,4.914,26.0
44.484,-1.501,4.644,29.0
0.0,0.0,0.0,0.0
47.257,-1.574,4.383,4.0
43.766,-1.448,3.807,38.0
43.858,-1.442,3.562,45.0
44.256,-1.446,4.835,28.0
44.711,-1.451,4.625,42.0
43.766,-1.411,4.274,12.0
46.616,-1.493,4.278,7.0
43.822,-1.394,3.769,41.0
43.801,-1.385,3.515,43.0
43.86,-1.377,4.748,41.0
44.72,-1.395,4.581,46.0
43.667,-1.353,4.221,35.0
44.028,-1.355,3.996,19.0
43.782,-1.338,3.721,42.0
44.05,-1.337,3.49,33.0
43.768,-1.32,4.693,45.0
44.781,-1.341,4.541,34.0
43.578,-1.295,4.166,32.0
43.561,-1.286,3.908,36.0
43.692,-1.281,3.667,47.0
43.927,-1.279,3.433,45.0
43.782,-1.265,4.647,49.0
44.725,-1.283,4.487,23.0
43.578,-1.242,4.119,35.0
43.554,-1.232,3.86,37.0
