X,Y,Z,Reflectivity
41.941,-0.628,3.655,39.0
42.464,-0.629,3.453,23.0
42.485,-0.623,3.208,43.0
0.0,0.0,0.0,0.0
41.843,-0.596,4.08,36.0
41.896,-0.59,3.841,43.0
42.196,-0.588,3.619,39.0
42.112,-0.58,3.367,37.0
42.553,-0.58,3.155,44.0
41.751,-0.558,4.257,31.0
41.982,-0.555,4.035,43.0
41.956,-0.548,3.788,45.0
41.882,-0.541,3.532,29.0
42.097,-0.538,3.306,43.0
42.445,-0.536,3.087,44.0
43.475,-0.538,4.37,3.0
42.135,-0.515,3.989,40.0
41.94,-0.507,3.726,40.0
41.958,-0.501,3.478,27.0
42.095,-0.496,3.245,45.0
42.465,-0.495,3.026,39.0
41.667,-0.474,4.127,36.0
41.611,-0.468,3.878,38.0
41.763,-0.464,3.649,29.0
42.41,-0.465,3.453,30.0
42.108,-0.456,3.183,41.0
47.879,-0.512,3.342,12.0
41.688,-0.435,4.067,43.0
41.694,-0.43,3.823,34.0
41.602,-0.423,3.571,45.0
41.956,-0.421,3.352,40.0
42.175,-0.418,3.124,37.0
48.101,-0.47,3.284,33.0
41.642,-0.396,3.998,42.0
41.522,-0.389,3.743,44.0
41.657,-0.385,3.512,40.0
42.004,-0.383,3.291,43.0
42.711,-0.385,3.098,32.0
50.191,-0.445,3.349,5.0
41.561,-0.358,3.924,42.0
41.832,-0.355,3.705,37.0
41.706,-0.349,3.45,38.0
41.981,-0.346,3.223,41.0
43.131,-0.35,3.06,19.0
48.022,-0.384,3.127,25.0
41.453,-0.321,3.848,42.0
41.454,-0.316,3.605,40.0
41.955,-0.314,3.403,43.0
42.056,-0.31,3.161,46.0
48.284,-0.35,3.348,31.0
60.08,-0.429,3.816,8.0
41.356,-0.285,3.77,46.0
41.683,-0.282,3.557,52.0
42.082,-0.28,3.344,41.0
42.67,-0.279,3.138,17.0
48.12,-0.31,3.258,28.0
60.462,-0.383,3.741,34.0
41.309,-0.251,3.698,48.0
41.727,-0.249,3.491,31.0
42.04,-0.246,3.271,37.0
45.815,-0.264,3.293,21.0
48.029,-0.272,3.172,21.0
60.836,-0.337,3.664,16.0
41.434,-0.219,3.64,43.0
41.629,-0.216,3.413,47.0
42.282,-0.215,3.219,38.0
48.101,-0.24,3.376,7.0
60.206,-0.294,3.874,28.0
60.62,-0.289,3.547,10.0
41.337,-0.187,3.56,44.0
41.565,-0.184,3.336,48.0
45.802,-0.198,3.408,8.0
47.997,-0.203,3.285,22.0
60.28,-0.249,3.774,17.0
60.761,-0.245,3.45,16.0
41.484,-0.157,3.499,42.0
41.944,-0.155,3.292,32.0
45.916,-0.165,3.335,16.0
48.132,-0.169,3.21,22.0
60.367,-0.207,3.673,29.0
60.458,-0.201,3.326,12.0
41.504,-0.128,3.427,48.0
42.086,-0.126,3.228,26.0
47.955,-0.14,3.398,5.0
60.375,-0.171,3.919,29.0
60.593,-0.166,3.579,15.0
60.326,-0.16,3.211,19.0
41.809,-0.101,3.376,39.0
45.826,-0.107,3.432,26.0
47.907,-0.108,3.308,17.0
60.434,-0.131,3.812,14.0
60.501,-0.126,3.463,10.0
81.17,-0.163,4.173,9.0
42.0,-0.075,3.315,39.0
48.561,-0.083,3.548,18.0
60.517,-0.098,4.067,20.0
60.335,-0.093,3.696,6.0
60.227,-0.089,3.337,21.0
80.506,-0.112,3.99,20.0
41.97,-0.049,3.235,29.0
48.833,-0.054,3.477,11.0
60.339,-0.062,3.944,26.0
60.624,-0.058,3.601,5.0
77.892,-0.069,4.171,17.0
80.748,-0.066,3.852,11.0
48.778,-0.029,3.667,7.0
67.562,-0.036,4.684,8.0
60.234,-0.028,3.823,9.0
60.424,-0.024,3.474,20.0
77.899,-0.026,4.025,5.0
119.918,-0.033,5.496,4.0
48.892,-0.003,3.583,6.0
60.627,0.0,4.087,6.0
60.641,0.003,3.733,6.0
60.192,0.007,3.347,5.0
80.455,0.014,4.003,27.0
117.781,0.028,5.173,7.0
67.729,0.03,4.833,9.0
60.305,0.029,3.95,7.0
71.719,0.039,4.278,2.0
78.012,0.048,4.187,26.0
80.572,0.053,3.854,13.0
70.202,0.05,2.948,6.0
50.42,0.045,3.501,4.0
67.898,0.065,4.315,3.0
80.964,0.082,4.671,5.0
80.798,0.086,4.179,5.0
102.884,0.115,4.721,10.0
70.171,0.081,2.81,7.0
60.571,0.081,4.087,4.0
67.206,0.093,4.14,5.0
81.548,0.117,4.545,10.0
80.546,0.119,4.009,20.0
70.161,0.107,3.082,20.0
70.124,0.11,2.67,23.0
60.411,0.105,3.956,9.0
73.488,0.131,4.38,7.0
78.601,0.144,4.225,12.0
80.438,0.15,3.844,12.0
111.211,0.212,4.665,20.0
70.126,0.137,2.532,22.0
67.191,0.142,4.266,9.0
73.577,0.158,4.239,17.0
78.68,0.172,4.073,8.0
102.828,0.228,4.711,16.0
70.28,0.158,2.808,18.0
69.887,0.16,2.383,26.0
67.234,0.165,4.133,14.0
81.329,0.202,4.523,15.0
80.781,0.203,4.018,15.0
70.122,0.178,3.071,8.0
70.045,0.18,2.658,27.0
69.791,0.181,2.24,34.0
73.605,0.202,4.377,10.0
78.681,0.218,4.216,7.0
80.375,0.225,3.835,11.0
70.136,0.198,2.928,8.0
70.114,0.199,2.518,24.0
70.012,0.201,2.104,28.0
73.753,0.221,4.234,10.0
81.333,0.246,4.192,9.0
102.999,0.314,4.704,7.0
70.159,0.215,2.786,24.0
69.771,0.215,2.363,29.0
70.272,0.218,1.969,2.0
81.18,0.262,4.493,7.0
81.062,0.263,4.011,9.0
70.103,0.228,3.058,13.0
70.079,0.229,2.639,27.0
69.832,0.229,2.221,33.0
119.854,0.395,3.113,53.0
78.667,0.268,4.192,8.0
80.389,0.275,3.813,7.0
70.245,0.241,2.92,6.0
70.075,0.241,2.495,19.0
70.104,0.242,2.086,22.0
119.872,0.414,2.865,21.0
78.716,0.281,4.031,8.0
70.238,0.251,3.184,2.0
70.197,0.251,2.771,24.0
69.778,0.249,2.338,25.0
119.84,0.429,3.317,7.0
119.861,0.429,2.615,27.0
80.68,0.296,3.963,3.0
70.103,0.258,3.031,15.0
70.204,0.258,2.625,23.0
70.082,0.257,2.203,38.0
119.884,0.44,3.066,21.0
119.893,0.44,2.367,18.0
103.048,0.387,4.846,4.0
70.325,0.263,2.894,4.0
69.891,0.261,2.467,21.0
70.053,0.261,2.056,20.0
119.901,0.446,2.816,12.0
119.865,0.445,2.113,58.0
70.181,0.266,3.152,6.0
70.212,0.265,2.742,18.0
69.823,0.263,2.318,23.0
119.813,0.45,3.264,13.0
119.838,0.448,2.562,19.0
119.881,0.447,1.862,23.0
70.075,0.266,2.999,10.0
70.148,0.265,2.591,26.0
70.147,0.263,2.18,28.0
119.841,0.448,3.01,17.0
119.861,0.446,2.311,29.0
111.165,0.411,1.492,16.0
70.286,0.263,2.86,10.0
69.835,0.26,2.433,18.0
70.034,0.259,2.03,10.0
119.835,0.441,2.757,20.0
119.889,0.439,2.057,68.0
111.148,0.404,1.257,16.0
70.163,0.258,2.705,22.0
69.875,0.255,2.284,30.0
119.845,0.434,3.215,22.0
119.84,0.431,2.503,25.0
119.875,0.427,1.801,30.0
111.032,0.392,1.018,13.0
70.143,0.25,2.555,19.0
70.117,0.247,2.144,28.0
119.873,0.419,2.962,22.0
119.874,0.415,2.248,116.0
119.718,0.41,1.546,12.0
110.768,0.376,0.783,5.0
69.764,0.238,2.393,27.0
119.847,0.404,3.408,10.0
119.857,0.4,2.708,70.0
119.879,0.395,1.995,122.0
119.779,0.39,1.292,13.0
94.756,0.305,0.469,4.0
69.852,0.225,2.248,33.0
119.84,0.381,3.156,20.0
119.852,0.375,2.453,32.0
119.854,0.37,1.74,41.0
110.944,0.338,0.96,13.0
0.0,0.0,0.0,0.0
70.095,0.21,2.107,22.0
194.523,0.573,4.708,12.0
119.829,0.347,2.199,9.0
119.774,0.341,1.485,12.0
104.236,0.291,0.683,9.0
0.0,0.0,0.0,0.0
70.26,0.192,1.964,4.0
119.834,0.321,2.647,7.0
119.857,0.314,1.946,17.0
111.101,0.285,1.144,8.0
94.469,0.237,0.419,3.0
0.0,0.0,0.0,0.0
119.805,0.291,3.095,15.0
119.899,0.284,2.396,23.0
111.203,0.257,1.571,15.0
110.839,0.25,0.907,11.0
0.0,0.0,0.0,0.0
0.0,0.0,0.0,0.0
119.9,0.251,2.843,15.0
119.835,0.243,2.14,28.0
111.131,0.218,1.335,18.0
103.841,0.197,0.628,8.0
0.0,0.0,0.0,0.0
0.0,0.0,0.0,0.0
112.65,0.193,2.434,2.0
111.095,0.183,1.75,10.0
111.129,0.175,1.1,11.0
93.77,0.141,0.37,1.0
0.0,0.0,0.0,0.0
45.739,0.062,-0.354,0.0
117.497,0.153,2.291,14.0
111.101,0.137,1.518,19.0
110.739,0.128,0.864,10.0
0.0,0.0,0.0,0.0
0.0,0.0,0.0,0.0
42.801,0.039,-0.422,1.0
117.384,0.1,2.042,11.0
111.136,0.086,1.283,18.0
103.701,0.071,0.59,3.0
0.0,0.0,0.0,0.0
0.0,0.0,0.0,0.0
0.0,0.0,0.0,0.0
111.082,0.04,1.698,15.0
111.179,0.031,1.051,6.0
95.633,0.018,0.345,6.0
0.0,0.0,0.0,0.0
45.475,0.0,-0.372,2.0
35.715,-0.002,-0.501,0.0
111.123,-0.017,1.468,14.0
110.834,-0.027,0.817,10.0
0.0,0.0,0.0,0.0
0.0,0.0,0.0,0.0
41.732,-0.021,-0.428,0.0
0.0,0.0,0.0,0.0
117.337,-0.084,1.306,13.0
98.146,-0.08,0.518,1.0
0.0,0.0,0.0,0.0
0.0,0.0,0.0,0.0
0.0,0.0,0.0,0.0
31.265,-0.037,-0.568,0.0
117.278,-0.154,1.065,11.0
0.0,0.0,0.0,0.0
0.0,0.0,0.0,0.0
45.457,-0.073,-0.388,1.0
35.299,-0.06,-0.508,0.0
29.325,-0.053,-0.594,0.0
110.691,-0.216,0.775,14.0
0.0,0.0,0.0,0.0
0.0,0.0,0.0,0.0
0.0,0.0,0.0,0.0
0.0,0.0,0.0,0.0
28.138,-0.07,-0.628,0.0
101.218,-0.265,0.502,2.0
0.0,0.0,0.0,0.0
0.0,0.0,0.0,0.0
37.751,-0.111,-0.477,0.0
31.06,-0.095,-0.574,0.0
26.507,-0.084,-0.645,0.0
0.0,0.0,0.0,0.0
0.0,0.0,0.0,0.0
45.259,-0.161,-0.395,1.0
0.0,0.0,0.0,0.0
0.0,0.0,0.0,0.0
25.426,-0.099,-0.67,0.0
0.0,0.0,0.0,0.0
0.0,0.0,0.0,0.0
0.0,0.0,0.0,0.0
0.0,0.0,0.0,0.0
27.903,-0.126,-0.628,0.0
23.979,-0.112,-0.68,0.0
0.0,0.0,0.0,0.0
0.0,0.0,0.0,0.0
37.353,-0.189,-0.474,0.0
0.0,0.0,0.0,0.0
26.442,-0.141,-0.647,0.0
22.667,-0.123,-0.687,0.0
0.0,0.0,0.0,0.0
0.0,0.0,0.0,0.0
0.0,0.0,0.0,0.0
29.215,-0.175,-0.602,0.0
24.813,-0.152,-0.656,0.0
21.916,-0.137,-0.707,0.0
0.0,0.0,0.0,0.0
0.0,0.0,0.0,0.0
32.878,-0.221,-0.546,0.0
27.79,-0.191,-0.627,0.0
23.82,-0.167,-0.676,0.0
21.029,-0.15,-0.72,0.0
0.0,0.0,0.0,0.0
37.948,-0.283,-0.483,0.0
0.0,0.0,0.0,0.0
26.274,-0.203,-0.643,0.0
22.823,-0.18,-0.692,0.0
20.297,-0.163,-0.734,0.0
0.0,0.0,0.0,0.0
0.0,0.0,0.0,0.0
28.995,-0.247,-0.593,0.0
24.927,-0.216,-0.658,0.0
21.775,-0.192,-0.702,0.0
19.53,-0.175,-0.743,0.0
0.0,0.0,0.0,0.0
33.1,-0.308,-0.547,0.0
27.796,-0.262,-0.621,0.0
23.848,-0.229,-0.674,0.0
21.226,-0.207,-0.724,0.0
18.922,-0.187,-0.755,0.0
37.074,-0.375,-0.466,0.0
30.973,-0.318,-0.57,0.0
26.319,-0.274,-0.638,0.0
22.716,-0.24,-0.685,0.0
20.376,-0.219,-0.733,0.0
18.104,-0.197,-0.757,0.0
35.27,-0.392,-0.509,0.0
29.416,-0.331,-0.596,0.0
25.228,-0.288,-0.658,0.0
21.863,-0.253,-0.7,0.0
19.649,-0.231,-0.743,0.0
17.572,-0.209,-0.767,0.0
32.907,-0.399,-0.535,0.0
28.531,-0.351,-0.63,0.0
23.95,-0.298,-0.668,0.0
21.016,-0.265,-0.711,0.0
19.099,-0.244,-0.757,0.0
17.061,-0.221,-0.776,0.0
0.0,0.0,0.0,0.0
26.396,-0.353,-0.631,0.0
22.991,-0.311,-0.683,0.0
20.236,-0.277,-0.721,0.0
18.277,-0.253,-0.757,0.0
16.702,-0.235,-0.79,0.0
29.471,-0.42,-0.585,0.0
25.417,-0.367,-0.652,0.0
22.067,-0.322,-0.695,0.0
19.869,-0.294,-0.743,0.0
17.746,-0.266,-0.767,0.0
16.224,-0.246,-0.796,0.0
28.436,-0.437,-0.615,0.0
24.461,-0.38,-0.67,0.0
21.321,-0.335,-0.708,0.0
19.093,-0.304,-0.747,0.0
17.2,-0.277,-0.773,0.0
15.797,-0.257,-0.802,0.0
26.911,-0.444,-0.628,0.0
23.418,-0.391,-0.683,0.0
20.475,-0.346,-0.715,0.0
18.249,-0.311,-0.746,0.0
16.758,-0.289,-0.782,0.0
15.407,-0.269,-0.809,0.0
25.908,-0.458,-0.648,0.0
22.617,-0.404,-0.697,0.0
20.004,-0.361,-0.733,0.0
18.092,-0.33,-0.77,12.0
16.365,-0.302,-0.792,0.0
15.024,-0.28,-0.814,0.0
24.886,-0.47,-0.664,0.0
21.639,-0.412,-0.703,0.0
19.247,-0.371,-0.737,0.0
17.853,-0.347,-0.789,0.0
15.88,-0.312,-0.795,0.0
14.588,-0.29,-0.815,0.0
23.661,-0.475,-0.671,0.0
18.167,-0.368,-0.62,22.0
18.135,-0.371,-0.724,13.0
18.006,-0.373,-0.826,0.0
18.16,-0.379,-0.938,1.0
14.252,-0.3,-0.819,0.0
18.169,-0.387,-0.544,27.0
18.155,-0.391,-0.649,151.0
18.108,-0.393,-0.752,21.0
0.0,0.0,0.0,0.0
18.133,-0.402,-0.966,7.0
18.16,-0.406,-1.073,0.0
18.117,-0.409,-0.571,161.0
18.133,-0.414,-0.677,150.0
18.026,-0.415,-0.778,4.0
18.141,-0.421,-0.889,95.0
18.136,-0.425,-0.995,9.0
18.161,-0.429,-1.102,1.0
18.098,-0.432,-0.599,195.0
18.133,-0.437,-0.705,150.0
18.117,-0.44,-0.809,3.0
18.14,-0.444,-0.917,49.0
18.151,-0.449,-1.023,3.0
13.472,-0.336,-0.838,0.0
18.105,-0.456,-0.626,157.0
18.123,-0.46,-0.732,22.0
18.063,-0.463,-0.834,3.0
18.132,-0.468,-0.944,5.0
18.154,-0.473,-1.051,0.0
13.288,-0.349,-0.846,0.0
21.887,-0.58,-0.79,8.0
18.069,-0.483,-0.756,12.0
16.519,-0.445,-0.787,0.0
15.18,-0.412,-0.813,0.0
13.969,-0.383,-0.829,0.0
21.843,-0.604,-1.423,0.0
21.889,-0.61,-0.821,33.0
17.999,-0.505,-0.779,1.0
21.879,-0.619,-1.074,1.0
14.73,-0.42,-0.81,0.0
13.674,-0.393,-0.831,0.0
12.807,-0.371,-0.852,0.0
21.895,-0.64,-0.853,8.0
17.333,-0.511,-0.775,0.0
15.86,-0.471,-0.801,0.0
14.465,-0.433,-0.816,0.0
13.542,-0.408,-0.842,0.0
12.489,-0.379,-0.849,0.0
18.531,-0.567,-0.747,0.0
16.853,-0.52,-0.777,0.0
15.414,-0.479,-0.8,0.0
14.247,-0.446,-0.823,0.0
13.314,-0.42,-0.846,0.0
12.299,-0.391,-0.853,0.0
18.247,-0.584,-0.76,0.0
16.506,-0.532,-0.783,0.0
15.177,-0.493,-0.807,0.0
13.988,-0.458,-0.827,0.0
13.132,-0.433,-0.852,0.0
12.064,-0.401,-0.852,0.0
17.732,-0.593,-0.762,0.0
16.391,-0.552,-0.799,0.0
14.933,-0.506,-0.814,0.0
13.741,-0.469,-0.83,0.0
12.766,-0.439,-0.845,0.0
11.835,-0.41,-0.852,0.0
17.394,-0.607,-0.769,0.0
15.928,-0.559,-0.796,0.0
14.595,-0.516,-0.814,0.0
13.545,-0.482,-0.835,0.0
12.564,-0.451,-0.847,0.0
11.649,-0.421,-0.853,0.0
17.09,-0.621,-0.777,0.0
15.675,-0.573,-0.803,0.0
14.395,-0.53,-0.82,0.0
13.361,-0.495,-0.84,0.0
12.362,-0.461,-0.848,0.0
11.523,-0.433,-0.858,0.0
16.766,-0.634,-0.782,0.0
15.36,-0.584,-0.805,0.0
14.129,-0.541,-0.822,0.0
13.07,-0.504,-0.837,0.0
12.18,-0.473,-0.85,0.0
11.346,-0.443,-0.858,0.0
16.417,-0.645,-0.785,0.0
15.086,-0.597,-0.808,0.0
13.988,-0.557,-0.83,0.0
12.906,-0.517,-0.841,0.0
12.018,-0.484,-0.853,0.0
11.22,-0.455,-0.861,0.0
16.255,-0.663,-0.795,0.0
14.837,-0.609,-0.811,0.0
13.683,-0.565,-0.827,0.0
12.77,-0.53,-0.846,0.0
11.852,-0.496,-0.854,0.0
11.112,-0.468,-0.865,0.0
15.853,-0.67,-0.793,0.0
14.629,-0.622,-0.816,0.0
13.547,-0.58,-0.833,0.0
12.568,-0.541,-0.846,0.0
11.688,-0.506,-0.854,0.0
11.01,-0.48,-0.868,0.0
15.664,-0.686,-0.8,0.0
14.423,-0.635,-0.819,0.0
13.404,-0.594,-0.838,0.0
12.367,-0.551,-0.846,0.0
11.553,-0.518,-0.856,0.0
10.916,-0.493,-0.872,0.0
15.326,-0.694,-0.798,0.0
14.268,-0.65,-0.824,0.0
13.198,-0.605,-0.838,0.0
12.264,-0.565,-0.851,0.0
11.433,-0.53,-0.859,0.0
10.827,-0.505,-0.875,0.0
15.199,-0.712,-0.806,0.0
14.066,-0.663,-0.826,0.0
13.117,-0.621,-0.845,0.0
12.114,-0.577,-0.852,0.0
11.322,-0.542,-0.861,0.0
10.688,-0.515,-0.874,0.0
15.003,-0.726,-0.809,0.0
13.866,-0.674,-0.827,0.0
19.961,-0.977,-1.305,0.0
11.983,-0.589,-0.853,0.0
11.246,-0.556,-0.865,0.0
10.591,-0.527,-0.876,0.0
14.762,-0.737,-0.809,0.0
13.719,-0.689,-0.83,0.0
19.968,-1.008,-1.323,0.0
11.82,-0.6,-0.852,0.0
11.14,-0.569,-0.867,0.0
10.526,-0.54,-0.879,0.0
14.627,-0.753,-0.814,0.0
13.552,-0.701,-0.831,0.0
12.675,-0.659,-0.85,0.0
11.716,-0.613,-0.854,0.0
11.027,-0.58,-0.867,0.0
10.43,-0.551,-0.88,0.0
14.459,-0.767,-0.816,0.0
13.445,-0.717,-0.835,0.0
12.524,-0.671,-0.85,0.0
11.618,-0.626,-0.856,0.0
10.985,-0.595,-0.872,0.0
10.357,-0.564,-0.881,0.0
14.354,-0.783,-0.821,0.0
13.361,-0.733,-0.84,0.0
12.3,-0.678,-0.844,0.0
11.547,-0.64,-0.859,0.0
10.912,-0.608,-0.874,0.0
10.297,-0.577,-0.884,0.0
14.244,-0.799,-0.824,0.0
13.269,-0.749,-0.844,0.0
12.272,-0.696,-0.85,0.0
11.448,-0.652,-0.859,0.0
10.842,-0.621,-0.876,0.0
10.246,-0.59,-0.887,0.0
14.096,-0.813,-0.825,0.0
13.134,-0.761,-0.844,0.0
12.184,-0.71,-0.852,0.0
11.392,-0.667,-0.863,0.0
10.798,-0.635,-0.879,0.0
10.195,-0.603,-0.889,0.0
13.955,-0.827,-0.826,0.0
19.978,-1.19,-1.296,0.0
12.103,-0.724,-0.854,0.0
11.308,-0.68,-0.863,0.0
10.725,-0.648,-0.88,0.0
10.136,-0.615,-0.889,0.0
13.834,-0.841,-0.827,0.0
20.041,-1.225,-1.312,0.0
12.02,-0.738,-0.855,0.0
11.257,-0.694,-0.866,0.0
10.655,-0.66,-0.88,0.0
10.106,-0.629,-0.893,0.0
13.75,-0.858,-0.829,0.0
20.075,-1.258,-1.324,0.0
11.938,-0.751,-0.855,0.0
11.168,-0.706,-0.865,0.0
10.612,-0.674,-0.882,0.0
10.075,-0.643,-0.895,0.0
13.656,-0.873,-0.83,0.0
20.028,-1.286,-1.331,0.0
11.888,-0.767,-0.857,0.0
11.139,-0.722,-0.868,0.0
10.558,-0.687,-0.882,0.0
10.003,-0.654,-0.893,0.0
13.66,-0.894,-0.837,0.0
20.042,-1.318,-1.341,0.0
11.822,-0.781,-0.858,0.0
11.092,-0.736,-0.869,0.0
10.497,-0.7,-0.882,0.0
9.961,-0.667,-0.894,0.0
13.549,-0.908,-0.835,0.0
20.01,-1.347,-1.347,0.0
11.752,-0.794,-0.857,0.0
11.073,-0.752,-0.872,0.0
10.475,-0.714,-0.884,0.0
9.935,-0.68,-0.895,0.0
13.519,-0.927,-0.838,0.0
12.501,-0.86,-0.846,0.0
11.72,-0.81,-0.859,0.0
11.042,-0.767,-0.873,0.0
10.448,-0.728,-0.885,0.0
9.897,-0.693,-0.895,0.0
13.442,-0.942,-0.838,0.0
12.449,-0.876,-0.846,0.0
11.696,-0.826,-0.861,0.0
11.018,-0.782,-0.875,0.0
10.441,-0.744,-0.888,0.0
9.875,-0.707,-0.896,0.0
13.411,-0.96,-0.84,0.0
12.413,-0.892,-0.847,0.0
11.647,-0.841,-0.861,0.0
10.984,-0.796,-0.875,0.0
10.379,-0.755,-0.885,0.0
9.879,-0.722,-0.899,0.0
13.396,-0.979,-0.842,0.0
12.389,-0.909,-0.848,0.0
11.636,-0.857,-0.862,0.0
10.962,-0.811,-0.875,0.0
10.364,-0.77,-0.886,0.0
9.837,-0.734,-0.897,0.0
13.35,-0.996,-0.842,0.0
12.376,-0.927,-0.85,0.0
11.611,-0.873,-0.863,0.0
10.954,-0.827,-0.877,0.0
10.351,-0.784,-0.887,0.0
9.842,-0.749,-0.899,0.0
13.275,-1.01,-0.839,0.0
12.344,-0.943,-0.85,0.0
11.601,-0.889,-0.864,0.0
10.966,-0.844,-0.879,0.0
10.351,-0.799,-0.888,0.0
9.834,-0.763,-0.899,0.0
13.303,-1.031,-0.842,0.0
12.352,-0.961,-0.851,0.0
11.6,-0.906,-0.865,0.0
10.948,-0.858,-0.879,0.0
10.335,-0.813,-0.888,0.0
9.819,-0.776,-0.899,0.0
13.337,-1.053,-0.845,0.0
12.335,-0.978,-0.851,0.0
11.576,-0.921,-0.863,0.0
10.96,-0.875,-0.88,0.0
10.331,-0.828,-0.888,0.0
9.807,-0.789,-0.898,0.0
13.3,-1.07,-0.843,0.0
12.354,-0.997,-0.853,0.0
11.575,-0.937,-0.864,0.0
10.949,-0.89,-0.879,0.0
10.338,-0.843,-0.888,0.0
9.814,-0.803,-0.898,0.0
13.303,-1.089,-0.844,0.0
12.359,-1.015,-0.853,0.0
11.579,-0.954,-0.864,0.0
10.957,-0.906,-0.88,0.0
10.348,-0.859,-0.889,0.0
9.816,-0.818,-0.898,0.0
13.327,-1.11,-0.844,0.0
12.397,-1.036,-0.854,0.0
11.62,-0.974,-0.866,0.0
10.986,-0.924,-0.881,0.0
10.363,-0.875,-0.889,0.0
9.823,-0.832,-0.898,0.0
13.341,-1.129,-0.844,0.0
12.397,-1.053,-0.853,0.0
11.621,-0.99,-0.865,0.0
10.989,-0.94,-0.88,0.0
10.381,-0.891,-0.889,0.0
9.829,-0.846,-0.897,0.0
13.372,-1.151,-0.844,0.0
12.393,-1.07,-0.851,0.0
11.655,-1.009,-0.865,0.0
11.009,-0.957,-0.88,0.0
10.399,-0.907,-0.889,0.0
9.859,-0.862,-0.898,0.0
13.334,-1.165,-0.839,0.0
12.462,-1.093,-0.854,0.0
11.686,-1.028,-0.866,0.0
11.053,-0.975,-0.881,0.0
10.439,-0.924,-0.891,0.0
9.905,-0.879,-0.9,0.0
13.448,-1.193,-0.844,0.0
12.477,-1.11,-0.852,0.0
11.689,-1.043,-0.863,0.0
11.075,-0.992,-0.88,0.0
10.458,-0.939,-0.89,0.0
9.921,-0.894,-0.899,0.0
13.471,-1.213,-0.842,0.0
12.579,-1.136,-0.855,0.0
11.77,-1.066,-0.866,0.0
11.148,-1.013,-0.883,0.0
10.515,-0.958,-0.892,0.0
9.949,-0.909,-0.899,0.0
13.536,-1.236,-0.842,0.0
12.644,-1.158,-0.856,0.0
11.78,-1.082,-0.863,0.0
11.2,-1.032,-0.884,0.0
10.543,-0.974,-0.89,1.0
9.994,-0.926,-0.9,0.0
13.609,-1.26,-0.842,0.0
12.691,-1.178,-0.855,0.0
11.856,-1.104,-0.864,0.0
11.219,-1.048,-0.881,0.0
10.564,-0.989,-0.888,1.0
10.038,-0.943,-0.9,0.0
13.619,-1.278,-0.837,0.0
12.766,-1.201,-0.855,0.0
11.938,-1.126,-0.866,0.0
11.273,-1.066,-0.881,0.0
10.666,-1.012,-0.893,0.0
10.106,-0.961,-0.902,0.0
13.695,-1.302,-0.836,0.0
12.778,-1.218,-0.851,0.0
11.955,-1.142,-0.862,0.0
11.3,-1.083,-0.878,0.0
10.739,-1.032,-0.894,0.0
10.158,-0.979,-0.902,0.0
13.719,-1.32,-0.832,0.0
12.914,-1.246,-0.854,0.0
12.12,-1.172,-0.868,0.0
11.371,-1.103,-0.879,0.0
10.811,-1.051,-0.895,0.0
10.197,-0.994,-0.901,0.0
13.787,-1.342,-0.829,0.0
12.999,-1.269,-0.853,0.0
12.142,-1.188,-0.864,0.0
11.373,-1.116,-0.873,0.0
10.874,-1.07,-0.895,0.0
10.256,-1.011,-0.901,0.0
13.892,-1.368,-0.828,0.0
13.03,-1.287,-0.848,0.0
12.216,-1.209,-0.863,0.0
11.465,-1.138,-0.874,0.0
10.915,-1.086,-0.892,0.0
10.313,-1.029,-0.9,0.0
13.989,-1.393,-0.826,0.0
13.146,-1.312,-0.849,0.0
12.306,-1.232,-0.862,0.0
11.532,-1.157,-0.872,0.0
10.957,-1.102,-0.889,0.0
10.383,-1.047,-0.9,0.0
14.161,-1.426,-0.828,0.0
13.202,-1.332,-0.844,0.0
12.312,-1.245,-0.855,0.0
11.643,-1.18,-0.874,0.0
11.019,-1.12,-0.887,0.0
10.417,-1.061,-0.896,0.0
14.298,-1.454,-0.827,0.0
13.282,-1.354,-0.841,0.0
12.449,-1.272,-0.857,0.0
11.725,-1.2,-0.872,0.0
11.144,-1.144,-0.89,0.0
10.454,-1.075,-0.893,0.0
14.497,-1.489,-0.829,0.0
13.447,-1.384,-0.843,0.0
12.603,-1.3,-0.859,0.0
11.77,-1.217,-0.868,0.0
11.189,-1.159,-0.886,0.0
10.522,-1.092,-0.891,0.0
14.378,-1.491,-0.813,0.0
13.526,-1.405,-0.838,0.0
12.714,-1.323,-0.857,0.0
11.775,-1.228,-0.86,0.0
11.282,-1.179,-0.886,0.0
10.662,-1.117,-0.895,0.0
14.177,-1.483,-0.791,0.0
13.633,-1.429,-0.835,0.0
12.819,-1.346,-0.855,0.0
11.95,-1.258,-0.864,0.0
11.314,-1.193,-0.88,0.0
10.792,-1.14,-0.898,0.0
13.929,-1.47,-0.767,0.0
13.793,-1.458,-0.834,0.0
13.005,-1.377,-0.858,0.0
12.031,-1.277,-0.86,0.0
11.417,-1.214,-0.879,0.0
10.864,-1.157,-0.896,0.0
13.702,-1.458,-0.744,0.0
13.628,-1.452,-0.814,0.0
13.179,-1.407,-0.859,0.0
12.1,-1.294,-0.856,0.0
11.503,-1.233,-0.876,0.0
10.955,-1.176,-0.894,0.0
13.485,-1.446,-0.721,1.0
13.444,-1.444,-0.792,0.0
13.251,-1.426,-0.853,0.0
12.287,-1.324,-0.859,0.0
11.568,-1.249,-0.872,0.0
11.037,-1.194,-0.892,0.0
13.355,-1.442,-0.703,1.0
13.241,-1.432,-0.769,0.0
13.23,-1.434,-0.84,1.0
12.591,-1.367,-0.869,0.0
11.755,-1.278,-0.875,0.0
11.132,-1.212,-0.89,0.0
13.334,-1.45,-0.69,1.0
13.062,-1.423,-0.747,0.0
13.117,-1.431,-0.821,0.0
12.733,-1.391,-0.868,0.0
11.806,-1.292,-0.869,0.0
11.256,-1.234,-0.89,0.0
13.453,-1.473,-0.685,1.0
12.875,-1.411,-0.725,0.0
12.847,-1.41,-0.793,0.0
12.799,-1.407,-0.861,0.0
11.905,-1.311,-0.865,0.0
11.316,-1.248,-0.884,0.0
13.648,-1.503,-0.682,1.0
12.798,-1.412,-0.709,1.0
12.684,-1.401,-0.771,0.0
12.668,-1.401,-0.84,0.0
12.061,-1.336,-0.865,0.0
11.446,-1.27,-0.883,0.0
13.917,-1.542,-0.682,1.0
12.825,-1.423,-0.698,1.0
12.515,-1.39,-0.749,0.0
12.494,-1.39,-0.817,0.0
12.286,-1.368,-0.87,0.0
11.51,-1.284,-0.877,0.0
14.038,-1.564,-0.675,6.0
12.918,-1.441,-0.691,1.0
12.412,-1.386,-0.731,1.0
12.366,-1.383,-0.796,0.0
12.333,-1.381,-0.861,0.0
11.688,-1.31,-0.879,0.0
14.123,-1.581,-0.665,12.0
13.116,-1.47,-0.688,1.0
12.36,-1.387,-0.715,1.0
12.282,-1.38,-0.778,0.0
12.3,-1.383,-0.846,0.0
11.786,-1.327,-0.875,0.0
14.166,-1.593,-0.653,14.0
13.356,-1.504,-0.687,1.0
12.384,-1.396,-0.704,1.0
12.168,-1.373,-0.759,0.0
12.229,-1.381,-0.829,0.0
11.945,-1.351,-0.874,0.0
14.252,-1.61,-0.642,14.0
13.622,-1.54,-0.687,1.0
12.502,-1.415,-0.698,1.0
12.088,-1.369,-0.741,0.0
12.061,-1.368,-0.805,0.0
12.012,-1.364,-0.866,0.0
14.462,-1.64,-0.636,13.0
13.739,-1.559,-0.679,7.0
12.682,-1.44,-0.694,1.0
12.053,-1.37,-0.726,0.0
12.017,-1.368,-0.789,0.0
11.983,-1.365,-0.851,0.0
14.608,-1.662,-0.627,12.0
13.818,-1.573,-0.667,12.0
12.906,-1.471,-0.693,1.0
12.089,-1.379,-0.715,0.0
11.927,-1.362,-0.77,0.0
11.915,-1.361,-0.833,0.0
15.123,-1.726,-0.633,17.0
13.825,-1.579,-0.653,13.0
13.136,-1.501,-0.691,1.0
12.193,-1.395,-0.708,1.0
11.858,-1.357,-0.753,0.0
11.83,-1.355,-0.814,0.0
15.31,-1.752,-0.624,20.0
13.93,-1.595,-0.642,12.0
13.41,-1.536,-0.69,2.0
12.301,-1.41,-0.701,2.0
11.804,-1.354,-0.736,0.0
11.794,-1.354,-0.799,0.0
15.519,-1.78,-0.615,18.0
13.999,-1.606,-0.63,10.0
13.511,-1.551,-0.68,7.0
12.449,-1.43,-0.695,1.0
11.835,-1.361,-0.724,0.0
11.762,-1.353,-0.783,0.0
15.825,-1.818,-0.609,17.0
14.273,-1.641,-0.626,11.0
13.609,-1.565,-0.67,11.0
12.729,-1.465,-0.696,1.0
11.927,-1.373,-0.716,0.0
11.72,-1.35,-0.767,0.0
16.131,-1.857,-0.603,17.0
14.577,-1.678,-0.622,12.0
13.684,-1.576,-0.658,12.0
12.975,-1.495,-0.694,1.0
12.072,-1.392,-0.711,0.0
11.693,-1.349,-0.751,0.0
16.36,-1.885,-0.592,17.0
15.186,-1.75,-0.631,17.0
13.807,-1.592,-0.647,12.0
13.252,-1.529,-0.694,2.0
12.244,-1.413,-0.706,1.0
11.691,-1.35,-0.737,0.0
16.6,-1.914,-0.581,15.0
15.378,-1.774,-0.62,17.0
14.028,-1.618,-0.641,11.0
13.406,-1.547,-0.686,6.0
12.356,-1.426,-0.698,2.0
11.753,-1.357,-0.727,0.0
16.957,-1.956,-0.573,15.0
15.607,-1.8,-0.611,16.0
14.145,-1.632,-0.629,10.0
13.507,-1.559,-0.675,10.0
12.589,-1.453,-0.696,1.0
11.847,-1.368,-0.718,0.0
17.386,-2.005,-0.567,16.0
15.97,-1.842,-0.606,15.0
14.488,-1.671,-0.627,11.0
13.603,-1.569,-0.663,13.0
12.875,-1.486,-0.696,1.0
11.999,-1.385,-0.713,0.0
17.764,-2.048,-0.558,17.0
16.256,-1.874,-0.597,16.0
15.104,-1.741,-0.635,16.0
13.727,-1.583,-0.652,13.0
13.164,-1.518,-0.696,1.0
12.177,-1.404,-0.709,1.0
18.187,-2.095,-0.549,18.0
16.495,-1.9,-0.586,15.0
15.31,-1.763,-0.626,17.0
13.917,-1.603,-0.644,11.0
13.409,-1.544,-0.692,4.0
12.307,-1.417,-0.701,2.0
18.75,-2.157,-0.543,22.0
16.864,-1.94,-0.578,15.0
15.553,-1.789,-0.616,16.0
13.979,-1.608,-0.63,10.0
13.482,-1.55,-0.679,8.0
12.522,-1.44,-0.698,1.0
19.072,-2.191,-0.529,27.0
17.307,-1.988,-0.572,15.0
15.934,-1.829,-0.612,15.0
14.355,-1.648,-0.629,10.0
13.675,-1.569,-0.672,12.0
12.805,-1.469,-0.698,0.0
19.354,-2.219,-0.513,29.0
17.687,-2.027,-0.563,16.0
16.239,-1.86,-0.603,16.0
15.018,-1.72,-0.639,14.0
13.785,-1.578,-0.66,13.0
13.065,-1.496,-0.696,1.0
19.759,-2.26,-0.499,19.0
18.1,-2.069,-0.554,17.0
16.489,-1.884,-0.592,14.0
15.266,-1.744,-0.631,18.0
13.943,-1.592,-0.651,12.0
13.382,-1.527,-0.696,1.0
20.262,-2.311,-0.487,16.0
18.512,-2.11,-0.543,17.0
16.88,-1.923,-0.585,14.0
15.537,-1.769,-0.623,17.0
14.194,-1.615,-0.645,11.0
13.624,-1.55,-0.691,4.0
21.076,-2.396,-0.48,20.0
18.932,-2.151,-0.532,19.0
17.343,-1.969,-0.579,15.0
15.911,-1.805,-0.618,17.0
14.476,-1.642,-0.639,11.0
13.797,-1.564,-0.683,7.0
21.9,-2.48,-0.472,22.0
19.18,-2.171,-0.515,23.0
17.711,-2.003,-0.57,16.0
16.249,-1.836,-0.611,17.0
14.669,-1.657,-0.63,12.0
13.982,-1.578,-0.675,11.0
22.515,-2.54,-0.457,22.0
19.677,-2.218,-0.504,22.0
18.145,-2.043,-0.561,17.0
16.506,-1.857,-0.6,14.0
15.258,-1.716,-0.636,14.0
14.147,-1.59,-0.665,12.0
23.113,-2.595,-0.441,21.0
20.622,-2.314,-0.503,19.0
18.55,-2.079,-0.551,18.0
16.958,-1.899,-0.595,15.0
15.595,-1.745,-0.631,16.0
14.344,-1.604,-0.657,13.0
24.069,-2.69,-0.429,24.0
21.396,-2.388,-0.495,20.0
18.958,-2.114,-0.54,22.0
17.366,-1.935,-0.588,16.0
15.888,-1.769,-0.623,25.0
14.56,-1.619,-0.648,13.0
24.982,-2.777,-0.415,21.0
22.01,-2.444,-0.482,19.0
19.454,-2.157,-0.53,20.0
17.748,-1.966,-0.58,16.0
16.231,-1.796,-0.616,17.0
14.853,-1.642,-0.643,13.0
27.508,-3.04,-0.423,9.0
22.614,-2.496,-0.468,23.0
19.947,-2.199,-0.519,21.0
18.169,-2.001,-0.571,16.0
16.618,-1.828,-0.611,14.0
15.118,-1.661,-0.636,14.0
0.0,0.0,0.0,0.0
23.251,-2.55,-0.452,27.0
20.838,-2.282,-0.516,18.0
18.562,-2.031,-0.561,17.0
17.158,-1.875,-0.609,17.0
15.436,-1.685,-0.63,15.0
29.492,-3.217,-0.381,29.0
23.674,-2.579,-0.432,40.0
21.527,-2.342,-0.507,18.0
18.999,-2.064,-0.551,17.0
17.438,-1.892,-0.598,16.0
15.801,-1.712,-0.626,15.0
30.447,-3.297,-0.357,24.0
24.544,-2.654,-0.418,21.0
21.976,-2.373,-0.491,18.0
19.608,-2.114,-0.545,17.0
17.958,-1.934,-0.594,19.0
16.267,-1.749,-0.625,15.0
32.001,-3.44,-0.337,26.0
0.0,0.0,0.0,0.0
22.743,-2.437,-0.481,22.0
20.007,-2.14,-0.532,17.0
18.239,-1.948,-0.582,17.0
16.837,-1.796,-0.627,16.0
33.085,-3.528,-0.308,70.0
0.0,0.0,0.0,0.0
23.214,-2.467,-0.463,9.0
20.751,-2.201,-0.527,19.0
18.669,-1.977,-0.574,18.0
17.242,-1.823,-0.622,18.0
33.091,-3.498,-0.27,86.0
29.492,-3.112,-0.397,27.0
23.491,-2.474,-0.441,1.0
21.295,-2.239,-0.516,18.0
19.317,-2.028,-0.571,22.0
17.596,-1.844,-0.614,18.0
33.103,-3.468,-0.231,78.0
30.382,-3.177,-0.374,20.0
23.543,-2.457,-0.415,0.0
22.079,-2.3,-0.509,20.0
19.656,-2.044,-0.558,18.0
17.994,-1.868,-0.607,18.0
33.127,-3.438,-0.193,70.0
31.893,-3.303,-0.356,24.0
23.564,-2.436,-0.389,0.0
22.514,-2.323,-0.493,17.0
20.219,-2.082,-0.551,16.0
18.278,-1.878,-0.595,18.0
41.405,-4.254,-0.195,17.0
35.572,-3.647,-0.357,12.0
29.461,-3.014,-0.453,3.0
23.325,-2.381,-0.485,26.0
20.845,-2.124,-0.545,19.0
18.699,-1.902,-0.588,17.0
43.577,-4.43,-0.156,19.0
36.324,-3.685,-0.324,13.0
29.91,-3.027,-0.426,22.0
23.535,-2.377,-0.463,24.0
21.546,-2.172,-0.539,19.0
18.955,-1.907,-0.575,17.0
45.28,-4.553,-0.113,20.0
38.021,-3.814,-0.297,18.0
30.207,-3.023,-0.397,25.0
23.557,-2.352,-0.438,5.0
21.591,-2.151,-0.516,20.0
19.512,-1.94,-0.571,18.0
47.217,-4.693,-0.066,22.0
38.843,-3.851,-0.262,14.0
31.024,-3.069,-0.374,10.0
23.567,-2.326,-0.412,0.0
22.507,-2.216,-0.514,20.0
20.023,-1.967,-0.564,16.0
48.562,-4.768,-0.016,23.0
0.0,0.0,0.0,0.0
35.398,-3.458,-0.39,12.0
23.676,-2.307,-0.389,0.0
23.23,-2.258,-0.506,21.0
20.229,-1.962,-0.549,19.0
51.009,-4.946,0.036,25.0
43.005,-4.159,-0.198,19.0
35.725,-3.446,-0.356,12.0
29.325,-2.821,-0.452,8.0
23.545,-2.259,-0.488,18.0
20.805,-1.991,-0.543,18.0
55.304,-5.292,0.096,3.0
44.876,-4.282,-0.161,19.0
37.212,-3.542,-0.333,15.0
29.592,-2.809,-0.426,8.0
23.574,-2.232,-0.465,7.0
21.73,-2.052,-0.545,19.0
67.68,-6.388,0.185,1.0
46.877,-4.412,-0.122,21.0
38.348,-3.599,-0.305,14.0
29.831,-2.792,-0.399,13.0
23.584,-2.201,-0.442,0.0
22.128,-2.06,-0.533,23.0
67.128,-6.246,0.25,2.0
47.789,-4.433,-0.077,16.0
0.0,0.0,0.0,0.0
29.867,-2.754,-0.371,14.0
27.738,-2.551,-0.493,15.0
22.731,-2.084,-0.526,19.0
71.956,-6.597,0.337,4.0
50.944,-4.656,-0.034,25.0
41.546,-3.785,-0.25,16.0
29.826,-2.709,-0.342,0.0
28.357,-2.568,-0.477,28.0
23.406,-2.113,-0.519,22.0
84.483,-7.625,0.476,13.0
51.656,-4.647,0.013,7.0
0.0,0.0,0.0,0.0
29.937,-2.676,-0.316,1.0
29.167,-2.599,-0.464,24.0
24.242,-2.154,-0.516,22.0
85.811,-7.621,0.561,12.0
57.782,-5.115,0.067,2.0
45.261,-3.994,-0.189,14.0
35.694,-3.139,-0.344,0.0
29.86,-2.617,-0.448,150.0
25.293,-2.21,-0.515,20.0
87.064,-7.604,0.646,5.0
67.571,-5.88,0.139,7.0
47.466,-4.117,-0.157,21.0
35.652,-3.081,-0.312,0.0
29.853,-2.572,-0.422,37.0
26.439,-2.27,-0.516,21.0
86.254,-7.401,0.716,3.0
67.551,-5.776,0.197,6.0
0.0,0.0,0.0,0.0
43.33,-3.679,-0.343,0.0
29.939,-2.533,-0.398,1.0
27.683,-2.334,-0.517,7.0
112.099,-9.446,1.024,7.0
81.564,-6.847,0.307,4.0
50.882,-4.255,-0.082,24.0
44.39,-3.699,-0.314,1.0
34.927,-2.9,-0.435,17.0
28.651,-2.37,-0.511,7.0
114.248,-9.447,1.136,5.0
81.644,-6.724,0.373,8.0
51.684,-4.241,-0.041,7.0
40.652,-3.323,-0.255,8.0
35.506,-2.891,-0.414,15.0
28.938,-2.348,-0.493,1.0
119.159,-9.661,1.278,7.0
82.19,-6.637,0.439,6.0
0.0,0.0,0.0,0.0
40.635,-3.255,-0.224,2.0
35.138,-2.804,-0.383,12.0
29.818,-2.37,-0.486,1.0
119.23,-9.47,1.371,12.0
67.888,-5.369,0.414,43.0
0.0,0.0,0.0,0.0
40.633,-3.187,-0.193,0.0
36.525,-2.853,-0.371,13.0
31.527,-2.452,-0.49,2.0
67.867,-5.276,0.83,91.0
67.877,-5.254,0.464,73.0
64.502,-4.971,0.093,9.0
40.581,-3.114,-0.164,0.0
0.0,0.0,0.0,0.0
34.072,-2.592,-0.505,1.0
119.287,-9.069,1.543,16.0
108.938,-8.244,0.82,8.0
65.875,-4.963,0.141,3.0
45.089,-3.382,-0.151,0.0
38.308,-2.861,-0.335,0.0
38.085,-2.831,-0.539,6.0
20.037,-1.488,0.272,2.0
20.03,-1.48,0.164,16.0
81.844,-6.023,0.228,6.0
0.0,0.0,0.0,0.0
41.021,-2.991,-0.332,1.0
0.0,0.0,0.0,0.0
20.02,-1.451,0.285,13.0
20.024,-1.445,0.177,36.0
82.121,-5.897,0.282,5.0
48.747,-3.483,-0.101,0.0
45.266,-3.219,-0.338,1.0
0.0,0.0,0.0,0.0
20.029,-1.416,0.297,9.0
102.804,-7.232,0.971,33.0
87.177,-6.102,0.352,3.0
20.029,-1.395,-0.029,3.0
20.036,-1.388,-0.138,9.0
20.042,-1.382,-0.246,8.0
119.397,-8.224,1.844,59.0
119.258,-8.173,1.195,16.0
20.01,-1.364,0.092,12.0
20.016,-1.357,-0.018,7.0
19.998,-1.349,-0.126,24.0
20.026,-1.344,-0.235,24.0
19.971,-1.338,0.319,10.0
19.965,-1.331,0.21,20.0
19.996,-1.326,0.102,22.0
19.989,-1.318,-0.007,14.0
19.985,-1.311,-0.116,32.0
20.024,-1.306,-0.225,33.0
19.935,-1.298,0.329,18.0
19.958,-1.293,0.221,26.0
19.982,-1.287,0.112,26.0
20.006,-1.282,0.002,23.0
19.995,-1.274,-0.106,28.0
20.017,-1.268,-0.215,29.0
19.928,-1.26,0.338,23.0
19.976,-1.256,0.23,27.0
19.994,-1.25,0.122,27.0
19.997,-1.243,0.011,22.0
20.018,-1.237,-0.097,27.0
19.999,-1.229,-0.206,32.0
19.937,-1.223,0.347,24.0
19.957,-1.217,0.239,31.0
19.991,-1.212,0.13,151.0
19.995,-1.205,0.02,151.0
19.989,-1.197,-0.088,151.0
20.003,-1.191,-0.197,151.0
19.95,-1.185,0.356,20.0
19.938,-1.177,0.247,18.0
20.07,-1.177,0.139,7.0
19.986,-1.165,0.027,1.0
20.03,-1.161,-0.081,0.0
19.943,-1.148,-0.189,0.0
19.954,-1.146,0.363,21.0
19.968,-1.14,0.254,27.0
20.013,-1.135,0.146,23.0
19.995,-1.127,0.035,18.0
20.044,-1.122,-0.074,2.0
0.0,0.0,0.0,0.0
19.958,-1.107,0.37,21.0
19.971,-1.101,0.261,19.0
19.983,-1.094,0.152,22.0
19.975,-1.086,0.041,27.0
19.992,-1.08,-0.067,24.0
20.023,-1.074,-0.177,16.0
19.964,-1.068,0.376,17.0
20.002,-1.062,0.267,27.0
19.981,-1.054,0.158,16.0
19.983,-1.047,0.047,29.0
19.975,-1.039,-0.062,26.0
19.991,-1.033,-0.171,26.0
20.03,-1.031,0.383,12.0
20.101,-1.027,0.274,19.0
20.107,-1.02,0.164,17.0
19.989,-1.007,0.052,16.0
19.978,-0.999,-0.057,25.0
19.976,-0.991,-0.166,31.0
20.146,-0.996,0.39,26.0
20.153,-0.989,0.279,18.0
138.171,-6.732,1.16,18.0
0.0,0.0,0.0,0.0
19.989,-0.958,-0.053,17.0
20.003,-0.952,-0.162,23.0
20.149,-0.955,0.394,16.0
138.199,-6.502,1.944,4.0
138.241,-6.454,1.186,22.0
0.0,0.0,0.0,0.0
0.0,0.0,0.0,0.0
19.958,-0.909,-0.159,0.0
0.0,0.0,0.0,0.0
138.052,-6.212,1.963,46.0
138.026,-6.16,1.204,17.0
0.0,0.0,0.0,0.0
0.0,0.0,0.0,0.0
47.108,-2.05,-0.369,0.0
193.106,-8.365,3.829,21.0
138.099,-5.932,1.979,61.0
138.232,-5.885,1.221,19.0
0.0,0.0,0.0,0.0
0.0,0.0,0.0,0.0
0.0,0.0,0.0,0.0
193.452,-7.982,3.851,22.0
138.196,-5.649,1.991,26.0
138.44,-5.606,1.232,27.0
0.0,0.0,0.0,0.0
0.0,0.0,0.0,0.0
47.867,-1.885,-0.368,0.0
193.519,-7.581,3.861,8.0
138.457,-5.372,2.0,6.0
138.464,-5.32,1.237,21.0
0.0,0.0,0.0,0.0
0.0,0.0,0.0,0.0
0.0,0.0,0.0,0.0
194.059,-7.203,3.873,11.0
138.541,-5.089,2.001,5.0
138.535,-5.037,1.236,24.0
0.0,0.0,0.0,0.0
0.0,0.0,0.0,0.0
46.882,-1.653,-0.361,0.0
193.769,-6.784,3.861,6.0
138.514,-4.801,1.995,4.0
138.577,-4.75,1.231,25.0
0.0,0.0,0.0,0.0
0.0,0.0,0.0,0.0
47.743,-1.583,-0.371,0.0
193.843,-6.38,3.849,13.0
138.606,-4.51,1.986,8.0
138.625,-4.461,1.22,23.0
0.0,0.0,0.0,0.0
0.0,0.0,0.0,0.0
47.729,-1.482,-0.375,0.0
194.532,-5.997,3.842,17.0
138.627,-4.22,1.97,8.0
138.442,-4.164,1.201,17.0
0.0,0.0,0.0,0.0
0.0,0.0,0.0,0.0
48.045,-1.391,-0.385,0.0
195.001,-5.596,3.822,6.0
138.701,-3.93,1.95,6.0
138.721,-3.878,1.182,24.0
0.0,0.0,0.0,0.0
0.0,0.0,0.0,0.0
48.166,-1.293,-0.394,1.0
195.158,-5.188,3.789,5.0
138.922,-3.642,1.927,4.0
138.836,-3.587,1.156,22.0
0.0,0.0,0.0,0.0
0.0,0.0,0.0,0.0
46.605,-1.152,-0.391,0.0
0.0,0.0,0.0,0.0
138.857,-3.346,1.894,3.0
138.943,-3.296,1.124,21.0
0.0,0.0,0.0,0.0
0.0,0.0,0.0,0.0
47.657,-1.078,-0.412,0.0
193.263,-4.32,3.658,8.0
0.0,0.0,0.0,0.0
138.966,-3.005,1.087,22.0
0.0,0.0,0.0,0.0
0.0,0.0,0.0,0.0
45.38,-0.932,-0.405,1.0
193.302,-3.916,3.602,20.0
0.0,0.0,0.0,0.0
139.007,-2.714,1.044,19.0
0.0,0.0,0.0,0.0
0.0,0.0,0.0,0.0
45.337,-0.834,-0.42,2.0
193.625,-3.511,3.543,19.0
0.0,0.0,0.0,0.0
139.116,-2.421,0.996,14.0
0.0,0.0,0.0,0.0
0.0,0.0,0.0,0.0
42.118,-0.687,-0.406,0.0
193.793,-3.107,3.473,6.0
0.0,0.0,0.0,0.0
138.829,-2.125,0.94,20.0
0.0,0.0,0.0,0.0
0.0,0.0,0.0,0.0
0.0,0.0,0.0,0.0
204.247,-2.845,3.576,7.0
0.0,0.0,0.0,0.0
139.116,-1.838,0.884,10.0
0.0,0.0,0.0,0.0
0.0,0.0,0.0,0.0
0.0,0.0,0.0,0.0
204.269,-2.418,3.485,19.0
119.698,-1.373,1.373,7.0
119.758,-1.331,0.706,45.0
0.0,0.0,0.0,0.0
0.0,0.0,0.0,0.0
0.0,0.0,0.0,0.0
119.741,-1.163,1.984,150.0
119.692,-1.121,1.314,19.0
114.234,-1.029,0.616,4.0
0.0,0.0,0.0,0.0
48.185,-0.401,-0.283,0.0
40.619,-0.323,-0.466,0.0
119.794,-0.915,1.922,14.0
119.661,-0.872,1.251,16.0
110.97,-0.77,0.539,2.0
0.0,0.0,0.0,0.0
0.0,0.0,0.0,0.0
40.276,-0.236,-0.484,0.0
119.813,-0.665,1.855,22.0
119.713,-0.623,1.183,17.0
0.0,0.0,0.0,0.0
0.0,0.0,0.0,0.0
0.0,0.0,0.0,0.0
0.0,0.0,0.0,0.0
114.592,-0.399,1.705,3.0
114.46,-0.358,1.062,150.0
0.0,0.0,0.0,0.0
0.0,0.0,0.0,0.0
47.461,-0.098,-0.362,0.0
0.0,0.0,0.0,0.0
9.77,0.131,-0.896,0.0
9.379,0.124,-0.911,0.0
8.894,0.116,-0.912,0.0
0.0,0.0,0.0,0.0
8.182,0.103,-0.929,0.0
7.841,0.097,-0.933,0.0
9.864,0.122,-0.894,0.0
9.426,0.114,-0.905,0.0
9.064,0.108,-0.92,0.0
8.612,0.101,-0.921,0.0
8.284,0.095,-0.931,0.0
7.933,0.09,-0.935,0.0
9.961,0.112,-0.892,0.0
9.581,0.106,-0.909,0.0
9.121,0.099,-0.915,0.0
0.0,0.0,0.0,0.0
8.397,0.088,-0.934,0.0
8.015,0.082,-0.935,0.0
10.046,0.103,-0.888,0.0
9.662,0.097,-0.906,0.0
9.166,0.09,-0.909,0.0
8.795,0.085,-0.92,0.0
8.443,0.08,-0.929,0.0
8.1,0.075,-0.936,0.0
10.174,0.093,-0.887,0.0
9.684,0.087,-0.896,0.0
9.227,0.081,-0.904,0.0
8.915,0.077,-0.922,0.0
8.508,0.072,-0.926,0.0
8.185,0.067,-0.935,0.0
10.277,0.084,-0.883,0.0
9.829,0.079,-0.897,0.0
9.34,0.073,-0.903,0.0
0.0,0.0,0.0,0.0
8.618,0.064,-0.927,0.0
8.228,0.06,-0.93,0.0
10.374,0.075,-0.878,0.0
9.915,0.07,-0.893,0.0
9.474,0.065,-0.904,0.0
9.108,0.061,-0.919,0.0
0.0,0.0,0.0,0.0
8.334,0.052,-0.931,0.0
10.496,0.066,-0.875,0.0
10.03,0.061,-0.89,0.0
9.628,0.056,-0.906,0.0
9.142,0.052,-0.91,0.0
8.771,0.048,-0.92,0.0
8.417,0.045,-0.928,0.0
10.666,0.057,-0.875,0.0
10.178,0.052,-0.889,0.0
9.721,0.048,-0.901,0.0
9.248,0.044,-0.908,0.0
8.889,0.041,-0.92,0.0
8.498,0.037,-0.926,0.0
10.821,0.048,-0.872,0.0
10.29,0.043,-0.885,0.0
9.817,0.04,-0.896,0.0
9.372,0.036,-0.907,0.0
8.992,0.033,-0.918,0.0
8.615,0.03,-0.926,0.0
10.942,0.038,-0.867,0.0
10.38,0.035,-0.877,0.0
9.964,0.031,-0.895,0.0
9.457,0.028,-0.901,0.0
9.119,0.026,-0.918,0.0
8.701,0.023,-0.922,0.0
11.143,0.029,-0.866,0.0
10.547,0.026,-0.876,0.0
10.087,0.023,-0.892,0.0
9.657,0.021,-0.906,0.0
9.183,0.018,-0.911,0.0
8.852,0.016,-0.925,0.0
11.323,0.02,-0.863,0.0
10.734,0.017,-0.875,0.0
10.231,0.015,-0.889,0.0
9.748,0.013,-0.9,0.0
9.258,0.01,-0.904,0.0
8.971,0.009,-0.924,0.0
11.444,0.011,-0.855,0.0
10.869,0.009,-0.87,0.0
10.341,0.007,-0.882,0.0
9.903,0.005,-0.899,0.0
9.479,0.003,-0.911,0.0
9.031,0.001,-0.916,0.0
11.638,0.002,-0.852,0.0
11.026,0.0,-0.865,0.0
10.48,0.0,-0.878,0.0
10.013,-0.002,-0.893,0.0
9.587,-0.003,-0.906,0.0
9.165,-0.005,-0.915,0.0
11.853,-0.006,-0.848,0.0
11.276,-0.007,-0.867,0.0
10.654,-0.008,-0.875,0.0
10.19,-0.01,-0.892,0.0
9.752,-0.011,-0.906,0.0
9.283,-0.011,-0.911,0.0
83.526,2.053,4.318,11.0
117.238,2.909,5.441,4.0
78.868,1.975,3.241,3.0
78.837,1.993,2.815,23.0
78.967,2.015,2.402,11.0
78.96,2.033,1.983,17.0
78.783,2.049,4.188,21.0
78.811,2.068,3.771,30.0
78.806,2.086,3.352,32.0
78.806,2.105,2.926,31.0
78.817,2.124,2.509,30.0
78.846,2.144,2.091,32.0
78.826,2.164,4.302,23.0
78.836,2.183,3.883,25.0
78.838,2.202,3.464,24.0
78.807,2.221,3.037,22.0
78.792,2.24,2.618,25.0
78.839,2.26,2.202,26.0
81.071,2.346,4.538,10.0
79.563,2.322,4.03,5.0
65.54,1.929,2.971,6.0
117.856,3.497,4.705,12.0
78.85,2.359,2.727,29.0
78.953,2.382,2.312,10.0
72.152,2.197,4.138,27.0
72.77,2.233,3.784,9.0
116.087,3.591,5.419,5.0
118.058,3.682,4.87,11.0
190.686,5.995,6.853,19.0
211.368,6.699,6.472,9.0
91.902,2.938,5.392,6.0
65.683,2.116,3.503,20.0
72.462,2.352,3.478,19.0
72.434,2.369,3.082,35.0
72.459,2.388,2.697,34.0
72.433,2.405,2.31,33.0
71.832,2.406,4.307,11.0
72.261,2.438,3.946,18.0
72.344,2.459,3.564,17.0
72.374,2.478,3.172,42.0
72.406,2.497,2.786,36.0
72.394,2.515,2.399,35.0
65.736,2.304,4.024,19.0
66.366,2.343,3.708,24.0
72.301,2.57,3.651,20.0
72.398,2.591,3.261,31.0
72.453,2.612,2.876,30.0
72.469,2.631,2.49,24.0
65.908,2.414,4.115,11.0
66.347,2.447,3.787,17.0
66.157,2.456,3.421,41.0
66.27,2.477,3.064,24.0
72.548,2.729,2.966,19.0
190.702,7.222,6.776,22.0
80.33,3.069,5.111,19.0
65.783,2.53,3.831,40.0
72.762,2.816,3.847,6.0
66.211,2.579,3.138,21.0
66.147,2.593,2.78,27.0
66.155,2.611,2.426,19.0
41.009,1.632,2.656,24.0
65.325,2.617,3.879,15.0
65.754,2.65,3.55,40.0
52.749,2.139,2.559,17.0
66.05,2.695,2.849,17.0
66.039,2.712,2.495,26.0
41.018,1.698,2.701,14.0
44.633,1.859,2.699,31.0
65.563,2.748,3.612,40.0
65.918,2.779,3.269,28.0
65.966,2.798,2.916,24.0
66.032,2.817,2.564,18.0
40.965,1.762,2.742,51.0
44.685,1.933,2.749,7.0
52.952,2.304,2.972,8.0
65.997,2.888,3.341,6.0
66.071,2.908,2.988,10.0
66.092,2.926,2.633,14.0
40.927,1.826,2.781,43.0
41.244,1.851,2.579,36.0
59.501,2.685,3.399,18.0
52.917,2.401,2.731,6.0
52.66,2.403,2.434,4.0
52.972,2.431,2.162,13.0
40.881,1.891,2.818,42.0
40.937,1.904,2.6,49.0
59.441,2.779,3.453,23.0
59.464,2.796,3.126,15.0
59.48,2.811,2.805,20.0
52.825,2.51,2.206,26.0
40.788,1.953,2.85,40.0
40.967,1.972,2.64,45.0
41.499,2.008,2.449,26.0
59.478,2.893,3.181,12.0
59.442,2.906,2.857,13.0
52.886,2.599,2.255,26.0
209.403,-4.294,5.568,6.0
193.9,-4.031,4.132,7.0
193.023,-4.067,3.095,9.0
138.885,-2.964,1.479,6.0
138.876,-3.005,0.748,5.0
0.0,0.0,0.0,0.0
207.437,-4.6,5.788,6.0
118.151,-2.652,2.672,4.0
193.083,-4.387,3.349,21.0
0.0,0.0,0.0,0.0
138.875,-3.234,0.933,12.0
0.0,0.0,0.0,0.0
210.178,-5.004,6.144,5.0
118.191,-2.845,2.831,19.0
192.983,-4.7,3.608,17.0
0.0,0.0,0.0,0.0
138.849,-3.456,1.119,19.0
0.0,0.0,0.0,0.0
120.891,-3.071,3.697,12.0
205.569,-5.276,5.203,6.0
195.125,-5.061,3.911,6.0
138.799,-3.636,2.037,6.0
138.771,-3.673,1.308,21.0
0.0,0.0,0.0,0.0
120.665,-3.253,3.854,11.0
0.0,0.0,0.0,0.0
195.137,-5.365,4.181,14.0
193.745,-5.378,3.114,8.0
138.604,-3.884,1.499,9.0
138.349,-3.912,0.77,9.0
120.385,-3.431,4.014,22.0
194.24,-5.587,5.456,19.0
194.72,-5.651,4.447,15.0
259.966,-7.612,4.545,12.0
0.0,0.0,0.0,0.0
138.554,-4.128,0.968,9.0
106.032,-3.182,3.686,18.0
194.003,-5.874,5.727,18.0
194.163,-5.926,4.711,23.0
194.508,-5.986,3.679,14.0
138.665,-4.301,1.894,2.0
138.655,-4.337,1.168,20.0
101.809,-3.207,3.687,6.0
194.77,-6.184,6.031,23.0
194.112,-6.212,4.993,27.0
193.918,-6.254,3.953,18.0
138.617,-4.506,2.1,6.0
138.6,-4.54,1.373,20.0
101.282,-3.339,3.818,23.0
187.425,-6.227,6.084,38.0
187.432,-6.271,5.102,50.0
187.431,-6.317,4.1,73.0
187.459,-6.362,3.118,18.0
0.0,0.0,0.0,0.0
101.328,-3.485,3.971,16.0
193.919,-6.715,6.584,24.0
193.006,-6.729,5.541,24.0
193.43,-6.791,4.522,19.0
193.991,-6.858,3.521,6.0
0.0,0.0,0.0,0.0
104.146,-3.727,4.239,20.0
0.0,0.0,0.0,0.0
193.212,-7.005,5.843,22.0
193.114,-7.045,4.81,21.0
194.198,-7.13,3.821,6.0
138.431,-5.114,2.0,4.0
104.014,-3.863,4.394,19.0
104.391,-3.901,3.864,7.0
193.679,-7.282,6.154,21.0
192.837,-7.294,5.101,23.0
0.0,0.0,0.0,0.0
138.416,-5.298,2.216,2.0
100.163,-3.854,4.387,7.0
103.816,-4.018,4.005,24.0
207.227,-8.063,6.909,10.0
193.647,-7.578,5.425,16.0
193.16,-7.601,4.402,16.0
193.105,-7.64,3.393,9.0
94.926,-3.775,4.308,12.0
104.195,-4.166,4.184,15.0
104.212,-4.188,3.639,17.0
193.879,-7.832,5.737,16.0
192.92,-7.835,4.702,23.0
193.072,-7.881,3.697,23.0
80.877,-3.317,3.797,27.0
100.157,-4.128,4.178,23.0
104.208,-4.316,3.803,32.0
193.857,-8.069,6.044,20.0
193.244,-8.085,5.017,17.0
193.5,-8.135,4.014,20.0
80.899,-3.417,3.928,31.0
94.655,-4.016,4.101,13.0
104.225,-4.443,3.971,20.0
117.317,-5.025,3.847,20.0
193.365,-8.319,5.33,19.0
194.566,-8.409,4.348,8.0
80.786,-3.507,4.053,36.0
94.241,-4.109,4.235,20.0
100.123,-4.384,3.976,16.0
20.102,-0.884,0.691,1.0
20.127,-0.889,0.587,0.0
193.83,-8.598,4.646,6.0
80.618,-3.592,4.176,20.0
83.564,-3.738,3.891,6.0
94.902,-4.262,3.923,18.0
20.096,-0.906,0.723,10.0
20.105,-0.91,0.619,15.0
20.135,-0.915,0.515,10.0
79.204,-3.616,4.232,30.0
80.643,-3.696,3.888,26.0
94.417,-4.343,4.058,13.0
20.097,-0.928,0.757,9.0
20.092,-0.931,0.652,19.0
20.107,-0.935,0.547,18.0
80.15,-3.745,4.414,29.0
80.401,-3.77,4.008,41.0
83.369,-3.923,3.722,16.0
20.111,-0.949,0.79,2.0
20.099,-0.952,0.685,21.0
20.116,-0.957,0.581,23.0
58.243,-2.781,3.305,9.0
80.003,-3.833,4.121,13.0
83.445,-4.012,3.864,27.0
84.928,-4.096,3.48,23.0
20.075,-0.971,0.718,15.0
20.103,-0.976,0.614,23.0
58.327,-2.843,3.407,30.0
73.396,-3.588,3.903,12.0
79.688,-3.908,3.822,10.0
73.358,-3.609,3.129,37.0
20.088,-0.991,0.752,12.0
20.103,-0.995,0.648,19.0
58.439,-2.904,3.512,33.0
58.926,-2.937,3.233,17.0
73.644,-3.68,3.656,27.0
83.46,-4.183,3.7,18.0
20.061,-1.008,0.784,5.0
20.005,-1.008,0.678,13.0
58.543,-2.963,3.616,33.0
58.655,-2.976,3.317,32.0
79.143,-4.026,4.062,18.0
71.038,-3.623,3.269,10.0
83.711,-4.282,3.416,21.0
20.007,-1.026,0.712,15.0
58.306,-3.001,3.7,33.0
58.395,-3.013,3.401,32.0
19.993,-1.034,1.06,0.0
71.036,-3.683,3.389,12.0
83.8,-4.356,3.561,32.0
20.022,-1.043,0.746,13.0
58.349,-3.053,3.803,33.0
58.429,-3.063,3.502,32.0
58.821,-3.091,3.219,22.0
19.973,-1.052,0.986,15.0
72.12,-3.806,3.187,12.0
20.038,-1.06,0.781,9.0
63.649,-3.38,4.257,12.0
58.29,-3.102,3.594,32.0
58.569,-3.123,3.305,29.0
19.961,-1.066,1.02,17.0
19.984,-1.07,0.917,18.0
20.061,-1.076,0.816,7.0
63.497,-3.419,4.356,23.0
58.259,-3.143,3.691,30.0
58.67,-3.172,3.411,32.0
19.967,-1.081,1.054,13.0
19.993,-1.084,0.951,24.0
20.036,-1.089,0.849,15.0
58.969,-3.218,4.146,27.0
58.549,-3.2,3.809,32.0
58.779,-3.218,3.517,32.0
19.977,-1.095,1.089,8.0
19.945,-1.095,0.983,18.0
19.988,-1.1,0.881,18.0
64.566,-3.566,4.649,21.0
58.818,-3.253,3.927,33.0
58.674,-3.25,3.611,32.0
58.58,-3.25,3.293,10.0
19.963,-1.109,1.018,21.0
19.972,-1.111,0.914,24.0
64.341,-3.594,4.743,40.0
59.129,-3.307,4.049,33.0
58.835,-3.295,3.721,32.0
71.906,-4.032,4.165,11.0
19.96,-1.121,1.051,18.0
19.937,-1.121,0.946,17.0
63.584,-3.588,4.796,17.0
58.611,-3.312,4.113,28.0
59.055,-3.341,3.835,33.0
58.791,-3.33,3.505,21.0
19.955,-1.131,1.085,9.0
19.962,-1.133,0.982,23.0
63.541,-3.621,4.901,36.0
58.876,-3.359,4.232,33.0
59.194,-3.38,3.945,23.0
58.844,-3.363,3.609,33.0
20.0,-1.144,1.122,1.0
19.969,-1.143,1.016,23.0
63.449,-3.647,5.003,39.0
58.865,-3.387,4.332,12.0
59.183,-3.407,4.045,33.0
58.926,-3.396,3.713,33.0
71.498,-4.124,4.131,22.0
19.977,-1.153,1.049,19.0
63.235,-3.664,5.092,39.0
63.65,-3.69,4.791,17.0
58.867,-3.416,4.122,33.0
59.105,-3.432,3.824,29.0
71.495,-4.154,4.252,22.0
19.975,-1.161,1.083,10.0
63.328,-3.695,5.206,24.0
63.486,-3.707,4.886,38.0
58.69,-3.429,4.208,30.0
59.051,-3.451,3.918,32.0
58.799,-3.439,3.594,16.0
20.005,-1.17,1.118,1.0
63.393,-3.723,5.318,38.0
63.472,-3.729,4.991,38.0
58.88,-3.461,4.32,18.0
58.949,-3.466,4.01,33.0
58.787,-3.458,3.691,32.0
71.536,-4.21,4.117,22.0
63.4,-3.744,5.425,37.0
63.469,-3.749,5.095,29.0
58.989,-3.486,4.426,8.0
58.769,-3.473,4.095,33.0
58.953,-3.485,3.799,32.0
71.504,-4.229,4.233,26.0
63.521,-3.77,5.54,33.0
63.501,-3.769,5.204,17.0
63.504,-3.77,4.87,32.0
58.715,-3.486,4.189,33.0
58.864,-3.495,3.89,32.0
58.918,-3.499,3.585,32.0
63.728,-3.798,5.665,40.0
63.515,-3.786,5.311,38.0
63.522,-3.785,4.977,37.0
58.833,-3.506,4.294,33.0
58.677,-3.497,3.974,32.0
58.767,-3.503,3.672,31.0
63.981,-3.826,5.792,35.0
63.442,-3.794,5.409,38.0
63.545,-3.799,5.082,33.0
58.87,-3.519,4.392,23.0
58.637,-3.505,4.067,32.0
58.867,-3.518,3.774,30.0
64.057,-3.842,5.904,34.0
63.576,-3.812,5.524,38.0
63.484,-3.805,5.18,28.0
63.572,-3.809,4.846,11.0
58.691,-3.516,4.164,31.0
58.896,-3.527,3.869,31.0
64.112,-3.853,6.012,12.0
63.745,-3.829,5.639,36.0
63.465,-3.811,5.28,37.0
63.585,-3.816,4.948,33.0
58.848,-3.531,4.269,29.0
58.736,-3.523,3.952,32.0
59.036,-3.553,5.631,27.0
63.937,-3.846,5.759,39.0
63.48,-3.816,5.383,38.0
63.531,-3.817,5.045,36.0
58.886,-3.536,4.365,27.0
58.613,-3.518,4.036,32.0
59.086,-3.558,5.729,32.0
64.029,-3.853,5.869,39.0
63.577,-3.824,5.49,38.0
63.519,-3.818,5.143,24.0
63.647,-3.822,4.817,5.0
58.663,-3.521,4.131,28.0
59.021,-3.555,5.816,31.0
64.056,-3.854,5.971,22.0
63.653,-3.827,5.596,38.0
63.463,-3.813,5.237,33.0
63.593,-3.818,4.912,25.0
58.78,-3.526,4.23,26.0
59.12,-3.558,5.917,34.0
59.033,-3.55,5.594,30.0
63.924,-3.84,5.719,39.0
63.487,-3.81,5.337,38.0
63.542,-3.81,5.005,34.0
58.886,-3.528,4.327,28.0
59.464,-3.575,6.043,33.0
59.085,-3.547,5.69,33.0
64.001,-3.839,5.822,39.0
63.462,-3.802,5.431,38.0
63.547,-3.804,5.101,28.0
58.888,-3.521,4.416,11.0
51.691,-2.743,6.41,26.0
52.044,-2.753,6.169,25.0
52.067,-2.745,5.888,25.0
58.51,-3.075,6.292,31.0
0.0,0.0,0.0,0.0
57.155,-2.984,5.526,29.0
51.556,-2.699,6.446,43.0
52.221,-2.725,6.243,22.0
52.092,-2.709,5.943,32.0
58.116,-3.011,6.308,10.0
56.705,-2.928,5.847,17.0
56.786,-2.923,5.547,28.0
51.854,-2.676,6.536,27.0
52.079,-2.678,6.279,29.0
52.021,-2.665,5.987,28.0
58.101,-2.966,6.364,10.0
56.65,-2.882,5.896,9.0
56.739,-2.877,5.596,28.0
51.54,-2.619,6.546,40.0
52.006,-2.634,6.32,37.0
51.861,-2.617,6.018,33.0
52.009,-2.614,5.745,23.0
46.769,-2.342,4.911,19.0
56.606,-2.825,5.635,32.0
51.329,-2.567,6.567,26.0
52.008,-2.591,6.368,37.0
51.927,-2.577,6.073,25.0
52.002,-2.571,5.791,23.0
58.083,-2.862,6.151,9.0
56.49,-2.772,5.674,30.0
51.15,-2.516,6.589,38.0
51.865,-2.542,6.396,26.0
52.127,-2.544,6.141,26.0
51.991,-2.528,5.834,36.0
46.806,-2.267,4.996,19.0
56.425,-2.722,5.714,28.0
51.176,-2.474,6.636,40.0
51.845,-2.496,6.436,26.0
51.828,-2.485,6.149,27.0
51.937,-2.48,5.871,31.0
46.85,-2.228,5.039,20.0
56.404,-2.672,5.758,10.0
51.207,-2.43,6.682,35.0
51.321,-2.426,6.412,27.0
51.265,-2.413,6.122,44.0
51.946,-2.434,5.912,29.0
52.069,-2.429,5.64,7.0
46.767,-2.173,4.809,20.0
51.572,-2.401,6.769,26.0
51.081,-2.367,6.422,38.0
51.856,-2.393,6.232,27.0
51.932,-2.386,5.949,30.0
51.955,-2.377,5.666,8.0
46.706,-2.127,4.837,34.0
51.202,-2.336,6.757,5.0
51.12,-2.322,6.463,25.0
51.618,-2.334,6.24,27.0
51.903,-2.336,5.982,26.0
51.908,-2.326,5.696,14.0
46.727,-2.085,4.871,33.0
44.593,-1.992,5.916,32.0
45.043,-2.003,5.725,24.0
51.55,-2.282,6.266,26.0
51.603,-2.273,5.982,31.0
51.775,-2.27,5.716,36.0
46.59,-2.034,4.886,35.0
44.662,-1.952,5.954,35.0
45.017,-1.957,5.751,27.0
51.405,-2.224,6.281,12.0
51.498,-2.218,6.001,35.0
51.803,-2.22,5.75,38.0
46.658,-1.99,4.922,38.0
44.585,-1.904,5.971,25.0
45.04,-1.914,5.78,29.0
51.295,-2.169,6.297,4.0
51.339,-2.16,6.012,19.0
51.725,-2.166,5.771,32.0
46.666,-1.944,4.948,42.0
44.274,-1.846,5.954,41.0
44.375,-1.841,5.719,34.0
44.867,-1.852,5.532,37.0
44.836,-1.841,5.274,42.0
51.76,-2.115,5.802,27.0
0.0,0.0,0.0,0.0
44.362,-1.805,5.988,29.0
44.294,-1.792,5.731,33.0
44.834,-1.805,5.55,32.0
44.878,-1.797,5.301,29.0
44.93,-1.789,5.057,20.0
0.0,0.0,0.0,0.0
44.112,-1.748,5.975,40.0
44.392,-1.75,5.764,43.0
44.88,-1.76,5.576,26.0
44.837,-1.748,5.316,42.0
44.737,-1.734,5.055,34.0
51.806,-1.998,5.566,25.0
44.112,-1.701,5.994,45.0
44.176,-1.694,5.755,33.0
44.672,-1.703,5.569,24.0
52.267,-1.981,6.218,10.0
44.691,-1.685,5.068,37.0
51.443,-1.929,5.547,10.0
44.322,-1.661,6.04,33.0
44.302,-1.651,5.787,31.0
44.743,-1.658,5.594,19.0
44.824,-1.651,5.349,19.0
44.66,-1.636,5.08,42.0
44.559,-1.622,4.82,34.0
44.417,-1.616,6.067,33.0
44.212,-1.599,5.79,32.0
44.65,-1.605,5.597,22.0
44.722,-1.598,5.351,12.0
44.706,-1.588,5.098,37.0
44.565,-1.574,4.833,42.0
44.622,-1.575,6.108,36.0
44.07,-1.545,5.784,40.0
44.857,-1.564,5.635,19.0
44.614,-1.545,5.349,25.0
44.763,-1.541,5.116,41.0
44.437,-1.52,4.831,38.0
44.701,-1.528,6.13,20.0
44.236,-1.502,5.817,32.0
44.939,-1.516,5.656,19.0
44.582,-1.495,5.355,44.0
44.719,-1.49,5.121,43.0
