X,Y,Z,Reflectivity
47.642,2.107,5.468,1.0
45.083,1.995,4.912,7.0
41.186,1.825,4.243,36.0
40.818,1.811,3.969,40.0
40.348,1.792,3.69,38.0
41.698,1.866,4.976,40.0
45.663,2.045,5.182,13.0
44.974,2.017,4.842,4.0
41.417,1.858,4.214,20.0
40.759,1.83,3.911,40.0
40.404,1.817,3.643,32.0
41.705,1.889,4.922,45.0
40.759,1.848,4.573,10.0
40.954,1.858,4.356,16.0
41.028,1.863,4.121,16.0
40.605,1.845,3.843,40.0
40.324,1.833,3.583,43.0
41.801,1.915,4.877,40.0
40.76,1.868,4.518,30.0
41.134,1.887,4.319,16.0
40.761,1.871,4.039,44.0
40.543,1.862,3.782,33.0
40.369,1.856,3.532,39.0
41.868,1.938,4.827,41.0
40.825,1.891,4.468,23.0
40.917,1.896,4.239,37.0
40.731,1.888,3.979,39.0
40.332,1.871,3.707,40.0
40.375,1.874,3.476,36.0
42.039,1.964,4.788,34.0
40.77,1.906,4.405,40.0
40.815,1.909,4.172,44.0
40.88,1.912,3.937,28.0
40.208,1.882,3.639,42.0
40.282,1.886,3.412,36.0
41.853,1.973,4.707,17.0
40.785,1.923,4.348,43.0
40.906,1.929,4.123,38.0
41.027,1.936,3.892,19.0
40.233,1.899,3.583,43.0
40.495,1.911,3.372,32.0
45.393,2.157,5.039,20.0
40.916,1.944,4.303,39.0
40.896,1.943,4.062,26.0
40.52,1.926,3.785,41.0
40.394,1.92,3.539,39.0
40.643,1.933,3.325,16.0
45.063,2.156,4.936,4.0
40.944,1.959,4.245,37.0
40.895,1.957,4.002,35.0
40.387,1.933,3.713,38.0
40.287,1.928,3.47,30.0
40.384,1.933,3.244,29.0
40.866,1.967,4.414,17.0
41.012,1.974,4.19,41.0
41.15,1.981,3.964,21.0
40.326,1.941,3.646,40.0
40.274,1.938,3.408,41.0
40.3,1.939,3.176,39.0
40.9,1.98,4.355,31.0
41.144,1.991,4.141,36.0
41.423,2.004,3.928,16.0
40.318,1.95,3.584,38.0
40.533,1.961,3.368,30.0
40.293,1.949,3.114,41.0
40.847,1.986,4.287,43.0
40.896,1.988,4.053,32.0
40.755,1.98,3.801,30.0
40.258,1.955,3.517,36.0
40.309,1.958,3.287,36.0
40.5,1.967,3.068,37.0
40.905,1.996,4.229,29.0
40.74,1.988,3.974,43.0
40.374,1.969,3.702,43.0
40.22,1.96,3.45,39.0
40.244,1.961,3.219,41.0
40.578,1.977,3.01,41.0
41.3,2.022,4.204,20.0
40.888,2.0,3.923,39.0
40.235,1.968,3.626,39.0
40.404,1.975,3.402,38.0
40.337,1.97,3.162,39.0
40.756,1.99,2.958,37.0
41.033,2.013,4.11,32.0
41.085,2.014,3.876,36.0
40.276,1.973,3.565,39.0
40.487,1.982,3.344,32.0
40.566,1.985,3.114,29.0
40.706,1.991,2.889,39.0
40.787,2.004,4.019,45.0
40.65,1.996,3.768,38.0
40.508,1.987,3.519,26.0
40.283,1.974,3.261,36.0
40.573,1.988,3.048,38.0
40.807,1.998,2.829,36.0
40.773,2.004,3.95,41.0
40.315,1.98,3.67,43.0
40.429,1.984,3.445,32.0
40.241,1.973,3.191,45.0
40.619,1.99,2.984,39.0
40.818,1.998,2.763,40.0
41.006,2.015,3.904,39.0
40.264,1.977,3.599,40.0
40.529,1.988,3.386,34.0
40.433,1.981,3.139,33.0
40.695,1.992,2.923,39.0
40.936,2.003,2.703,42.0
40.825,2.004,3.819,37.0
40.376,1.98,3.542,34.0
40.393,1.979,3.308,32.0
40.589,1.986,3.084,31.0
40.749,1.992,2.859,37.0
41.005,2.003,2.64,50.0
40.434,1.982,3.715,51.0
40.322,1.974,3.469,37.0
40.242,1.967,3.228,44.0
40.578,1.982,3.014,44.0
40.829,1.992,2.796,40.0
40.981,1.997,2.568,41.0
40.243,1.967,3.627,40.0
40.45,1.975,3.41,41.0
40.322,1.966,3.164,41.0
40.763,1.985,2.958,38.0
40.846,1.986,2.726,45.0
41.056,1.994,2.502,30.0
40.259,1.961,3.56,43.0
40.427,1.966,3.339,33.0
40.409,1.962,3.102,40.0
40.73,1.976,2.886,40.0
40.979,1.985,2.665,43.0
41.528,2.009,2.46,30.0
40.214,1.95,3.486,37.0
40.269,1.95,3.256,37.0
40.527,1.959,3.041,42.0
40.743,1.967,2.816,42.0
41.003,1.977,2.596,41.0
41.721,2.008,2.399,36.0
40.314,1.945,3.424,41.0
40.294,1.941,3.188,41.0
40.684,1.956,2.982,36.0
40.835,1.96,2.751,47.0
40.936,1.962,2.52,39.0
41.793,2.0,2.331,35.0
40.51,1.943,3.37,32.0
40.372,1.932,3.123,37.0
40.84,1.952,2.922,38.0
41.029,1.957,2.692,39.0
52.933,2.52,3.166,8.0
52.842,2.512,2.855,14.0
40.611,1.934,3.306,16.0
40.467,1.923,3.059,38.0
40.786,1.935,2.845,37.0
41.089,1.945,2.623,41.0
41.771,1.974,2.424,28.0
59.485,2.806,3.108,12.0
40.402,1.909,3.217,41.0
40.536,1.911,2.991,35.0
40.831,1.921,2.776,45.0
41.048,1.927,2.548,33.0
41.808,1.959,2.353,31.0
59.499,2.783,3.003,19.0
40.428,1.893,3.148,38.0
40.716,1.903,2.933,38.0
40.999,1.912,2.715,39.0
44.789,2.084,2.701,3.0
52.919,2.457,2.884,10.0
59.594,2.761,2.903,4.0
40.379,1.872,3.072,44.0
40.802,1.887,2.866,39.0
41.004,1.893,2.642,44.0
59.457,2.738,3.48,7.0
52.996,2.435,2.794,13.0
52.683,2.415,2.472,5.0
40.492,1.858,3.008,45.0
40.869,1.87,2.798,42.0
41.053,1.874,2.572,45.0
59.487,2.709,3.375,22.0
65.839,2.991,3.354,8.0
52.662,2.387,2.378,20.0
40.667,1.843,2.948,45.0
41.074,1.857,2.739,30.0
41.683,1.88,2.537,22.0
52.965,2.382,2.911,5.0
65.942,2.959,3.242,17.0
52.727,2.36,2.287,23.0
40.888,1.83,2.89,28.0
41.081,1.833,2.665,41.0
42.143,1.875,2.489,10.0
52.977,2.351,2.816,9.0
66.008,2.922,3.127,18.0
52.514,2.318,2.184,14.0
41.188,1.818,2.838,26.0
41.097,1.808,2.593,41.0
52.95,2.323,3.033,5.0
65.997,2.887,3.391,10.0
66.006,2.879,3.009,8.0
66.024,2.872,2.628,16.0
41.148,1.788,2.761,35.0
42.075,1.823,2.579,29.0
52.972,2.288,2.939,6.0
65.953,2.84,3.271,15.0
65.976,2.832,2.889,13.0
66.025,2.826,2.509,26.0
41.049,1.755,2.681,45.0
44.825,1.91,2.667,11.0
65.823,2.796,3.534,40.0
65.933,2.791,3.151,10.0
65.997,2.786,2.772,18.0
66.03,2.778,2.391,31.0
44.85,1.884,2.848,4.0
65.882,2.759,3.801,14.0
65.728,2.743,3.411,41.0
65.966,2.743,3.034,26.0
66.03,2.737,2.656,33.0
66.064,2.729,2.274,30.0
44.824,1.848,2.766,27.0
65.768,2.702,3.677,41.0
65.734,2.69,3.294,29.0
66.071,2.694,2.921,14.0
66.064,2.684,2.538,26.0
66.169,2.679,2.16,15.0
44.826,1.811,2.686,20.0
65.873,2.651,3.565,34.0
52.847,2.119,2.554,7.0
66.105,2.64,2.805,26.0
66.167,2.632,2.424,19.0
195.103,7.734,6.023,21.0
65.862,2.604,3.829,31.0
78.562,3.094,4.113,10.0
66.191,2.596,3.081,18.0
66.189,2.585,2.691,26.0
190.768,7.422,6.656,28.0
195.45,7.574,5.69,13.0
64.645,2.498,3.645,15.0
66.024,2.54,3.34,33.0
66.172,2.534,2.963,22.0
190.419,7.264,7.407,14.0
210.609,7.999,6.976,8.0
194.393,7.352,5.317,9.0
0.0,0.0,0.0,0.0
66.235,2.486,3.234,28.0
72.527,2.709,3.121,29.0
190.736,7.092,7.085,19.0
72.502,2.684,2.275,14.0
72.5,2.672,1.856,20.0
66.305,2.435,3.506,24.0
72.453,2.648,3.411,25.0
72.467,2.636,2.993,30.0
72.427,2.622,2.565,31.0
72.414,2.609,2.146,32.0
72.398,2.596,1.728,27.0
72.321,2.582,3.697,20.0
72.403,2.571,3.282,34.0
72.408,2.559,2.864,38.0
72.403,2.546,2.438,40.0
72.369,2.531,2.018,34.0
72.377,2.519,1.601,33.0
72.34,2.506,3.572,19.0
72.389,2.494,3.156,38.0
72.394,2.481,2.738,38.0
72.391,2.468,2.312,35.0
72.388,2.454,1.895,39.0
72.375,2.44,1.477,32.0
72.369,2.429,3.45,32.0
72.432,2.416,3.034,36.0
72.438,2.402,2.615,39.0
72.453,2.389,2.19,34.0
72.453,2.375,1.771,32.0
72.43,2.361,1.353,33.0
72.454,2.348,3.328,27.0
72.527,2.336,2.913,16.0
190.632,6.104,6.556,9.0
74.335,2.366,2.12,4.0
74.026,2.341,1.684,2.0
74.189,2.332,1.26,0.0
117.655,3.677,5.207,8.0
78.807,2.447,3.033,34.0
206.611,6.376,6.759,8.0
75.2,2.305,2.018,1.0
74.681,2.274,1.574,6.0
74.633,2.257,1.142,4.0
117.925,3.543,5.02,6.0
78.809,2.352,2.9,24.0
78.891,2.338,2.448,27.0
76.6,2.254,1.927,6.0
76.428,2.233,1.482,5.0
76.462,2.218,1.042,9.0
78.994,2.275,3.23,11.0
78.802,2.253,2.768,28.0
78.818,2.237,2.315,27.0
78.669,2.216,1.848,9.0
78.603,2.197,1.394,9.0
0.0,0.0,0.0,0.0
78.796,2.169,3.092,28.0
78.806,2.153,2.639,37.0
78.864,2.136,2.185,33.0
78.883,2.12,1.724,37.0
78.883,2.104,1.27,34.0
78.905,2.087,0.817,33.0
78.825,2.068,2.966,31.0
78.921,2.053,2.515,24.0
78.962,2.036,2.061,12.0
79.039,2.02,1.6,7.0
119.981,3.042,1.74,11.0
78.999,1.985,0.691,17.0
78.858,1.962,2.84,25.0
85.33,2.104,2.581,27.0
85.271,2.083,2.088,29.0
85.267,2.064,1.589,38.0
85.258,2.045,1.099,36.0
84.975,2.018,0.607,18.0
85.239,2.005,2.934,28.0
85.219,1.984,2.443,36.0
85.219,1.964,1.952,41.0
85.22,1.945,1.454,46.0
85.233,1.925,0.963,37.0
84.821,1.896,0.471,10.0
85.265,1.885,2.801,38.0
85.278,1.865,2.31,37.0
85.284,1.844,1.82,41.0
85.295,1.825,1.321,36.0
85.266,1.804,0.831,32.0
77.723,1.626,0.311,5.0
91.878,1.899,2.876,23.0
87.006,1.778,2.223,25.0
87.255,1.762,1.728,34.0
87.447,1.746,1.222,36.0
85.51,1.687,0.704,20.0
73.828,1.438,0.183,3.0
91.808,1.765,2.735,31.0
91.7,1.741,2.205,8.0
91.822,1.72,1.68,11.0
91.847,1.697,1.144,15.0
91.813,1.675,0.617,9.0
72.871,1.311,0.071,7.0
91.803,1.626,2.596,29.0
91.86,1.605,2.071,39.0
91.865,1.583,1.544,41.0
91.866,1.559,1.007,42.0
78.365,1.31,0.409,9.0
0.0,0.0,0.0,0.0
119.906,1.942,3.214,30.0
92.005,1.466,1.937,14.0
91.972,1.443,1.41,32.0
91.997,1.419,0.873,27.0
80.961,1.228,0.304,7.0
0.0,0.0,0.0,0.0
98.61,1.443,2.499,29.0
98.641,1.418,1.934,29.0
98.561,1.391,1.367,31.0
98.447,1.365,0.792,16.0
80.978,1.101,0.187,1.0
0.0,0.0,0.0,0.0
98.544,1.286,2.356,30.0
98.57,1.261,1.792,33.0
98.529,1.234,1.227,35.0
98.057,1.202,0.65,6.0
79.19,0.95,0.071,4.0
0.0,0.0,0.0,0.0
98.583,1.128,2.219,29.0
98.586,1.102,1.654,29.0
98.549,1.075,1.09,28.0
85.55,0.91,0.448,9.0
0.0,0.0,0.0,0.0
0.0,0.0,0.0,0.0
104.748,1.029,2.214,33.0
104.736,0.999,1.614,32.0
98.687,0.916,0.957,15.0
85.091,0.765,0.329,8.0
0.0,0.0,0.0,0.0
48.556,0.41,-0.366,1.0
104.747,0.854,2.072,29.0
104.788,0.825,1.473,33.0
104.773,0.797,0.875,23.0
85.517,0.626,0.216,8.0
0.0,0.0,0.0,0.0
45.905,0.31,-0.408,0.0
100.313,0.647,1.851,3.0
100.129,0.617,1.275,6.0
104.678,0.616,0.735,11.0
87.477,0.49,0.106,1.0
0.0,0.0,0.0,0.0
42.863,0.215,-0.437,1.0
101.582,0.48,1.742,2.0
111.074,0.494,1.271,7.0
104.047,0.432,0.596,5.0
0.0,0.0,0.0,0.0
49.96,0.179,-0.288,0.0
0.0,0.0,0.0,0.0
119.869,0.36,1.904,18.0
111.123,0.301,1.132,14.0
94.564,0.227,0.422,1.0
0.0,0.0,0.0,0.0
49.836,0.091,-0.35,0.0
38.891,0.059,-0.495,0.0
111.127,0.138,1.628,17.0
111.116,0.105,0.995,8.0
95.578,0.062,0.311,5.0
0.0,0.0,0.0,0.0
45.479,0.002,-0.375,2.0
36.045,-0.008,-0.502,0.0
111.181,-0.059,1.496,15.0
111.094,-0.092,0.861,14.0
0.0,0.0,0.0,0.0
0.0,0.0,0.0,0.0
45.509,-0.078,-0.429,0.0
0.0,0.0,0.0,0.0
119.729,-0.278,1.471,17.0
111.118,-0.292,0.732,8.0
0.0,0.0,0.0,0.0
42.217,-0.136,-0.206,0.0
0.0,0.0,0.0,0.0
33.904,-0.13,-0.551,0.0
119.745,-0.495,1.335,17.0
105.964,-0.472,0.577,2.0
0.0,0.0,0.0,0.0
0.0,0.0,0.0,0.0
0.0,0.0,0.0,0.0
0.0,0.0,0.0,0.0
119.712,-0.718,1.2,17.0
0.0,0.0,0.0,0.0
0.0,0.0,0.0,0.0
0.0,0.0,0.0,0.0
37.843,-0.273,-0.484,0.0
31.548,-0.238,-0.583,0.0
119.699,-0.939,1.072,18.0
0.0,0.0,0.0,0.0
0.0,0.0,0.0,0.0
46.283,-0.407,-0.378,0.0
0.0,0.0,0.0,0.0
30.531,-0.288,-0.596,0.0
119.757,-1.164,0.948,105.0
0.0,0.0,0.0,0.0
0.0,0.0,0.0,0.0
45.258,-0.483,-0.416,0.0
35.138,-0.386,-0.523,0.0
29.278,-0.331,-0.601,0.0
139.148,-1.613,0.962,5.0
0.0,0.0,0.0,0.0
0.0,0.0,0.0,0.0
0.0,0.0,0.0,0.0
34.241,-0.441,-0.543,0.0
28.539,-0.377,-0.614,0.0
127.615,-1.724,0.757,10.0
0.0,0.0,0.0,0.0
0.0,0.0,0.0,0.0
0.0,0.0,0.0,0.0
33.09,-0.49,-0.556,0.0
28.001,-0.424,-0.629,0.0
0.0,0.0,0.0,0.0
0.0,0.0,0.0,0.0
50.051,-0.805,-0.316,1.0
0.0,0.0,0.0,0.0
32.056,-0.537,-0.568,0.0
27.026,-0.461,-0.632,0.0
98.277,-1.706,0.402,1.0
0.0,0.0,0.0,0.0
46.147,-0.831,-0.332,0.0
37.733,-0.692,-0.489,0.0
30.639,-0.572,-0.57,0.0
26.496,-0.504,-0.643,0.0
0.0,0.0,0.0,0.0
0.0,0.0,0.0,0.0
45.24,-0.903,-0.365,2.0
0.0,0.0,0.0,0.0
0.0,0.0,0.0,0.0
26.236,-0.55,-0.659,0.0
0.0,0.0,0.0,0.0
0.0,0.0,0.0,0.0
0.0,0.0,0.0,0.0
0.0,0.0,0.0,0.0
30.045,-0.679,-0.609,0.0
18.167,-0.417,-0.471,2.0
0.0,0.0,0.0,0.0
0.0,0.0,0.0,0.0
43.497,-1.039,-0.42,1.0
34.57,-0.838,-0.532,0.0
29.089,-0.715,-0.612,0.0
21.898,-0.545,-0.584,151.0
0.0,0.0,0.0,0.0
0.0,0.0,0.0,0.0
43.361,-1.121,-0.451,1.0
34.434,-0.902,-0.556,0.0
21.907,-0.581,-0.477,150.0
21.857,-0.588,-0.599,160.0
0.0,0.0,0.0,0.0
0.0,0.0,0.0,0.0
41.596,-1.158,-0.462,0.0
0.0,0.0,0.0,0.0
21.916,-0.625,-0.492,151.0
21.892,-0.632,-0.615,79.0
0.0,0.0,0.0,0.0
0.0,0.0,0.0,0.0
41.227,-1.23,-0.486,1.0
0.0,0.0,0.0,0.0
28.067,-0.857,-0.649,0.0
23.659,-0.731,-0.68,0.0
0.0,0.0,0.0,0.0
47.741,-1.504,-0.325,1.0
38.092,-1.213,-0.473,0.0
31.397,-1.011,-0.569,0.0
26.725,-0.87,-0.635,0.0
23.474,-0.773,-0.69,0.0
0.0,0.0,0.0,0.0
47.066,-1.576,-0.348,0.0
37.92,-1.284,-0.493,0.0
0.0,0.0,0.0,0.0
26.471,-0.915,-0.644,0.0
22.967,-0.802,-0.688,0.0
0.0,0.0,0.0,0.0
0.0,0.0,0.0,0.0
37.617,-1.349,-0.511,0.0
30.529,-1.106,-0.588,0.0
26.307,-0.962,-0.655,0.0
22.946,-0.847,-0.7,0.0
0.0,0.0,0.0,0.0
45.392,-1.702,-0.385,1.0
0.0,0.0,0.0,0.0
29.763,-1.138,-0.589,0.0
26.256,-1.013,-0.667,0.0
22.638,-0.882,-0.702,0.0
0.0,0.0,0.0,0.0
0.0,0.0,0.0,0.0
0.0,0.0,0.0,0.0
29.951,-1.205,-0.607,0.0
25.083,-1.019,-0.649,0.0
22.262,-0.912,-0.7,0.0
0.0,0.0,0.0,0.0
0.0,0.0,0.0,0.0
0.0,0.0,0.0,0.0
0.0,0.0,0.0,0.0
25.296,-1.078,-0.665,0.0
22.06,-0.948,-0.703,0.0
0.0,0.0,0.0,0.0
43.068,-1.876,-0.423,0.0
33.769,-1.483,-0.52,0.0
28.901,-1.279,-0.609,0.0
24.967,-1.114,-0.666,0.0
22.177,-0.998,-0.716,0.0
0.0,0.0,0.0,0.0
20.01,-0.911,-0.204,14.0
20.018,-0.919,-0.315,11.0
20.058,-0.928,-0.43,3.0
24.577,-1.146,-0.664,0.0
21.679,-1.019,-0.707,0.0
20.0,-0.943,-0.099,23.0
20.004,-0.951,-0.21,29.0
20.008,-0.958,-0.322,26.0
20.04,-0.967,-0.436,25.0
20.068,-0.976,-0.549,18.0
20.055,-0.983,-0.66,2.0
19.981,-0.982,-0.104,33.0
19.994,-0.99,-0.216,32.0
20.01,-0.998,-0.327,26.0
20.034,-1.007,-0.441,29.0
20.059,-1.015,-0.554,30.0
20.055,-1.023,-0.666,15.0
19.982,-1.022,-0.109,31.0
20.034,-1.032,-0.221,26.0
20.018,-1.038,-0.332,14.0
20.029,-1.046,-0.446,18.0
20.067,-1.056,-0.559,20.0
20.074,-1.064,-0.671,9.0
20.026,-1.064,-0.114,27.0
0.0,0.0,0.0,0.0
0.0,0.0,0.0,0.0
27.906,-1.513,-0.627,0.0
23.725,-1.295,-0.665,0.0
21.237,-1.167,-0.714,0.0
50.314,-2.773,-0.296,0.0
0.0,0.0,0.0,0.0
0.0,0.0,0.0,0.0
0.0,0.0,0.0,0.0
23.653,-1.338,-0.667,1.0
21.311,-1.213,-0.719,0.0
20.007,-1.141,-0.12,0.0
19.983,-1.147,-0.231,1.0
20.011,-1.156,-0.342,5.0
20.012,-1.164,-0.455,25.0
19.989,-1.17,-0.566,80.0
19.956,-1.175,-0.676,36.0
20.017,-1.181,-0.122,152.0
19.983,-1.186,-0.233,151.0
19.98,-1.193,-0.344,150.0
19.974,-1.2,-0.456,150.0
19.982,-1.208,-0.567,88.0
20.003,-1.217,-0.679,5.0
20.02,-1.22,-0.124,30.0
20.032,-1.228,-0.235,13.0
20.071,-1.238,-0.346,13.0
20.117,-1.248,-0.46,23.0
20.102,-1.255,-0.571,14.0
20.065,-1.26,-0.682,12.0
20.019,-1.259,-0.124,28.0
20.03,-1.267,-0.235,28.0
20.053,-1.275,-0.346,28.0
20.073,-1.284,-0.459,31.0
20.112,-1.294,-0.572,31.0
20.103,-1.301,-0.683,15.0
20.011,-1.297,-0.124,36.0
20.027,-1.305,-0.235,31.0
20.051,-1.314,-0.346,27.0
20.077,-1.323,-0.459,27.0
20.119,-1.333,-0.571,20.0
20.13,-1.341,-0.683,7.0
20.008,-1.335,-0.123,27.0
20.036,-1.344,-0.233,20.0
20.058,-1.353,-0.344,14.0
20.092,-1.362,-0.458,2.0
23.879,-1.628,-0.676,0.0
20.924,-1.434,-0.708,0.0
20.033,-1.374,-0.121,11.0
20.011,-1.38,-0.231,0.0
0.0,0.0,0.0,0.0
28.192,-1.965,-0.64,0.0
23.886,-1.673,-0.674,0.0
21.499,-1.514,-0.725,0.0
45.488,-3.207,-0.27,1.0
40.916,-2.899,-0.468,0.0
0.0,0.0,0.0,0.0
27.622,-1.977,-0.623,0.0
24.243,-1.744,-0.68,1.0
21.357,-1.544,-0.717,0.0
44.943,-3.252,-0.259,0.0
39.949,-2.905,-0.45,1.0
33.482,-2.447,-0.561,0.0
0.0,0.0,0.0,0.0
24.437,-1.803,-0.681,0.0
21.622,-1.603,-0.722,0.0
40.7,-3.02,-0.227,0.0
35.908,-2.677,-0.397,1.0
35.157,-2.633,-0.582,0.0
28.194,-2.122,-0.625,0.0
0.0,0.0,0.0,0.0
21.395,-1.625,-0.709,0.0
40.623,-3.089,-0.216,9.0
35.038,-2.676,-0.379,1.0
32.223,-2.472,-0.526,1.0
28.45,-2.193,-0.623,0.0
67.919,-5.26,-1.861,0.0
21.831,-1.698,-0.718,0.0
40.661,-3.166,-0.206,5.0
35.512,-2.776,-0.374,12.0
29.946,-2.352,-0.48,1.0
28.962,-2.285,-0.626,0.0
24.559,-1.946,-0.665,0.0
21.93,-1.745,-0.714,1.0
40.661,-3.238,-0.193,2.0
35.558,-2.843,-0.363,12.0
29.597,-2.377,-0.465,1.0
27.302,-2.202,-0.581,1.0
0.0,0.0,0.0,0.0
21.762,-1.77,-0.702,0.0
48.141,-3.918,-0.212,4.0
35.64,-2.912,-0.352,27.0
29.696,-2.436,-0.456,21.0
25.685,-2.116,-0.537,3.0
25.215,-2.086,-0.665,0.0
22.286,-1.851,-0.71,0.0
45.444,-3.777,-0.183,20.0
35.662,-2.975,-0.338,61.0
29.075,-2.436,-0.435,18.0
25.528,-2.147,-0.524,2.0
23.821,-2.012,-0.619,2.0
23.603,-2.002,-0.742,0.0
45.558,-3.865,-0.165,10.0
35.67,-3.037,-0.324,5.0
29.604,-2.53,-0.43,10.0
25.813,-2.215,-0.519,12.0
22.698,-1.955,-0.58,2.0
22.436,-1.94,-0.696,1.0
0.0,0.0,0.0,0.0
35.707,-3.1,-0.308,1.0
29.886,-2.605,-0.421,150.0
25.153,-2.2,-0.494,23.0
22.5,-1.976,-0.565,3.0
21.18,-1.867,-0.647,1.0
47.11,-4.154,-0.127,22.0
39.076,-3.458,-0.318,3.0
29.844,-2.65,-0.405,14.0
25.326,-2.257,-0.485,20.0
22.959,-2.054,-0.565,5.0
20.311,-1.824,-0.61,2.0
47.633,-4.277,-0.104,22.0
38.02,-3.426,-0.29,4.0
29.855,-2.699,-0.39,19.0
26.611,-2.415,-0.496,7.0
22.48,-2.047,-0.541,20.0
20.238,-1.85,-0.597,2.0
47.781,-4.367,-0.078,22.0
0.0,0.0,0.0,0.0
29.851,-2.747,-0.374,23.0
23.579,-2.177,-0.426,0.0
22.193,-2.056,-0.522,21.0
20.59,-1.914,-0.596,4.0
48.205,-4.482,-0.051,22.0
39.649,-3.698,-0.258,15.0
29.857,-2.794,-0.356,6.0
23.57,-2.213,-0.412,0.0
22.623,-2.131,-0.518,19.0
20.107,-1.901,-0.57,14.0
49.052,-4.637,-0.023,23.0
0.0,0.0,0.0,0.0
35.479,-3.375,-0.401,7.0
23.615,-2.254,-0.398,0.0
22.788,-2.182,-0.508,23.0
19.944,-1.916,-0.553,19.0
48.9,-4.697,0.008,9.0
41.388,-3.987,-0.217,17.0
35.464,-3.427,-0.378,12.0
23.589,-2.287,-0.382,0.0
23.05,-2.241,-0.498,20.0
20.246,-1.975,-0.548,17.0
49.085,-4.788,0.04,9.0
42.239,-4.132,-0.193,17.0
35.538,-3.487,-0.355,18.0
23.71,-2.333,-0.368,0.0
23.507,-2.321,-0.492,32.0
20.407,-2.021,-0.538,20.0
51.398,-5.089,0.078,16.0
43.325,-4.302,-0.168,18.0
35.649,-3.55,-0.331,13.0
29.693,-2.965,-0.439,8.0
23.421,-2.346,-0.473,18.0
21.123,-2.122,-0.541,20.0
51.262,-5.149,0.115,8.0
43.881,-4.419,-0.138,19.0
36.572,-3.693,-0.313,13.0
29.872,-3.025,-0.42,18.0
23.549,-2.392,-0.458,74.0
21.332,-2.173,-0.531,21.0
55.424,-5.644,0.166,1.0
44.804,-4.574,-0.107,19.0
37.491,-3.838,-0.292,15.0
0.0,0.0,0.0,0.0
23.544,-2.423,-0.44,14.0
21.55,-2.224,-0.52,27.0
72.289,-7.46,0.273,0.0
33.121,-3.426,-0.053,32.0
33.106,-3.433,-0.232,72.0
30.246,-3.145,-0.378,24.0
23.535,-2.453,-0.421,0.0
21.793,-2.278,-0.508,21.0
33.132,-3.463,0.152,74.0
33.109,-3.468,-0.026,76.0
33.084,-3.475,-0.205,82.0
31.063,-3.27,-0.363,15.0
25.701,-2.713,-0.439,0.0
22.033,-2.331,-0.495,23.0
33.111,-3.503,0.179,92.0
33.102,-3.51,0.0,83.0
33.1,-3.518,-0.177,79.0
31.857,-3.394,-0.346,26.0
25.504,-2.724,-0.414,16.0
22.475,-2.406,-0.486,23.0
33.111,-3.544,0.207,80.0
33.118,-3.553,0.029,71.0
33.12,-3.561,-0.149,41.0
32.473,-3.5,-0.324,18.0
26.464,-2.859,-0.407,17.0
22.799,-2.469,-0.473,22.0
33.126,-3.586,0.237,48.0
33.131,-3.595,0.058,6.0
41.898,-4.556,-0.151,17.0
35.626,-3.882,-0.324,10.0
0.0,0.0,0.0,0.0
23.027,-2.52,-0.458,25.0
85.497,-9.357,0.688,6.0
50.821,-5.573,0.135,8.0
42.455,-4.665,-0.115,17.0
35.892,-3.952,-0.294,13.0
28.456,-3.14,-0.386,23.0
23.513,-2.6,-0.446,22.0
90.44,-10.001,0.811,5.0
63.098,-6.991,0.227,4.0
0.0,0.0,0.0,0.0
36.872,-4.102,-0.268,15.0
29.442,-3.282,-0.372,30.0
23.989,-2.679,-0.432,24.0
91.518,-10.221,0.907,11.0
78.956,-8.834,0.358,3.0
45.922,-5.148,-0.038,20.0
37.677,-4.231,-0.237,20.0
30.073,-3.384,-0.351,24.0
24.417,-2.753,-0.416,18.0
75.371,-8.498,0.821,18.0
75.347,-8.51,0.415,15.0
46.609,-5.273,0.006,20.0
38.44,-4.357,-0.204,17.0
30.716,-3.488,-0.329,19.0
24.994,-2.843,-0.402,19.0
75.232,-8.559,0.892,25.0
75.229,-8.572,0.488,19.0
0.0,0.0,0.0,0.0
39.012,-4.461,-0.169,15.0
35.354,-4.05,-0.343,4.0
25.462,-2.922,-0.383,16.0
75.208,-8.629,0.967,34.0
75.221,-8.644,0.564,29.0
0.0,0.0,0.0,0.0
0.0,0.0,0.0,0.0
35.53,-4.103,-0.309,21.0
27.778,-3.213,-0.391,12.0
75.219,-8.7,1.044,31.0
75.204,-8.711,0.64,27.0
51.402,-5.963,0.161,17.0
42.264,-4.911,-0.097,17.0
35.968,-4.186,-0.276,19.0
28.295,-3.298,-0.369,9.0
118.514,-13.814,1.767,6.0
75.223,-8.781,0.718,26.0
75.112,-8.78,0.315,5.0
0.0,0.0,0.0,0.0
37.096,-4.349,-0.246,15.0
29.29,-3.439,-0.351,23.0
73.095,-8.582,1.167,9.0
91.388,-10.745,0.969,10.0
75.31,-8.867,0.395,8.0
46.378,-5.468,-0.009,21.0
37.947,-4.48,-0.211,24.0
30.111,-3.56,-0.329,21.0
73.167,-8.65,1.247,12.0
73.0,-8.641,0.852,1.0
83.809,-9.934,0.53,15.0
47.228,-5.605,0.04,21.0
38.569,-4.583,-0.173,15.0
35.202,-4.189,-0.346,3.0
119.077,-14.17,2.157,18.0
107.693,-12.83,1.374,12.0
84.516,-10.08,0.625,12.0
0.0,0.0,0.0,0.0
38.779,-4.636,-0.131,13.0
35.474,-4.247,-0.31,20.0
73.16,-8.758,1.405,25.0
73.267,-8.781,1.015,21.0
84.863,-10.181,0.722,5.0
51.444,-6.179,0.157,24.0
42.122,-5.065,-0.096,17.0
35.856,-4.317,-0.274,21.0
73.344,-8.83,1.49,10.0
73.29,-8.832,1.096,9.0
90.293,-10.892,0.868,11.0
65.85,-7.952,0.273,5.0
45.559,-5.507,-0.054,19.0
37.052,-4.484,-0.242,15.0
73.437,-8.888,1.574,10.0
73.486,-8.902,1.181,14.0
100.86,-12.229,1.082,7.0
63.217,-7.672,0.333,2.0
46.021,-5.591,-0.003,20.0
37.916,-4.611,-0.205,25.0
73.295,-8.914,1.653,14.0
73.617,-8.961,1.266,13.0
107.635,-13.113,1.276,9.0
83.618,-10.195,0.535,11.0
47.091,-5.747,0.049,20.0
38.571,-4.711,-0.165,14.0
72.967,-8.914,1.728,30.0
73.609,-8.999,1.35,2.0
73.232,-8.959,0.951,18.0
84.891,-10.394,0.64,7.0
0.0,0.0,0.0,0.0
0.0,0.0,0.0,0.0
72.918,-8.944,1.811,16.0
76.73,-9.418,1.495,9.0
73.424,-9.018,1.037,24.0
90.669,-11.144,0.787,3.0
52.329,-6.436,0.175,11.0
0.0,0.0,0.0,0.0
72.975,-8.984,1.897,8.0
76.722,-9.451,1.583,7.0
73.565,-9.067,1.125,19.0
93.99,-11.592,0.926,6.0
54.547,-6.732,0.245,1.0
0.0,0.0,0.0,0.0
75.169,-9.285,2.041,20.0
76.657,-9.473,1.671,9.0
76.689,-9.482,1.261,14.0
73.236,-9.06,0.805,20.0
66.878,-8.278,0.378,7.0
46.568,-5.767,0.014,21.0
75.19,-9.315,2.128,9.0
72.967,-9.043,1.674,10.0
76.669,-9.505,1.349,25.0
73.221,-9.082,0.89,12.0
83.628,-10.378,0.569,6.0
47.227,-5.864,0.069,9.0
75.218,-9.342,2.216,9.0
76.687,-9.527,1.849,14.0
76.662,-9.527,1.438,26.0
76.632,-9.527,1.019,18.0
76.687,-9.537,0.61,6.0
0.0,0.0,0.0,0.0
78.977,-9.83,2.419,27.0
75.156,-9.356,1.899,8.0
76.663,-9.546,1.527,24.0
76.614,-9.543,1.108,17.0
76.639,-9.549,0.699,16.0
52.482,-6.541,0.198,4.0
78.857,-9.832,2.507,31.0
75.276,-9.387,1.99,17.0
76.65,-9.56,1.616,17.0
76.631,-9.559,1.197,21.0
76.618,-9.56,0.789,20.0
76.648,-9.566,0.378,3.0
78.706,-9.827,2.593,24.0
75.369,-9.411,2.08,9.0
76.69,-9.576,1.706,12.0
76.619,-9.569,1.286,22.0
76.618,-9.57,0.877,18.0
76.617,-9.572,0.468,11.0
75.039,-9.379,2.56,8.0
75.634,-9.453,2.176,12.0
76.733,-9.59,1.796,9.0
76.637,-9.578,1.376,21.0
76.625,-9.577,0.966,21.0
76.612,-9.577,0.556,19.0
75.036,-9.384,2.646,23.0
75.741,-9.471,2.266,12.0
75.467,-9.436,1.854,9.0
76.636,-9.582,1.464,18.0
76.594,-9.576,1.054,18.0
76.596,-9.577,0.645,21.0
75.122,-9.398,2.737,23.0
78.762,-9.851,2.447,24.0
75.327,-9.42,1.937,15.0
76.65,-9.584,1.553,13.0
76.617,-9.579,1.143,20.0
76.615,-9.578,0.732,21.0
75.31,-9.42,2.831,22.0
78.667,-9.837,2.536,30.0
75.345,-9.419,2.024,13.0
76.674,-9.584,1.642,12.0
76.609,-9.574,1.229,20.0
76.614,-9.573,0.82,20.0
75.348,-9.42,2.918,20.0
78.612,-9.825,2.622,15.0
75.512,-9.434,2.115,10.0
76.688,-9.578,1.728,11.0
76.652,-9.572,1.316,23.0
76.63,-9.566,0.907,17.0
75.408,-9.42,3.005,12.0
75.056,-9.372,2.589,15.0
79.169,-9.881,2.306,14.0
76.679,-9.567,1.815,12.0
76.622,-9.556,1.403,23.0
76.619,-9.553,0.992,17.0
75.412,-9.409,3.091,11.0
75.087,-9.364,2.674,35.0
78.976,-9.844,2.389,27.0
0.0,0.0,0.0,0.0
76.644,-9.545,1.488,23.0
76.661,-9.543,1.078,19.0
75.456,-9.399,3.178,19.0
75.279,-9.372,2.766,28.0
78.93,-9.821,2.476,25.0
75.179,-9.349,1.947,21.0
76.661,-9.528,1.575,21.0
76.655,-9.523,1.164,19.0
0.0,0.0,0.0,0.0
0.0,0.0,0.0,0.0
75.297,-9.349,2.446,13.0
75.081,-9.316,2.028,25.0
76.685,-9.51,1.66,11.0
76.678,-9.503,1.249,18.0
73.948,-9.172,3.278,14.0
73.735,-9.139,2.873,15.0
75.213,-9.315,2.526,37.0
0.0,0.0,0.0,0.0
72.917,-9.018,1.658,19.0
76.676,-9.477,1.332,16.0
0.0,0.0,0.0,0.0
73.772,-9.118,2.955,10.0
75.093,-9.273,2.604,34.0
76.699,-9.464,2.239,16.0
72.948,-8.995,1.737,21.0
76.702,-9.451,1.416,10.0
73.897,-9.113,3.436,10.0
75.525,-9.305,3.106,20.0
75.276,-9.266,2.69,27.0
76.709,-9.434,2.321,15.0
72.918,-8.96,1.815,12.0
76.757,-9.425,1.498,8.0
73.728,-9.06,3.508,29.0
75.761,-9.301,3.196,12.0
75.41,-9.249,2.775,28.0
75.001,-9.19,2.349,9.0
72.975,-8.933,1.893,5.0
76.766,-9.389,1.58,4.0
0.0,0.0,0.0,0.0
74.072,-9.057,3.204,6.0
0.0,0.0,0.0,0.0
75.226,-9.179,2.435,22.0
92.858,-11.32,2.506,6.0
73.439,-8.944,1.587,14.0
72.242,-8.807,3.588,17.0
74.018,-9.012,3.277,9.0
75.517,-9.184,2.936,11.0
75.419,-9.163,2.517,25.0
72.858,-8.842,2.04,11.0
73.425,-8.901,1.661,6.0
72.421,-8.788,3.67,13.0
73.909,-8.957,3.347,17.0
75.818,-9.178,3.024,10.0
75.325,-9.107,2.589,10.0
72.907,-8.805,2.113,10.0
73.324,-8.845,1.731,6.0
72.763,-8.786,3.76,22.0
73.597,-8.875,3.405,35.0
73.926,-8.902,3.022,9.0
78.585,-9.452,2.779,3.0
78.769,-9.462,2.361,8.0
73.136,-8.775,1.798,6.0
73.066,-8.776,3.847,28.0
73.457,-8.81,3.47,32.0
73.946,-8.856,3.094,13.0
78.419,-9.379,2.849,9.0
75.026,-8.962,2.321,14.0
73.083,-8.719,1.866,17.0
72.799,-8.694,3.902,9.0
0.0,0.0,0.0,0.0
73.561,-8.759,3.147,29.0
75.415,-8.967,2.811,10.0
75.12,-8.919,2.393,14.0
73.258,-8.686,1.939,10.0
69.969,-8.305,3.817,9.0
73.04,-8.656,3.588,31.0
73.709,-8.722,3.221,30.0
73.192,-8.647,2.795,19.0
78.552,-9.267,2.575,14.0
86.927,-10.24,2.38,8.0
70.082,-8.264,3.886,18.0
0.0,0.0,0.0,0.0
73.569,-8.647,3.282,45.0
73.234,-8.594,2.863,15.0
74.434,-8.721,2.507,11.0
86.91,-10.167,2.458,12.0
70.076,-8.207,3.949,15.0
72.057,-8.424,3.669,5.0
73.386,-8.565,3.339,36.0
72.895,-8.493,2.914,11.0
74.581,-8.676,2.577,11.0
86.838,-10.086,2.53,11.0
0.0,0.0,0.0,0.0
71.932,-8.348,3.724,16.0
73.289,-8.49,3.396,31.0
73.092,-8.453,2.983,32.0
72.683,-8.391,2.573,18.0
74.949,-8.638,2.247,9.0
71.794,-8.283,4.168,24.0
72.062,-8.298,3.792,8.0
73.254,-8.42,3.456,41.0
73.172,-8.395,3.047,17.0
72.774,-8.334,2.636,32.0
75.174,-8.594,2.315,41.0
71.708,-8.207,4.222,21.0
72.235,-8.251,3.86,13.0
73.228,-8.348,3.514,31.0
73.44,-8.356,3.117,13.0
72.833,-8.272,2.695,16.0
75.414,-8.549,2.382,26.0
69.67,-7.906,4.157,18.0
72.363,-8.195,3.923,12.0
0.0,0.0,0.0,0.0
72.677,-8.197,3.141,14.0
72.955,-8.213,2.756,16.0
75.225,-8.452,2.434,9.0
33.204,-3.735,2.006,45.0
33.203,-3.727,1.825,40.0
33.191,-3.718,1.643,35.0
33.196,-3.71,1.459,24.0
33.192,-3.702,1.278,6.0
33.205,-3.696,1.098,1.0
33.207,-3.701,2.031,83.0
33.199,-3.691,1.849,79.0
33.182,-3.682,1.666,80.0
33.17,-3.672,1.482,79.0
33.175,-3.665,1.301,74.0
33.162,-3.656,1.12,63.0
33.199,-3.664,2.054,75.0
33.194,-3.655,1.872,76.0
33.172,-3.644,1.689,79.0
33.17,-3.636,1.505,82.0
33.164,-3.627,1.323,78.0
33.154,-3.618,1.142,79.0
8.96,-0.435,-0.908,0.0
8.584,-0.418,-0.917,0.0
8.262,-0.404,-0.928,0.0
7.912,-0.389,-0.933,0.0
7.622,-0.376,-0.94,0.0
7.342,-0.363,-0.946,0.0
9.093,-0.449,-0.914,0.0
0.0,0.0,0.0,0.0
8.296,-0.413,-0.924,0.0
7.924,-0.396,-0.927,0.0
7.667,-0.384,-0.939,0.0
7.36,-0.37,-0.942,0.0
9.072,-0.456,-0.904,0.0
0.0,0.0,0.0,0.0
8.33,-0.421,-0.921,0.0
7.952,-0.404,-0.923,0.0
7.706,-0.393,-0.937,0.0
7.421,-0.38,-0.943,0.0
9.172,-0.468,-0.906,0.0
8.767,-0.449,-0.913,0.0
8.423,-0.433,-0.923,0.0
8.092,-0.417,-0.932,0.0
7.799,-0.404,-0.941,0.0
7.502,-0.389,-0.946,0.0
9.285,-0.481,-0.908,0.0
8.893,-0.462,-0.918,0.0
8.456,-0.441,-0.919,0.0
8.127,-0.425,-0.928,0.0
7.832,-0.411,-0.937,0.0
7.495,-0.395,-0.938,0.0
9.348,-0.491,-0.905,0.0
8.967,-0.473,-0.917,0.0
8.521,-0.451,-0.918,0.0
8.161,-0.433,-0.924,0.0
7.911,-0.421,-0.939,0.0
7.584,-0.405,-0.942,0.0
9.446,-0.503,-0.905,0.0
9.008,-0.481,-0.912,0.0
8.621,-0.462,-0.919,0.0
8.268,-0.445,-0.928,0.0
7.934,-0.428,-0.933,0.0
7.594,-0.411,-0.935,0.0
9.503,-0.513,-0.901,0.0
9.084,-0.492,-0.91,0.0
8.7,-0.472,-0.919,0.0
8.289,-0.451,-0.921,0.0
8.02,-0.438,-0.935,0.0
7.702,-0.422,-0.94,0.0
9.627,-0.526,-0.902,0.0
9.125,-0.5,-0.904,0.0
0.0,0.0,0.0,0.0
8.388,-0.462,-0.923,0.0
8.094,-0.447,-0.934,0.0
7.758,-0.43,-0.938,0.0
9.709,-0.536,-0.899,0.0
9.29,-0.515,-0.91,0.0
8.916,-0.495,-0.922,0.0
8.475,-0.472,-0.923,0.0
8.081,-0.451,-0.924,0.0
7.866,-0.44,-0.942,0.0
9.787,-0.547,-0.895,0.0
9.379,-0.525,-0.908,0.0
8.976,-0.504,-0.917,0.0
0.0,0.0,0.0,0.0
8.231,-0.464,-0.931,0.0
7.906,-0.447,-0.937,0.0
9.874,-0.557,-0.891,0.0
9.447,-0.534,-0.903,0.0
9.039,-0.512,-0.913,0.0
0.0,0.0,0.0,0.0
8.261,-0.471,-0.925,0.0
7.96,-0.455,-0.934,0.0
10.004,-0.57,-0.891,0.0
9.58,-0.547,-0.905,0.0
9.14,-0.523,-0.912,0.0
0.0,0.0,0.0,0.0
8.377,-0.481,-0.927,0.0
8.018,-0.462,-0.931,0.0
10.14,-0.583,-0.89,0.0
9.697,-0.558,-0.903,0.0
9.198,-0.531,-0.906,0.0
8.85,-0.512,-0.92,0.0
8.466,-0.491,-0.926,0.0
8.132,-0.472,-0.934,0.0
10.236,-0.593,-0.886,0.0
9.772,-0.567,-0.898,0.0
9.325,-0.542,-0.907,0.0
8.983,-0.523,-0.923,0.0
8.592,-0.502,-0.929,0.0
8.168,-0.478,-0.927,0.0
10.37,-0.605,-0.884,0.0
9.86,-0.576,-0.893,0.0
9.482,-0.555,-0.91,0.0
9.025,-0.529,-0.915,0.0
8.659,-0.509,-0.925,0.0
8.291,-0.488,-0.93,0.0
10.511,-0.617,-0.882,0.0
10.006,-0.589,-0.893,0.0
9.588,-0.565,-0.907,0.0
9.144,-0.54,-0.915,0.0
8.773,-0.519,-0.925,0.0
8.354,-0.495,-0.925,0.0
10.642,-0.629,-0.879,0.0
10.149,-0.601,-0.892,0.0
9.694,-0.575,-0.904,0.0
9.228,-0.548,-0.911,0.0
8.863,-0.527,-0.922,0.0
8.441,-0.503,-0.923,0.0
10.858,-0.645,-0.882,0.0
10.27,-0.611,-0.888,0.0
9.781,-0.583,-0.898,0.0
9.35,-0.558,-0.91,0.0
8.962,-0.536,-0.92,0.0
8.574,-0.513,-0.926,0.0
10.974,-0.655,-0.876,0.0
10.385,-0.621,-0.884,0.0
9.904,-0.593,-0.896,0.0
9.434,-0.565,-0.904,0.0
9.051,-0.543,-0.916,0.0
8.644,-0.52,-0.921,0.0
11.094,-0.665,-0.869,0.0
10.562,-0.634,-0.884,0.0
10.046,-0.604,-0.894,0.0
9.613,-0.578,-0.908,0.0
9.155,-0.552,-0.913,0.0
8.768,-0.529,-0.921,0.0
11.276,-0.678,-0.867,0.0
10.726,-0.646,-0.882,0.0
10.189,-0.614,-0.892,0.0
9.708,-0.586,-0.902,0.0
9.29,-0.561,-0.913,0.0
8.811,-0.533,-0.913,0.0
11.458,-0.691,-0.864,0.0
10.921,-0.659,-0.881,0.0
10.31,-0.623,-0.887,0.0
9.822,-0.594,-0.898,0.0
9.394,-0.569,-0.909,0.0
9.016,-0.547,-0.92,0.0
11.668,-0.705,-0.862,0.0
11.029,-0.667,-0.873,0.0
10.467,-0.634,-0.884,0.0
9.968,-0.604,-0.896,0.0
9.564,-0.58,-0.91,0.0
9.123,-0.554,-0.917,0.0
11.861,-0.718,-0.859,0.0
11.182,-0.677,-0.869,0.0
10.652,-0.646,-0.884,0.0
10.134,-0.615,-0.895,0.0
9.67,-0.587,-0.906,0.0
9.249,-0.562,-0.915,0.0
12.107,-0.734,-0.858,0.0
11.391,-0.691,-0.867,0.0
10.838,-0.657,-0.882,0.0
10.268,-0.623,-0.891,0.0
9.788,-0.595,-0.901,0.0
9.354,-0.569,-0.911,0.0
12.353,-0.748,-0.856,0.0
11.576,-0.702,-0.863,0.0
10.973,-0.666,-0.876,0.0
10.412,-0.632,-0.887,0.0
9.923,-0.602,-0.898,0.0
9.52,-0.578,-0.912,0.0
12.537,-0.759,-0.849,0.0
11.814,-0.716,-0.862,0.0
11.139,-0.675,-0.872,0.0
10.574,-0.641,-0.884,0.0
10.111,-0.613,-0.899,0.0
9.63,-0.584,-0.907,0.0
20.046,-1.213,-1.327,0.0
12.05,-0.729,-0.861,0.0
11.301,-0.684,-0.866,0.0
10.762,-0.652,-0.883,0.0
10.229,-0.619,-0.893,0.0
9.774,-0.592,-0.905,0.0
13.2,-0.797,-0.852,0.0
12.281,-0.742,-0.857,0.0
11.531,-0.696,-0.866,0.0
10.939,-0.661,-0.88,0.0
10.381,-0.627,-0.89,0.0
9.891,-0.598,-0.9,0.0
13.401,-0.807,-0.843,0.0
12.504,-0.753,-0.853,0.0
11.751,-0.708,-0.863,0.0
11.093,-0.668,-0.874,0.0
10.556,-0.636,-0.887,0.0
10.062,-0.606,-0.899,0.0
13.682,-0.821,-0.839,0.0
20.007,-1.201,-1.332,0.0
11.998,-0.72,-0.861,0.0
11.289,-0.677,-0.871,0.0
10.75,-0.645,-0.886,0.0
10.198,-0.612,-0.894,0.0
14.007,-0.837,-0.836,0.0
19.965,-1.194,-1.296,0.0
12.23,-0.731,-0.858,0.0
11.47,-0.685,-0.866,0.0
10.921,-0.652,-0.882,0.0
10.364,-0.619,-0.892,0.0
14.325,-0.852,-0.831,0.0
13.407,-0.797,-0.848,0.0
12.445,-0.74,-0.852,0.0
11.703,-0.695,-0.864,0.0
11.058,-0.657,-0.875,0.0
10.545,-0.626,-0.89,0.0
14.618,-0.865,-0.824,0.0
13.627,-0.806,-0.839,0.0
19.971,-1.181,-1.335,0.0
11.938,-0.705,-0.862,0.0
11.259,-0.665,-0.872,0.0
10.688,-0.631,-0.884,0.0
15.001,-0.883,-0.821,0.0
13.992,-0.822,-0.839,0.0
13.097,-0.769,-0.854,0.0
12.218,-0.717,-0.862,0.0
11.462,-0.672,-0.868,0.0
10.909,-0.639,-0.884,0.0
15.305,-0.894,-0.812,0.0
14.302,-0.835,-0.833,0.0
13.399,-0.781,-0.851,0.0
12.412,-0.723,-0.854,0.0
11.706,-0.682,-0.867,0.0
11.04,-0.642,-0.876,0.0
15.723,-0.912,-0.808,0.0
14.569,-0.844,-0.825,0.0
13.662,-0.79,-0.845,0.0
12.657,-0.732,-0.85,0.0
11.925,-0.689,-0.863,0.0
11.235,-0.648,-0.872,0.0
16.208,-0.932,-0.805,0.0
14.931,-0.857,-0.82,0.0
13.922,-0.799,-0.837,0.0
13.021,-0.746,-0.852,0.0
12.195,-0.698,-0.862,0.0
11.461,-0.655,-0.87,0.0
16.642,-0.948,-0.799,0.0
15.237,-0.867,-0.811,0.0
14.249,-0.81,-0.833,0.0
13.333,-0.756,-0.85,0.0
12.425,-0.704,-0.857,0.0
11.681,-0.661,-0.867,0.0
17.04,-0.961,-0.789,0.0
15.71,-0.885,-0.809,0.0
14.552,-0.818,-0.826,0.0
13.594,-0.763,-0.843,0.0
12.84,-0.72,-0.864,0.0
11.938,-0.668,-0.866,0.0
17.499,-0.976,-0.78,0.0
16.196,-0.902,-0.807,0.0
14.954,-0.831,-0.823,0.0
13.948,-0.774,-0.842,0.0
13.108,-0.726,-0.859,0.0
12.17,-0.673,-0.862,0.0
18.025,-0.994,-0.773,0.0
16.62,-0.914,-0.799,0.0
15.211,-0.835,-0.811,0.0
14.211,-0.779,-0.833,0.0
13.393,-0.733,-0.855,0.0
12.413,-0.678,-0.858,0.0
18.481,-1.006,-0.762,0.0
17.053,-0.926,-0.791,0.0
15.734,-0.853,-0.812,0.0
14.535,-0.786,-0.828,0.0
13.628,-0.736,-0.847,0.0
12.774,-0.688,-0.861,0.0
19.156,-1.028,-0.757,0.0
17.415,-0.933,-0.779,0.0
16.149,-0.863,-0.806,0.0
14.873,-0.793,-0.822,0.0
13.953,-0.742,-0.844,0.0
19.986,-1.061,-1.313,0.0
19.851,-1.05,-0.751,2.0
20.085,-1.06,-0.864,0.0
16.573,-0.872,-0.8,0.0
20.063,-1.054,-1.075,0.0
14.219,-0.745,-0.836,0.0
13.359,-0.698,-0.855,0.0
19.984,-1.041,-0.722,5.0
20.045,-1.041,-0.829,0.0
20.059,-1.039,-0.934,0.0
19.989,-1.033,-1.037,0.0
14.541,-0.75,-0.83,0.0
13.61,-0.7,-0.848,0.0
20.041,-1.027,-0.691,11.0
19.76,-1.01,-0.784,0.0
20.065,-1.022,-0.901,0.0
20.045,-1.019,-1.007,0.0
14.834,-0.752,-0.822,0.0
13.859,-0.7,-0.841,0.0
20.078,-1.011,-0.659,16.0
19.811,-0.994,-0.753,1.0
18.082,-0.905,-0.782,0.0
20.067,-1.001,-0.974,0.0
15.279,-0.76,-0.822,0.0
14.228,-0.706,-0.839,0.0
20.088,-0.992,-0.626,8.0
19.923,-0.981,-0.724,5.0
20.096,-0.987,-0.835,0.0
20.122,-0.985,-0.943,0.0
20.054,-0.978,-1.045,0.0
14.558,-0.708,-0.835,0.0
20.085,-0.972,-0.592,1.0
20.007,-0.965,-0.694,3.0
19.326,-0.929,-0.771,0.0
17.433,-0.836,-0.788,0.0
20.024,-0.956,-1.01,0.0
14.841,-0.706,-0.826,0.0
24.639,-1.168,-0.686,0.0
21.543,-1.018,-0.712,0.0
19.766,-0.93,-0.756,2.0
17.839,-0.837,-0.778,0.0
16.471,-0.769,-0.804,0.0
15.26,-0.71,-0.824,0.0
25.811,-1.196,-0.676,0.0
0.0,0.0,0.0,0.0
20.024,-0.921,-0.733,0.0
18.409,-0.843,-0.772,0.0
16.808,-0.767,-0.793,0.0
15.623,-0.71,-0.818,0.0
26.711,-1.209,-0.656,0.0
23.513,-1.06,-0.7,0.0
21.153,-0.949,-0.74,0.0
19.02,-0.85,-0.767,0.0
17.484,-0.778,-0.796,0.0
15.879,-0.703,-0.806,0.0
0.0,0.0,0.0,0.0
24.524,-1.077,-0.69,0.0
21.81,-0.954,-0.728,0.0
19.428,-0.846,-0.752,0.0
17.799,-0.771,-0.782,0.0
16.4,-0.707,-0.806,0.0
0.0,0.0,0.0,0.0
25.093,-1.073,-0.666,0.0
22.254,-0.947,-0.707,0.0
20.175,-0.854,-0.748,0.0
18.385,-0.774,-0.778,0.0
16.802,-0.704,-0.799,0.0
30.783,-1.285,-0.607,0.0
26.518,-1.101,-0.662,0.0
23.256,-0.961,-0.702,0.0
20.76,-0.853,-0.737,0.0
18.837,-0.77,-0.767,0.0
17.308,-0.704,-0.795,0.0
0.0,0.0,0.0,0.0
0.0,0.0,0.0,0.0
24.176,-0.968,-0.691,0.0
21.53,-0.858,-0.73,0.0
19.314,-0.765,-0.756,0.0
17.693,-0.697,-0.785,0.0
0.0,0.0,0.0,0.0
0.0,0.0,0.0,0.0
25.147,-0.975,-0.68,0.0
22.507,-0.868,-0.729,0.0
20.081,-0.77,-0.756,0.0
18.119,-0.69,-0.776,0.0
0.0,0.0,0.0,0.0
30.515,-1.15,-0.619,0.0
26.377,-0.988,-0.673,0.0
22.882,-0.852,-0.706,0.0
20.558,-0.76,-0.741,0.0
18.593,-0.683,-0.768,0.0
38.134,-1.394,-0.516,0.0
0.0,0.0,0.0,0.0
27.304,-0.985,-0.655,0.0
23.722,-0.85,-0.696,0.0
21.235,-0.756,-0.734,0.0
19.211,-0.679,-0.765,0.0
41.452,-1.458,-0.499,0.0
33.619,-1.174,-0.58,0.0
28.328,-0.982,-0.637,0.0
24.707,-0.851,-0.687,0.0
21.883,-0.748,-0.724,0.0
19.646,-0.667,-0.753,0.0
41.551,-1.402,-0.437,0.0
0.0,0.0,0.0,0.0
29.552,-0.982,-0.62,0.0
25.441,-0.839,-0.67,0.0
21.947,-0.719,-0.693,1.0
20.175,-0.656,-0.743,0.0
44.359,-1.433,-0.401,0.0
0.0,0.0,0.0,0.0
30.861,-0.981,-0.602,0.0
26.596,-0.838,-0.661,0.0
23.234,-0.726,-0.699,0.0
20.938,-0.649,-0.74,0.0
119.742,-0.394,1.452,12.0
114.446,-0.339,0.778,43.0
0.0,0.0,0.0,0.0
0.0,0.0,0.0,0.0
45.521,-0.091,-0.423,1.0
37.177,-0.062,-0.544,0.0
111.14,-0.151,1.457,7.0
111.209,-0.116,0.864,7.0
95.292,-0.069,0.232,2.0
0.0,0.0,0.0,0.0
45.812,-0.003,-0.382,1.0
0.0,0.0,0.0,0.0
111.142,0.063,1.563,14.0
0.0,0.0,0.0,0.0
93.797,0.115,0.317,1.0
0.0,0.0,0.0,0.0
49.561,0.092,-0.367,0.0
39.913,0.087,-0.51,0.0
119.866,0.301,1.795,18.0
119.733,0.341,1.153,13.0
94.636,0.301,0.405,4.0
0.0,0.0,0.0,0.0
50.11,0.191,-0.327,0.0
42.9,0.178,-0.51,0.0
101.632,0.455,1.611,1.0
111.087,0.534,1.166,7.0
104.444,0.537,0.537,2.0
0.0,0.0,0.0,0.0
0.0,0.0,0.0,0.0
42.672,0.261,-0.471,1.0
100.016,0.649,1.672,5.0
104.906,0.715,1.19,29.0
98.159,0.7,0.586,7.0
84.346,0.628,0.042,1.0
0.0,0.0,0.0,0.0
42.839,0.347,-0.438,0.0
104.738,0.887,1.835,41.0
104.734,0.922,1.272,20.0
98.401,0.898,0.666,15.0
81.948,0.774,0.106,2.0
0.0,0.0,0.0,0.0
46.091,0.466,-0.435,0.0
98.618,1.033,1.804,27.0
98.599,1.065,1.273,31.0
98.408,1.096,0.741,13.0
81.23,0.93,0.166,4.0
0.0,0.0,0.0,0.0
0.0,0.0,0.0,0.0
98.564,1.23,1.875,32.0
98.497,1.261,1.343,30.0
98.502,1.294,0.813,20.0
80.798,1.088,0.223,7.0
0.0,0.0,0.0,0.0
47.147,0.665,-0.378,0.0
119.943,1.737,2.365,73.0
92.016,1.364,1.318,11.0
91.977,1.394,0.822,27.0
81.037,1.255,0.279,8.0
0.0,0.0,0.0,0.0
0.0,0.0,0.0,0.0
91.892,1.519,1.874,39.0
91.881,1.549,1.377,46.0
91.869,1.58,0.881,39.0
84.571,1.483,0.345,11.0
72.506,1.295,-0.095,4.0
0.0,0.0,0.0,0.0
91.831,1.709,1.931,2.0
87.79,1.662,1.371,6.0
91.994,1.771,0.939,4.0
84.852,1.661,0.398,6.0
70.389,1.401,-0.05,4.0
0.0,0.0,0.0,0.0
85.345,1.761,1.844,33.0
85.288,1.788,1.381,39.0
85.254,1.815,0.919,38.0
84.855,1.835,0.447,12.0
68.832,1.511,-0.01,2.0
0.0,0.0,0.0,0.0
85.232,1.934,1.889,38.0
85.248,1.961,1.427,38.0
85.252,1.99,0.965,35.0
84.956,2.011,0.492,14.0
67.134,1.611,0.024,3.0
55.256,1.344,-0.279,0.0
85.371,2.113,1.936,10.0
119.988,3.009,2.07,9.0
78.981,2.006,0.933,35.0
78.859,2.028,0.495,18.0
71.138,1.853,0.06,7.0
0.0,0.0,0.0,0.0
78.851,2.114,1.826,35.0
78.859,2.139,1.397,31.0
77.819,2.135,0.955,7.0
78.803,2.189,0.531,18.0
0.0,0.0,0.0,0.0
57.234,1.626,-0.236,2.0
76.611,2.211,1.808,9.0
75.597,2.205,1.372,5.0
74.931,2.21,0.951,7.0
78.873,2.352,0.564,16.0
70.879,2.136,0.121,9.0
61.816,1.883,-0.231,4.0
74.408,2.299,1.785,7.0
74.083,2.313,1.373,0.0
72.477,2.286,0.948,33.0
72.324,2.304,0.544,39.0
71.283,2.294,0.148,9.0
60.321,1.962,-0.203,6.0
72.392,2.387,1.763,30.0
72.386,2.41,1.367,38.0
72.354,2.432,0.972,37.0
72.329,2.454,0.569,28.0
71.389,2.446,0.172,8.0
58.972,2.039,-0.179,6.0
72.378,2.536,1.786,29.0
72.379,2.559,1.391,30.0
72.382,2.581,0.995,28.0
72.365,2.604,0.592,21.0
65.914,2.393,0.179,6.0
58.595,2.146,-0.161,5.0
120.057,4.454,2.998,27.0
193.706,7.246,3.777,22.0
120.041,4.528,1.683,8.0
119.975,4.563,1.013,19.0
65.853,2.525,0.195,13.0
58.639,2.267,-0.146,5.0
120.066,4.7,3.028,15.0
120.123,4.738,2.37,18.0
120.146,4.776,1.712,11.0
66.171,2.652,0.573,23.0
65.845,2.659,0.209,15.0
58.606,2.385,-0.134,7.0
66.132,2.723,1.681,25.0
66.145,2.744,1.318,28.0
63.599,2.659,0.919,7.0
62.552,2.635,0.554,8.0
65.864,2.795,0.222,13.0
58.538,2.502,-0.124,7.0
63.709,2.755,1.631,13.0
62.418,2.719,1.255,5.0
61.042,2.677,0.891,12.0
66.066,2.918,0.595,31.0
65.914,2.933,0.231,15.0
58.507,2.621,-0.115,5.0
61.612,2.79,1.585,7.0
66.172,3.018,1.338,15.0
66.176,3.038,0.974,14.0
66.203,3.06,0.604,4.0
66.037,3.072,0.239,10.0
58.487,2.74,-0.109,6.0
120.136,5.689,3.103,22.0
120.085,5.723,2.44,7.0
120.112,5.76,1.778,6.0
119.992,5.791,1.104,15.0
65.997,3.205,0.243,7.0
52.444,2.563,-0.095,16.0
120.138,5.932,3.11,20.0
120.16,5.97,2.448,13.0
124.805,6.239,1.854,103.0
120.025,6.037,1.109,19.0
59.456,3.008,0.221,24.0
52.22,2.658,-0.093,24.0
59.455,3.058,1.54,27.0
59.441,3.075,1.211,29.0
59.403,3.09,0.882,33.0
59.361,3.106,0.548,33.0
59.315,3.121,0.22,22.0
51.946,2.75,-0.093,24.0
59.396,3.175,1.538,36.0
59.37,3.19,1.208,32.0
59.351,3.207,0.88,30.0
59.34,3.225,0.545,30.0
59.295,3.24,0.217,16.0
51.657,2.838,-0.096,21.0
59.501,3.3,1.537,17.0
59.441,3.313,1.206,21.0
59.431,3.33,0.877,18.0
59.42,3.346,0.542,21.0
59.386,3.362,0.212,14.0
51.501,2.931,-0.1,21.0
116.007,6.664,2.985,9.0
115.722,6.681,2.337,9.0
115.276,6.687,1.688,7.0
114.903,6.699,1.034,9.0
59.195,3.469,0.204,4.0
51.41,3.027,-0.106,20.0
0.0,0.0,0.0,0.0
113.713,6.788,2.28,7.0
113.339,6.799,1.644,7.0
111.112,6.695,0.983,17.0
52.426,3.174,0.173,19.0
51.326,3.122,-0.115,21.0
111.069,6.816,2.824,80.0
111.123,6.851,2.208,46.0
111.235,6.89,1.592,15.0
111.081,6.911,0.962,7.0
52.334,3.271,0.162,15.0
51.238,3.217,-0.125,18.0
111.063,7.034,2.801,1.0
0.0,0.0,0.0,0.0
50.358,3.218,0.71,3.0
49.912,3.203,0.421,4.0
52.145,3.361,0.149,14.0
51.276,3.32,-0.138,7.0
50.721,3.311,1.267,13.0
49.945,3.273,0.969,5.0
49.233,3.24,0.681,2.0
49.019,3.239,0.4,4.0
52.048,3.453,0.135,13.0
46.032,3.067,-0.136,16.0
49.596,3.331,1.225,6.0
49.129,3.312,0.939,16.0
48.544,3.286,0.657,3.0
48.501,3.297,0.381,6.0
51.995,3.548,0.119,21.0
45.819,3.14,-0.15,20.0
48.859,3.374,1.191,7.0
48.309,3.349,0.908,5.0
48.08,3.346,0.635,21.0
48.069,3.357,0.362,8.0
51.993,3.646,0.101,16.0
45.471,3.201,-0.164,19.0
48.275,3.424,1.16,4.0
47.811,3.403,0.882,16.0
47.754,3.411,0.614,19.0
47.694,3.419,0.342,60.0
51.96,3.739,0.082,16.0
45.263,3.269,-0.181,19.0
47.457,3.452,1.122,17.0
47.506,3.468,0.858,66.0
101.72,7.452,1.267,5.0
101.445,7.459,0.686,2.0
51.945,3.833,0.061,10.0
45.011,3.332,-0.198,19.0
100.913,7.525,2.345,7.0
100.767,7.539,1.778,8.0
100.541,7.546,1.21,9.0
100.375,7.56,0.636,10.0
46.062,3.481,0.034,10.0
44.723,3.391,-0.217,19.0
99.815,7.623,2.274,9.0
99.66,7.635,1.712,8.0
99.479,7.644,1.151,10.0
98.94,7.629,0.58,13.0
45.715,3.536,0.012,19.0
44.383,3.444,-0.236,19.0
98.842,7.723,2.204,11.0
98.655,7.732,1.647,9.0
45.944,3.612,0.509,4.0
45.879,3.618,0.246,32.0
45.572,3.605,-0.01,24.0
0.0,0.0,0.0,0.0
45.877,3.664,0.999,37.0
45.848,3.673,0.741,40.0
45.822,3.681,0.483,39.0
45.786,3.689,0.221,28.0
45.444,3.673,-0.035,24.0
0.0,0.0,0.0,0.0
45.807,3.738,0.972,47.0
45.789,3.746,0.715,44.0
45.769,3.756,0.457,39.0
45.731,3.764,0.195,28.0
45.311,3.74,-0.061,27.0
40.631,3.364,-0.283,15.0
45.78,3.814,0.945,40.0
45.769,3.823,0.687,37.0
45.756,3.833,0.429,32.0
45.702,3.839,0.167,20.0
45.2,3.807,-0.088,23.0
40.674,3.436,-0.308,16.0
45.789,3.892,0.917,30.0
45.79,3.902,0.659,26.0
45.786,3.912,0.401,25.0
45.684,3.914,0.138,18.0
45.094,3.873,-0.117,19.0
40.458,3.485,-0.333,16.0
45.891,3.976,0.889,12.0
93.138,8.089,1.279,65.0
45.913,3.997,0.372,8.0
45.808,3.999,0.108,14.0
44.947,3.933,-0.147,19.0
40.223,3.529,-0.358,15.0
93.237,8.228,1.744,15.0
93.063,8.233,1.216,13.0
92.924,8.239,0.689,12.0
45.668,4.059,0.076,9.0
44.517,3.967,-0.176,19.0
39.873,3.562,-0.383,10.0
92.466,8.307,1.664,5.0
92.235,8.305,1.138,9.0
92.127,8.314,0.617,12.0
45.696,4.133,0.043,29.0
43.818,3.973,-0.205,18.0
39.638,3.603,-0.41,7.0
91.634,8.375,1.581,10.0
91.501,8.38,1.062,12.0
91.333,8.384,0.544,10.0
45.578,4.193,0.009,3.0
43.126,3.977,-0.235,18.0
39.524,3.653,-0.438,7.0
90.86,8.442,1.499,11.0
90.697,8.443,0.983,10.0
90.593,8.452,0.469,11.0
45.601,4.264,-0.026,7.0
42.034,3.939,-0.262,19.0
39.427,3.703,-0.468,8.0
90.119,8.508,1.414,11.0
89.975,8.511,0.903,10.0
89.844,8.517,0.393,10.0
45.546,4.326,-0.063,16.0
40.575,3.863,-0.286,16.0
39.349,3.754,-0.5,8.0
89.419,8.572,1.33,12.0
89.292,8.577,0.822,10.0
89.149,8.579,0.315,10.0
45.434,4.381,-0.1,19.0
40.039,3.869,-0.315,15.0
39.29,3.804,-0.532,4.0
88.731,8.632,1.244,13.0
88.616,8.637,0.741,11.0
88.46,8.638,0.238,11.0
45.169,4.419,-0.139,20.0
39.763,3.898,-0.347,21.0
39.303,3.86,-0.566,1.0
88.091,8.693,1.159,12.0
87.95,8.694,0.658,10.0
86.407,8.557,0.155,13.0
0.0,0.0,0.0,0.0
39.435,3.919,-0.379,14.0
34.111,3.397,-0.522,0.0
87.466,8.748,1.072,12.0
87.37,8.754,0.575,11.0
86.981,8.73,0.079,6.0
43.135,4.336,-0.21,18.0
39.19,3.947,-0.413,8.0
33.635,3.394,-0.545,1.0
86.894,8.805,0.985,10.0
86.753,8.805,0.491,11.0
86.452,8.789,0.0,5.0
0.0,0.0,0.0,0.0
39.095,3.988,-0.448,8.0
33.312,3.403,-0.571,1.0
86.272,8.851,0.898,12.0
86.187,8.856,0.407,11.0
69.894,7.193,-0.066,4.0
40.49,4.173,-0.272,16.0
39.053,4.032,-0.485,8.0
32.98,3.411,-0.597,0.0
85.722,8.9,0.81,12.0
85.66,8.906,0.322,10.0
52.286,5.444,-0.1,4.0
39.924,4.164,-0.307,27.0
38.999,4.074,-0.523,8.0
30.656,3.207,-0.585,1.0
84.213,8.844,0.714,37.0
84.192,8.854,0.234,25.0
45.617,4.804,-0.132,4.0
39.576,4.174,-0.343,19.0
38.928,4.112,-0.56,2.0
29.997,3.173,-0.602,0.0
84.168,8.936,0.629,150.0
84.2,8.951,0.15,26.0
45.63,4.857,-0.178,7.0
39.282,4.188,-0.381,15.0
39.0,4.164,-0.6,0.0
29.099,3.111,-0.614,0.0
84.225,9.036,0.543,16.0
76.01,8.165,0.057,5.0
0.0,0.0,0.0,0.0
38.986,4.199,-0.418,12.0
32.444,3.499,-0.533,0.0
28.096,3.034,-0.622,0.0
83.776,9.077,0.454,7.0
80.763,8.761,-0.022,6.0
40.911,4.443,-0.244,16.0
38.884,4.228,-0.457,8.0
31.989,3.483,-0.559,1.0
27.346,2.982,-0.634,0.0
79.902,8.739,0.35,4.0
65.733,7.197,-0.086,6.0
40.325,4.42,-0.283,16.0
38.828,4.262,-0.498,10.0
31.36,3.446,-0.581,1.0
26.675,2.935,-0.646,0.0
81.324,8.975,0.269,11.0
65.738,7.263,-0.157,8.0
39.768,4.398,-0.322,27.0
38.766,4.292,-0.539,5.0
30.322,3.361,-0.594,1.0
25.927,2.878,-0.656,0.0
81.054,9.021,0.181,10.0
45.514,5.07,-0.158,10.0
39.395,4.394,-0.361,15.0
38.719,4.323,-0.58,1.0
29.176,3.262,-0.604,0.0
25.242,2.825,-0.667,0.0
79.999,8.976,0.09,10.0
42.883,4.816,-0.196,12.0
38.959,4.38,-0.4,14.0
0.0,0.0,0.0,0.0
28.376,3.197,-0.619,1.0
24.621,2.777,-0.678,0.0
67.209,7.599,0.0,7.0
41.587,4.706,-0.237,18.0
38.738,4.388,-0.442,8.0
32.143,3.645,-0.554,0.0
27.38,3.108,-0.628,0.0
23.993,2.726,-0.687,0.0
67.006,7.632,-0.074,19.0
40.345,4.599,-0.275,15.0
38.711,4.417,-0.485,10.0
31.005,3.541,-0.569,1.0
26.706,3.053,-0.643,0.0
23.396,2.677,-0.697,0.0
66.806,7.661,-0.15,4.0
39.745,4.561,-0.316,27.0
38.695,4.445,-0.529,9.0
30.343,3.488,-0.592,1.0
26.106,3.004,-0.659,0.0
22.817,2.628,-0.706,0.0
0.0,0.0,0.0,0.0
39.321,4.541,-0.358,16.0
38.661,4.469,-0.573,2.0
29.125,3.369,-0.602,1.0
25.36,2.936,-0.669,0.0
22.228,2.576,-0.714,0.0
42.741,4.962,-0.195,18.0
38.977,4.528,-0.401,14.0
33.485,3.893,-0.536,0.0
28.283,3.291,-0.618,1.0
24.569,2.861,-0.677,0.0
21.577,2.515,-0.718,0.0
40.789,4.761,-0.234,16.0
38.64,4.513,-0.442,8.0
32.496,3.799,-0.558,0.0
27.264,3.189,-0.627,0.0
23.858,2.793,-0.685,0.0
21.059,2.467,-0.725,0.0
40.219,4.719,-0.277,37.0
38.616,4.533,-0.487,9.0
31.204,3.666,-0.572,1.0
26.519,3.117,-0.641,1.0
23.246,2.735,-0.695,0.0
20.489,2.412,-0.73,0.0
39.683,4.678,-0.32,33.0
38.619,4.555,-0.532,9.0
30.343,3.581,-0.592,1.0
25.856,3.053,-0.656,0.0
22.765,2.69,-0.708,0.0
20.049,2.371,-0.738,0.0
39.298,4.652,-0.364,18.0
38.589,4.571,-0.579,1.0
29.868,3.54,-0.619,1.0
25.135,2.981,-0.667,0.0
21.987,2.609,-0.71,0.0
19.653,2.334,-0.747,0.0
38.883,4.621,-0.407,14.0
34.079,4.052,-0.551,0.0
27.961,3.326,-0.613,0.0
24.36,2.9,-0.676,0.0
21.474,2.558,-0.719,0.0
19.229,2.292,-0.754,0.0
38.598,4.603,-0.45,8.0
30.612,3.653,-0.532,0.0
27.158,3.242,-0.628,0.0
23.668,2.827,-0.685,0.0
20.895,2.497,-0.725,0.0
18.696,2.236,-0.756,0.0
38.569,4.614,-0.496,7.0
30.124,3.605,-0.56,8.0
26.335,3.153,-0.64,0.0
23.097,2.767,-0.696,0.0
20.423,2.448,-0.733,0.0
18.356,2.201,-0.764,0.0
38.558,4.625,-0.542,6.0
30.031,3.603,-0.594,8.0
25.684,3.083,-0.655,0.0
22.572,2.711,-0.707,0.0
19.927,2.394,-0.739,0.0
17.919,2.154,-0.767,0.0
38.571,4.637,-0.588,1.0
29.823,3.587,-0.625,2.0
25.04,3.012,-0.669,0.0
21.692,2.611,-0.706,0.0
19.39,2.335,-0.742,0.0
17.544,2.113,-0.772,0.0
30.133,3.63,-0.495,0.0
27.617,3.328,-0.612,0.0
24.228,2.92,-0.676,0.0
21.253,2.562,-0.717,0.0
18.988,2.29,-0.749,0.0
17.229,2.079,-0.779,0.0
30.038,3.624,-0.529,7.0
26.903,3.246,-0.628,1.0
23.611,2.85,-0.687,0.0
20.617,2.489,-0.72,0.0
18.611,2.248,-0.757,0.0
16.943,2.047,-0.786,0.0
29.984,3.621,-0.564,20.0
26.278,3.174,-0.645,1.0
22.943,2.772,-0.695,0.0
20.424,2.468,-0.738,0.0
18.15,2.194,-0.76,0.0
16.537,2.0,-0.787,0.0
29.907,3.615,-0.598,11.0
25.591,3.093,-0.658,0.0
22.458,2.715,-0.706,0.0
19.776,2.391,-0.738,0.0
17.814,2.155,-0.767,0.0
16.312,1.973,-0.796,0.0
29.749,3.597,-0.63,2.0
24.873,3.008,-0.669,0.0
21.734,2.628,-0.71,0.0
19.401,2.347,-0.747,0.0
17.503,2.117,-0.774,0.0
16.029,1.94,-0.801,0.0
27.443,3.318,-0.613,0.0
24.166,2.922,-0.679,0.0
21.195,2.563,-0.716,0.0
18.868,2.282,-0.748,0.0
17.185,2.078,-0.78,0.0
15.628,1.891,-0.799,0.0
26.766,3.235,-0.629,1.0
23.373,2.825,-0.684,0.0
20.595,2.489,-0.72,0.0
18.537,2.24,-0.757,0.0
16.861,2.038,-0.785,0.0
15.438,1.866,-0.808,0.0
26.036,3.144,-0.642,1.0
22.91,2.766,-0.696,0.0
20.329,2.455,-0.735,0.0
18.064,2.181,-0.758,0.0
16.513,1.994,-0.788,0.0
15.265,1.844,-0.816,0.0
25.402,3.064,-0.656,0.0
22.221,2.68,-0.701,0.0
19.722,2.378,-0.735,0.0
17.82,2.149,-0.768,0.0
16.25,1.96,-0.794,0.0
14.985,1.807,-0.818,0.0
24.794,2.986,-0.668,0.0
21.78,2.623,-0.712,0.0
19.312,2.325,-0.741,0.0
17.414,2.097,-0.77,0.0
16.054,1.933,-0.803,0.0
14.72,1.772,-0.82,0.0
24.018,2.887,-0.674,0.0
21.237,2.552,-0.717,0.0
18.907,2.272,-0.747,0.0
17.096,2.054,-0.775,0.0
15.712,1.888,-0.803,0.0
14.51,1.743,-0.825,0.0
23.45,2.812,-0.684,0.0
20.684,2.48,-0.722,0.0
18.511,2.219,-0.752,0.0
16.839,2.018,-0.783,0.0
15.408,1.846,-0.805,0.0
14.276,1.711,-0.827,0.0
22.945,2.744,-0.694,0.0
20.297,2.427,-0.73,0.0
18.329,2.191,-0.764,0.0
16.508,1.973,-0.785,0.0
15.169,1.813,-0.808,0.0
14.082,1.683,-0.831,0.0
22.32,2.662,-0.699,0.0
19.835,2.364,-0.735,0.0
17.872,2.13,-0.764,0.0
