X,Y,Z,Reflectivity
60.535,0.429,3.938,6.0
74.29,0.537,4.445,3.0
81.262,0.599,4.428,12.0
78.696,0.592,3.877,8.0
97.622,0.748,4.3,22.0
45.008,0.346,3.248,13.0
60.551,0.474,4.052,10.0
60.001,0.479,3.699,9.0
80.857,0.658,4.554,5.0
81.319,0.673,4.153,9.0
80.571,0.679,3.694,13.0
44.994,0.381,3.328,7.0
47.85,0.412,3.288,13.0
60.019,0.526,3.809,14.0
78.27,0.698,4.548,19.0
81.463,0.739,4.307,11.0
80.615,0.744,3.839,11.0
41.656,0.386,3.156,15.0
41.585,0.392,2.931,5.0
59.981,0.575,3.913,10.0
78.362,0.763,4.692,5.0
81.42,0.806,4.448,7.0
78.722,0.792,3.888,12.0
41.325,0.418,3.204,13.0
47.753,0.49,3.451,14.0
41.559,0.433,2.784,11.0
59.995,0.636,3.698,18.0
78.514,0.845,4.426,6.0
98.577,1.078,5.04,7.0
41.422,0.455,3.284,54.0
41.317,0.46,3.057,29.0
41.542,0.47,2.855,29.0
60.203,0.691,3.814,16.0
80.173,0.934,4.656,5.0
82.994,0.981,4.384,10.0
41.27,0.49,3.342,44.0
41.229,0.496,3.12,44.0
41.498,0.507,2.922,41.0
60.183,0.745,3.914,26.0
80.549,1.012,4.814,10.0
70.555,0.898,3.844,6.0
41.195,0.527,3.406,45.0
41.014,0.532,3.173,42.0
41.478,0.545,2.99,37.0
67.049,0.893,4.472,24.0
80.534,1.088,4.947,10.0
78.603,1.075,4.413,8.0
40.902,0.562,3.45,46.0
40.856,0.569,3.229,44.0
48.615,0.686,3.584,12.0
41.471,0.592,2.833,4.0
74.152,1.072,4.674,8.0
70.594,1.034,4.077,2.0
41.022,0.604,3.526,38.0
40.936,0.61,3.3,42.0
41.284,0.623,3.109,36.0
41.437,0.633,2.897,38.0
71.828,1.11,4.642,2.0
78.739,1.232,4.672,12.0
40.771,0.641,3.569,46.0
40.856,0.65,3.359,29.0
40.905,0.658,3.145,40.0
41.405,0.674,2.959,38.0
41.484,0.683,2.745,39.0
74.237,1.237,4.519,7.0
40.786,0.683,3.633,45.0
41.028,0.695,3.436,34.0
40.774,0.698,3.198,41.0
41.162,0.713,3.005,38.0
41.465,0.726,2.807,10.0
74.274,1.314,4.634,12.0
40.985,0.729,3.714,41.0
40.911,0.736,3.489,42.0
40.748,0.741,3.257,35.0
40.935,0.752,3.05,42.0
41.343,0.767,2.86,21.0
78.314,1.47,5.002,3.0
40.95,0.773,3.772,38.0
40.818,0.778,3.541,33.0
40.82,0.786,3.323,48.0
40.96,0.797,3.112,41.0
40.989,0.805,2.895,37.0
73.727,1.464,4.815,6.0
40.981,0.818,3.834,38.0
40.793,0.822,3.598,29.0
40.918,0.833,3.389,44.0
41.075,0.844,3.178,37.0
41.057,0.852,2.958,40.0
41.442,0.868,2.764,4.0
40.891,0.862,3.883,42.0
40.75,0.867,3.651,35.0
40.693,0.874,3.427,41.0
40.822,0.885,3.216,46.0
40.906,0.895,3.003,45.0
41.281,0.912,2.811,28.0
40.956,0.91,3.946,39.0
40.71,0.913,3.703,32.0
40.663,0.92,3.48,40.0
40.856,0.932,3.273,43.0
40.832,0.94,3.052,37.0
41.064,0.954,2.85,36.0
40.808,0.954,3.987,27.0
40.753,0.961,3.761,38.0
40.589,0.965,3.528,44.0
40.695,0.976,3.314,38.0
40.833,0.988,3.106,43.0
41.093,1.002,2.905,16.0
40.951,1.005,4.054,26.0
40.513,1.003,3.791,36.0
40.646,1.014,3.585,30.0
40.646,1.023,3.362,39.0
40.829,1.036,3.157,40.0
40.892,1.046,2.942,27.0
40.872,1.053,4.098,46.0
40.575,1.053,3.849,39.0
40.651,1.063,3.636,31.0
40.72,1.073,3.418,34.0
40.797,1.084,3.205,44.0
40.895,1.095,2.992,41.0
41.033,1.106,4.164,32.0
40.537,1.101,3.894,37.0
40.679,1.113,3.688,25.0
40.578,1.119,3.455,47.0
40.747,1.132,3.25,39.0
40.947,1.147,3.045,37.0
41.04,1.157,4.214,47.0
40.79,1.158,3.966,43.0
40.682,1.164,3.736,15.0
40.56,1.168,3.501,29.0
40.712,1.182,3.294,37.0
40.874,1.195,3.086,28.0
41.0,1.206,4.257,38.0
40.843,1.21,4.018,42.0
40.918,1.22,3.803,23.0
40.551,1.218,3.544,43.0
40.585,1.228,3.328,39.0
45.17,1.376,3.459,7.0
40.885,1.254,4.289,34.0
41.158,1.271,4.094,39.0
40.84,1.269,3.84,22.0
40.533,1.268,3.586,37.0
40.465,1.274,3.361,43.0
40.822,1.294,3.17,38.0
40.856,1.304,4.329,41.0
40.744,1.309,4.095,43.0
45.602,1.475,4.335,6.0
40.371,1.314,3.614,39.0
40.44,1.326,3.4,37.0
40.766,1.345,3.207,36.0
40.725,1.353,4.358,41.0
40.76,1.363,4.139,40.0
40.637,1.367,3.904,44.0
40.377,1.366,3.655,37.0
40.477,1.378,3.444,38.0
40.777,1.397,3.247,35.0
40.969,1.414,4.424,16.0
40.755,1.415,4.178,40.0
40.491,1.414,3.929,41.0
40.279,1.415,3.684,39.0
40.47,1.43,3.481,39.0
40.603,1.444,3.272,41.0
40.782,1.46,4.442,36.0
40.802,1.47,4.22,32.0
40.608,1.471,3.978,37.0
40.313,1.469,3.724,38.0
40.357,1.479,3.508,43.0
40.697,1.501,3.316,37.0
41.296,1.533,4.535,20.0
40.507,1.512,4.226,44.0
41.068,1.542,4.059,17.0
40.319,1.523,3.76,42.0
40.21,1.527,3.53,45.0
40.509,1.547,3.335,39.0
40.682,1.564,4.502,41.0
40.557,1.568,4.265,40.0
40.718,1.583,4.059,44.0
40.42,1.579,3.802,39.0
40.429,1.589,3.582,37.0
40.389,1.596,3.358,37.0
40.714,1.62,4.539,31.0
40.539,1.621,4.296,32.0
40.534,1.63,4.072,29.0
40.446,1.635,3.837,41.0
40.362,1.64,3.607,45.0
40.52,1.655,3.4,33.0
40.692,1.674,4.568,32.0
40.572,1.677,4.33,25.0
40.901,1.699,4.14,16.0
40.466,1.689,3.869,40.0
40.421,1.696,3.642,42.0
40.6,1.712,3.435,31.0
40.687,1.727,4.597,22.0
40.678,1.736,4.37,31.0
40.782,1.748,4.156,16.0
40.648,1.751,3.914,36.0
40.291,1.744,3.658,43.0
40.542,1.763,3.458,33.0
40.811,1.788,4.638,5.0
45.1,1.984,4.875,5.0
41.175,1.82,4.223,40.0
40.812,1.812,3.956,37.0
40.354,1.8,3.689,40.0
40.614,1.82,3.489,32.0
47.71,2.153,5.452,4.0
40.793,1.849,4.435,24.0
41.037,1.869,4.234,40.0
40.7,1.861,3.97,45.0
40.499,1.861,3.727,40.0
40.481,1.869,3.502,32.0
41.83,1.945,4.805,41.0
40.79,1.904,4.458,31.0
41.031,1.924,4.257,37.0
40.792,1.921,4.002,39.0
40.416,1.911,3.741,43.0
40.369,1.918,3.514,39.0
41.815,2.0,4.826,41.0
45.342,2.178,4.98,8.0
40.937,1.975,4.269,43.0
40.835,1.978,4.027,36.0
40.908,1.99,3.808,26.0
40.266,1.967,3.525,41.0
41.857,2.059,4.852,36.0
46.004,2.272,5.076,14.0
40.782,2.022,4.272,42.0
40.932,2.037,4.056,33.0
41.145,2.056,3.849,37.0
40.525,2.033,3.566,44.0
41.769,2.111,4.86,40.0
40.775,2.068,4.517,38.0
40.72,2.073,4.283,42.0
40.795,2.085,4.06,38.0
41.007,2.104,3.853,40.0
40.769,2.1,3.604,27.0
41.718,2.164,4.871,44.0
40.752,2.121,4.53,21.0
40.748,2.129,4.302,36.0
45.16,2.368,4.511,10.0
40.997,2.158,3.867,32.0
41.18,2.176,3.655,36.0
41.806,2.224,4.896,29.0
41.514,2.217,4.629,16.0
40.739,2.183,4.315,40.0
45.431,2.443,4.553,12.0
40.946,2.21,3.876,38.0
41.264,2.235,3.676,42.0
41.703,2.275,4.897,42.0
41.295,2.26,4.618,27.0
40.776,2.239,4.331,35.0
40.989,2.259,4.12,26.0
41.136,2.274,3.905,23.0
41.273,2.29,3.688,43.0
41.759,2.333,4.915,30.0
41.717,2.338,4.676,16.0
40.791,2.294,4.343,32.0
45.997,2.595,4.635,10.0
45.916,2.599,4.37,17.0
41.36,2.349,3.705,41.0
41.693,2.384,4.917,38.0
41.817,2.399,4.696,16.0
40.908,2.355,4.364,29.0
45.78,2.643,4.622,11.0
45.322,2.625,4.322,19.0
41.377,2.404,3.714,45.0
41.627,2.436,4.916,39.0
41.795,2.452,4.701,23.0
40.951,2.41,4.375,25.0
48.188,2.845,4.873,1.0
45.204,2.677,4.317,19.0
41.552,2.468,3.736,30.0
41.742,2.496,4.935,38.0
41.705,2.501,4.695,40.0
40.953,2.463,4.38,19.0
45.574,2.749,4.613,0.0
0.0,0.0,0.0,0.0
45.918,2.786,4.133,7.0
41.796,2.553,4.945,25.0
41.681,2.553,4.696,20.0
46.633,2.865,4.991,6.0
47.788,2.944,4.84,1.0
45.336,2.8,4.337,19.0
42.196,2.614,3.8,25.0
41.827,2.609,4.951,42.0
52.203,3.265,5.884,9.0
52.236,3.275,5.592,18.0
52.285,3.287,5.297,17.0
45.533,2.87,4.357,19.0
42.232,2.669,3.804,28.0
41.59,2.647,4.923,43.0
52.187,3.329,5.881,10.0
52.256,3.342,5.594,13.0
52.292,3.353,5.297,24.0
42.604,2.739,4.075,7.0
42.206,2.721,3.8,33.0
41.562,2.697,4.918,41.0
41.767,2.717,4.704,39.0
46.601,3.039,4.985,12.0
42.358,2.768,4.288,15.0
45.569,2.986,4.356,11.0
42.082,2.765,3.785,24.0
41.501,2.745,4.906,36.0
41.729,2.766,4.696,38.0
46.583,3.095,4.978,5.0
42.046,2.8,4.251,16.0
41.924,2.799,4.002,16.0
42.122,2.819,3.783,15.0
41.507,2.796,4.902,45.0
41.66,2.812,4.683,37.0
42.237,2.858,4.508,4.0
41.945,2.844,4.235,24.0
41.957,2.852,3.998,20.0
42.017,2.863,3.767,17.0
41.507,2.846,4.894,38.0
41.756,2.869,4.686,38.0
42.175,2.904,4.493,8.0
41.912,2.892,4.223,19.0
41.472,2.868,3.944,22.0
41.835,2.9,3.742,17.0
41.568,2.9,4.892,41.0
41.827,2.924,4.684,42.0
53.054,3.716,5.64,14.0
41.854,2.937,4.207,16.0
41.307,2.905,3.918,47.0
41.527,2.926,3.704,35.0
41.618,2.952,4.887,30.0
41.844,2.973,4.675,35.0
50.169,3.572,5.319,18.0
41.857,2.986,4.196,16.0
41.482,2.965,3.923,21.0
41.405,2.965,3.681,31.0
41.634,3.001,4.876,11.0
41.616,3.004,4.637,41.0
46.053,3.331,4.868,13.0
41.261,2.99,4.122,34.0
41.35,3.003,3.896,39.0
41.352,3.008,3.662,36.0
41.833,3.062,4.885,32.0
41.63,3.053,4.623,34.0
46.021,3.38,4.848,17.0
41.182,3.03,4.1,29.0
41.219,3.038,3.869,42.0
41.279,3.048,3.64,35.0
41.898,3.113,4.876,23.0
45.336,3.374,5.017,9.0
46.024,3.431,4.83,17.0
41.181,3.075,4.083,36.0
41.19,3.081,3.849,41.0
41.184,3.086,3.615,40.0
41.88,3.158,4.856,30.0
45.27,3.418,4.99,12.0
41.185,3.115,4.304,8.0
41.205,3.121,4.067,14.0
41.209,3.126,3.833,34.0
41.234,3.134,3.601,43.0
41.795,3.195,4.827,33.0
45.25,3.465,4.966,33.0
41.186,3.158,4.284,6.0
41.176,3.162,4.044,18.0
41.397,3.184,3.83,16.0
41.366,3.187,3.592,39.0
41.784,3.238,4.804,41.0
45.244,3.511,4.942,16.0
45.262,3.517,4.685,19.0
41.213,3.207,4.026,21.0
41.216,3.212,3.791,36.0
41.471,3.237,3.578,33.0
41.887,3.288,4.793,25.0
45.238,3.556,4.916,19.0
41.19,3.242,4.24,42.0
41.177,3.245,3.999,35.0
41.245,3.255,3.77,39.0
41.3,3.264,3.54,36.0
41.982,3.337,4.779,30.0
45.246,3.601,4.89,26.0
41.174,3.281,4.214,37.0
41.824,3.337,4.037,17.0
41.428,3.31,3.762,24.0
41.351,3.308,3.519,36.0
45.261,3.642,5.123,9.0
45.276,3.647,4.864,34.0
45.314,3.654,4.608,10.0
42.424,3.425,4.067,24.0
41.468,3.352,3.738,33.0
41.378,3.349,3.494,33.0
51.1,4.159,5.751,20.0
45.294,3.69,4.836,3.0
45.307,3.695,4.577,13.0
41.835,3.416,3.982,28.0
41.527,3.395,3.715,38.0
45.516,3.725,3.812,5.0
50.893,4.188,5.692,25.0
48.009,3.954,5.092,11.0
41.348,3.409,4.148,25.0
41.194,3.4,3.892,32.0
41.438,3.424,3.678,31.0
41.279,3.414,3.428,33.0
51.065,4.247,5.673,22.0
48.05,3.999,5.061,21.0
41.37,3.446,4.119,14.0
41.565,3.466,3.896,22.0
41.377,3.453,3.642,23.0
41.357,3.455,3.403,37.0
51.085,4.291,5.635,12.0
48.024,4.037,5.021,13.0
41.321,3.476,4.082,15.0
47.836,4.029,4.446,4.0
41.35,3.485,3.606,34.0
41.426,3.495,3.376,36.0
51.125,4.336,5.598,6.0
43.323,3.676,4.494,2.0
41.347,3.511,4.051,27.0
41.409,3.52,3.815,25.0
41.403,3.522,3.577,18.0
41.499,3.533,3.348,27.0
48.007,4.108,5.217,18.0
41.262,3.534,4.245,3.0
41.244,3.534,4.006,39.0
41.255,3.538,3.766,38.0
41.285,3.543,3.531,37.0
41.674,3.579,3.326,18.0
47.958,4.139,5.17,5.0
41.384,3.574,4.222,13.0
41.251,3.565,3.97,38.0
41.325,3.573,3.736,27.0
41.369,3.58,3.502,19.0
41.571,3.6,3.281,27.0
47.8,4.159,5.109,9.0
41.236,3.59,4.17,32.0
41.303,3.598,3.938,38.0
41.293,3.599,3.695,36.0
44.402,3.873,3.718,7.0
41.548,3.626,3.241,32.0
47.853,4.196,5.07,35.0
41.241,3.618,4.131,48.0
41.509,3.643,3.919,16.0
41.273,3.625,3.654,22.0
41.629,3.658,3.447,16.0
41.543,3.653,3.201,26.0
45.914,4.056,4.82,14.0
41.305,3.65,4.097,37.0
41.446,3.664,3.872,18.0
41.177,3.642,3.606,36.0
41.569,3.678,3.401,29.0
41.471,3.672,3.155,32.0
45.89,4.081,4.772,25.0
41.325,3.676,4.058,28.0
41.369,3.681,3.823,29.0
41.308,3.678,3.575,16.0
41.532,3.7,3.356,36.0
41.537,3.702,3.118,36.0
45.855,4.103,4.721,27.0
41.347,3.701,4.017,42.0
41.291,3.697,3.774,31.0
41.242,3.694,3.527,29.0
41.501,3.719,3.31,35.0
41.509,3.722,3.072,43.0
45.727,4.117,4.659,20.0
41.496,3.736,3.988,25.0
41.189,3.71,3.72,38.0
41.654,3.753,3.518,17.0
41.536,3.743,3.269,32.0
41.536,3.745,3.03,41.0
45.846,4.15,4.621,13.0
41.464,3.754,3.939,39.0
41.177,3.729,3.674,34.0
41.668,3.774,3.473,30.0
41.542,3.764,3.223,39.0
41.529,3.763,2.984,40.0
41.236,3.751,4.11,11.0
41.346,3.762,3.882,37.0
41.248,3.753,3.635,28.0
41.477,3.775,3.411,40.0
41.505,3.778,3.175,42.0
41.542,3.782,2.938,39.0
48.488,4.431,4.779,5.0
41.521,3.794,3.852,29.0
41.425,3.786,3.603,31.0
41.417,3.785,3.359,32.0
41.647,3.807,3.138,32.0
44.769,4.093,3.116,4.0
48.872,4.484,4.76,10.0
41.537,3.811,3.805,16.0
41.337,3.793,3.547,38.0
41.456,3.803,3.314,36.0
41.595,3.817,3.086,38.0
44.705,4.103,3.059,33.0
48.974,4.51,4.712,8.0
41.23,3.796,3.728,34.0
41.698,3.839,3.529,32.0
41.488,3.82,3.268,38.0
41.649,3.835,3.04,41.0
44.582,4.105,2.998,25.0
41.514,3.835,3.944,33.0
41.261,3.811,3.681,26.0
41.67,3.848,3.477,34.0
41.496,3.832,3.218,39.0
41.61,3.842,2.988,30.0
44.595,4.118,2.945,30.0
41.3,3.825,3.873,42.0
41.479,3.841,3.65,16.0
41.523,3.844,3.413,39.0
41.481,3.84,3.166,45.0
41.619,3.853,2.936,11.0
44.587,4.127,2.889,29.0
41.23,3.827,3.815,51.0
41.416,3.844,3.592,19.0
41.545,3.855,3.363,35.0
41.48,3.848,3.114,43.0
0.0,0.0,0.0,0.0
44.657,4.142,2.838,30.0
41.292,3.84,3.768,45.0
41.617,3.869,3.556,24.0
41.522,3.859,3.308,37.0
41.619,3.867,3.071,35.0
44.564,4.14,3.032,18.0
44.675,4.15,2.782,15.0
41.296,3.846,3.715,34.0
41.75,3.887,3.514,32.0
41.539,3.866,3.255,36.0
55.124,5.129,3.997,10.0
44.67,4.155,2.981,31.0
72.659,6.757,4.431,13.0
45.523,4.243,4.035,9.0
41.737,3.889,3.458,37.0
41.494,3.864,3.198,42.0
55.133,5.133,3.925,7.0
44.648,4.155,2.921,35.0
84.721,7.884,5.055,18.0
45.525,4.245,3.975,4.0
41.76,3.892,3.405,38.0
41.474,3.864,3.142,42.0
43.132,4.017,3.014,3.0
44.633,4.155,2.862,35.0
84.688,7.881,4.941,24.0
41.467,3.867,3.565,26.0
41.638,3.881,3.339,32.0
41.596,3.875,3.095,41.0
44.556,4.149,3.053,15.0
44.666,4.157,2.803,14.0
84.745,7.884,4.831,23.0
41.694,3.886,3.528,35.0
41.56,3.871,3.276,31.0
55.123,5.132,4.026,6.0
44.682,4.157,3.001,27.0
44.657,4.153,2.743,4.0
84.553,7.861,4.706,33.0
41.739,3.887,3.475,36.0
41.496,3.861,3.214,43.0
55.106,5.124,3.95,8.0
44.598,4.145,2.934,32.0
84.695,7.868,5.085,15.0
84.415,7.838,4.582,38.0
41.623,3.87,3.408,37.0
41.457,3.852,3.154,45.0
0.0,0.0,0.0,0.0
44.622,4.14,2.875,27.0
84.643,7.849,4.965,24.0
84.664,7.847,4.479,42.0
41.505,3.852,3.34,38.0
41.544,3.852,3.103,39.0
44.536,4.126,3.068,18.0
44.676,4.136,2.816,19.0
84.669,7.835,4.849,22.0
85.119,7.872,4.384,35.0
41.503,3.842,3.282,41.0
41.677,3.855,3.054,29.0
44.554,4.118,3.008,24.0
44.654,4.124,2.752,22.0
84.53,7.802,4.723,32.0
85.652,7.9,4.293,27.0
41.505,3.831,3.223,42.0
41.644,3.841,2.993,34.0
44.59,4.109,2.948,27.0
72.604,6.685,4.375,17.0
84.495,7.774,4.604,39.0
85.613,7.871,4.172,29.0
41.527,3.82,3.167,39.0
44.701,4.108,3.15,11.0
44.574,4.093,2.884,23.0
72.556,6.657,4.268,12.0
84.853,7.778,4.503,42.0
85.692,7.85,4.055,27.0
41.638,3.816,3.116,40.0
44.783,4.1,3.092,13.0
44.603,4.079,2.822,21.0
84.697,7.74,4.862,25.0
85.441,7.8,4.413,34.0
93.028,8.485,4.269,22.0
41.626,3.798,3.055,39.0
44.702,4.074,3.022,6.0
72.458,6.597,4.482,23.0
84.745,7.708,4.745,33.0
85.572,7.776,4.298,32.0
92.99,8.443,4.136,25.0
41.534,3.771,2.989,43.0
44.649,4.049,2.955,13.0
72.433,6.562,4.377,27.0
84.571,7.654,4.614,36.0
85.553,7.734,4.176,38.0
93.011,8.401,4.004,22.0
41.595,3.757,2.934,26.0
55.722,5.027,3.608,12.0
84.81,7.642,5.004,13.0
84.565,7.611,4.494,35.0
85.699,7.705,4.061,20.0
93.013,8.354,3.873,15.0
41.616,3.737,2.876,43.0
73.327,6.576,4.645,9.0
85.081,7.62,4.9,21.0
85.0,7.604,4.397,29.0
92.203,8.239,4.239,12.0
93.14,8.313,3.746,15.0
41.657,3.716,2.82,32.0
73.273,6.528,4.537,13.0
84.671,7.534,4.754,37.0
85.502,7.598,4.299,29.0
92.106,8.175,4.101,19.0
93.18,8.261,3.614,21.0
41.798,3.703,2.769,31.0
72.351,6.401,4.376,17.0
85.4,7.546,4.673,34.0
85.793,7.57,4.192,31.0
92.771,8.175,3.999,53.0
93.114,8.195,3.48,52.0
41.873,3.682,2.714,30.0
85.208,7.483,5.032,12.0
79.032,6.93,4.212,10.0
86.052,7.535,4.083,19.0
93.118,8.143,3.883,51.0
93.12,8.132,3.349,48.0
45.868,4.001,2.908,29.0
85.303,7.431,4.917,15.0
78.994,6.871,4.098,11.0
91.857,7.977,4.228,15.0
96.22,8.345,3.875,16.0
96.177,8.329,3.321,6.0
45.84,3.965,2.84,35.0
78.935,6.817,4.437,15.0
79.143,6.824,3.994,12.0
91.808,7.903,4.095,22.0
45.932,3.948,1.784,6.0
45.858,3.936,1.519,16.0
45.827,3.928,2.774,35.0
45.89,3.926,2.514,22.0
45.873,3.918,2.249,26.0
45.879,3.912,1.981,22.0
45.854,3.904,1.717,22.0
45.822,3.895,1.452,25.0
45.813,3.888,2.708,35.0
45.839,3.883,2.446,32.0
45.834,3.876,2.182,34.0
45.825,3.868,1.913,31.0
45.806,3.861,1.65,30.0
45.801,3.854,1.387,30.0
45.807,3.847,2.643,38.0
45.813,3.841,2.38,33.0
45.813,3.834,2.116,38.0
45.813,3.827,1.849,38.0
45.801,3.819,1.586,41.0
45.794,3.812,1.323,37.0
45.803,3.805,2.578,43.0
45.797,3.797,2.315,38.0
45.794,3.79,2.051,38.0
45.805,3.783,1.784,37.0
45.802,3.776,1.522,41.0
45.805,3.77,1.259,38.0
45.814,3.762,2.515,43.0
45.799,3.753,2.251,40.0
45.799,3.746,1.988,43.0
45.817,3.74,1.721,43.0
45.816,3.732,1.458,39.0
45.823,3.726,1.196,39.0
45.822,3.717,2.451,44.0
45.821,3.709,2.188,39.0
45.838,3.703,1.926,38.0
45.847,3.695,1.658,36.0
45.855,3.689,1.396,37.0
45.881,3.684,1.134,35.0
45.846,3.671,2.389,35.0
45.88,3.665,2.127,25.0
45.897,3.658,1.865,24.0
45.915,3.652,1.598,32.0
45.955,3.648,1.336,12.0
98.585,7.81,2.303,11.0
45.896,3.625,2.329,25.0
45.973,3.623,2.069,20.0
91.456,7.191,3.592,12.0
100.818,7.91,3.373,15.0
99.041,7.753,2.746,9.0
99.107,7.741,2.181,8.0
71.638,5.579,3.538,6.0
71.709,5.571,3.131,15.0
91.344,7.079,3.465,12.0
101.492,7.848,3.259,13.0
99.727,7.693,2.631,8.0
99.799,7.681,2.062,8.0
71.875,5.513,3.453,39.0
90.709,6.941,3.838,10.0
101.998,7.785,3.731,36.0
101.955,7.762,3.137,9.0
100.452,7.63,2.516,9.0
100.511,7.616,1.943,9.0
90.53,6.835,4.229,17.0
90.715,6.831,3.718,16.0
101.987,7.661,3.596,36.0
101.114,7.575,2.977,2.0
101.111,7.556,2.399,5.0
101.181,7.543,1.822,4.0
71.428,5.304,3.243,9.0
90.603,6.709,3.594,13.0
101.984,7.533,3.463,22.0
102.025,7.516,2.871,6.0
102.069,7.499,2.289,9.0
102.07,7.481,1.707,11.0
71.287,5.203,3.144,15.0
102.041,7.426,3.917,23.0
47.245,3.429,1.543,22.0
102.074,7.388,2.741,61.0
102.102,7.369,2.16,62.0
52.315,3.765,0.808,17.0
71.244,5.106,3.05,9.0
48.015,3.431,1.781,4.0
47.284,3.368,1.484,49.0
52.283,3.714,1.337,17.0
52.227,3.699,1.038,22.0
52.221,3.688,0.74,22.0
52.32,3.679,2.174,20.0
48.388,3.392,1.734,10.0
47.428,3.315,1.429,12.0
47.413,3.304,1.153,63.0
52.189,3.626,0.972,33.0
52.184,3.614,0.675,38.0
52.249,3.601,2.106,38.0
48.879,3.358,1.691,13.0
47.842,3.276,1.382,3.0
47.572,3.247,1.098,18.0
47.541,3.235,0.827,60.0
52.201,3.541,0.61,32.0
52.234,3.525,2.041,46.0
49.175,3.308,1.641,17.0
48.273,3.236,1.335,7.0
47.768,3.192,1.045,18.0
47.706,3.177,0.772,21.0
47.669,3.164,0.5,49.0
52.268,3.452,1.979,36.0
49.552,3.261,1.594,14.0
48.438,3.177,1.282,8.0
47.938,3.133,0.992,12.0
47.893,3.119,0.718,21.0
47.812,3.103,0.445,17.0
51.048,3.295,1.873,5.0
49.904,3.209,1.547,11.0
49.049,3.143,1.241,16.0
48.164,3.075,0.94,9.0
48.04,3.056,0.664,34.0
48.053,3.046,0.391,14.0
111.098,7.002,3.948,11.0
50.458,3.168,1.506,5.0
49.17,3.076,1.188,12.0
48.439,3.018,0.89,5.0
48.294,2.998,0.613,10.0
48.268,2.986,0.338,6.0
111.074,6.829,3.821,38.0
50.732,3.106,1.456,20.0
49.633,3.027,1.143,4.0
48.92,2.971,0.843,10.0
48.566,2.938,0.561,9.0
106.289,6.405,0.626,5.0
115.448,6.914,3.843,35.0
50.727,3.025,1.4,2.0
50.364,2.99,1.104,13.0
49.116,2.904,0.793,4.0
48.859,2.877,0.511,7.0
59.211,3.472,0.283,4.0
118.795,6.919,3.823,8.0
116.095,6.733,3.077,9.0
50.448,2.913,1.051,17.0
49.707,2.857,0.748,4.0
49.236,2.817,0.462,5.0
59.333,3.381,0.22,13.0
119.705,6.775,3.726,27.0
59.515,3.353,1.514,11.0
50.653,2.84,1.002,5.0
50.041,2.793,0.701,5.0
59.344,3.297,0.495,8.0
59.225,3.276,0.158,14.0
59.43,3.263,1.787,24.0
59.387,3.245,1.45,30.0
59.355,3.228,1.112,32.0
50.529,2.735,0.656,7.0
59.319,3.195,0.434,27.0
59.068,3.167,0.098,13.0
59.402,3.16,1.726,47.0
59.406,3.144,1.39,32.0
59.407,3.128,1.054,33.0
50.823,2.662,0.608,3.0
59.387,3.095,0.375,26.0
58.886,3.054,0.039,10.0
59.483,3.061,1.67,23.0
124.804,6.388,2.798,132.0
124.803,6.354,2.093,150.0
120.031,6.079,1.321,18.0
83.308,4.196,0.446,1.0
58.696,2.941,-0.016,8.0
124.992,6.212,3.391,2.0
120.172,5.939,2.581,6.0
120.187,5.908,1.902,12.0
120.039,5.867,1.209,17.0
66.016,3.208,0.292,6.0
58.244,2.815,-0.07,7.0
120.104,5.755,3.147,28.0
120.119,5.721,2.469,8.0
120.111,5.686,1.79,7.0
120.016,5.648,1.098,13.0
65.771,3.077,0.231,9.0
52.843,2.457,-0.112,26.0
61.353,2.826,1.552,11.0
66.123,3.028,1.299,9.0
66.083,3.007,0.926,25.0
66.066,2.987,0.546,20.0
65.463,2.942,0.172,9.0
53.581,2.393,-0.161,6.0
63.09,2.79,1.541,13.0
62.601,2.75,1.176,8.0
62.021,2.707,0.815,10.0
66.041,2.863,0.489,9.0
65.207,2.807,0.115,9.0
54.378,2.326,-0.209,4.0
66.119,2.8,1.559,26.0
66.151,2.782,1.187,27.0
66.12,2.76,0.814,31.0
66.073,2.74,0.435,25.0
65.003,2.677,0.062,7.0
55.05,2.251,-0.257,3.0
194.052,7.853,4.42,20.0
120.145,4.825,2.06,15.0
120.029,4.784,1.382,19.0
72.054,2.851,0.417,7.0
58.953,2.315,0.01,5.0
0.0,0.0,0.0,0.0
193.838,7.472,4.263,20.0
192.107,7.346,3.144,6.0
119.916,4.549,1.289,10.0
71.795,2.701,0.36,15.0
58.895,2.199,-0.034,11.0
52.5,1.944,-0.326,0.0
72.419,2.651,1.539,25.0
72.377,2.628,1.131,26.0
72.354,2.605,0.725,29.0
71.636,2.556,0.307,18.0
59.523,2.106,-0.078,5.0
47.939,1.681,-0.332,0.0
72.366,2.507,1.486,35.0
72.354,2.483,1.079,39.0
72.341,2.46,0.673,32.0
71.429,2.406,0.256,11.0
60.24,2.011,-0.121,4.0
0.0,0.0,0.0,0.0
72.459,2.365,1.438,28.0
72.464,2.343,1.032,33.0
72.428,2.319,0.625,34.0
71.34,2.261,0.209,9.0
61.609,1.934,-0.164,4.0
45.503,1.414,-0.376,0.0
74.284,2.277,1.426,3.0
74.119,2.248,1.008,4.0
78.845,2.367,0.631,13.0
70.795,2.102,0.162,10.0
62.975,1.851,-0.207,2.0
0.0,0.0,0.0,0.0
76.756,2.199,1.427,5.0
76.818,2.177,0.998,7.0
78.799,2.207,0.583,18.0
65.925,1.825,0.112,6.0
55.172,1.51,-0.214,0.0
0.0,0.0,0.0,0.0
78.933,2.102,1.422,34.0
78.925,2.076,0.981,36.0
78.855,2.049,0.539,22.0
66.639,1.709,0.076,5.0
55.441,1.404,-0.246,0.0
0.0,0.0,0.0,0.0
85.289,2.097,1.49,28.0
85.259,2.067,1.013,35.0
84.896,2.03,0.535,11.0
67.665,1.597,0.042,6.0
0.0,0.0,0.0,0.0
0.0,0.0,0.0,0.0
85.246,1.919,1.446,39.0
85.257,1.89,0.97,38.0
84.832,1.853,0.492,10.0
69.695,1.499,0.008,3.0
0.0,0.0,0.0,0.0
40.241,0.838,-0.443,0.0
87.316,1.782,1.439,19.0
119.89,2.408,1.308,10.0
84.765,1.673,0.452,8.0
71.051,1.379,-0.023,3.0
0.0,0.0,0.0,0.0
40.206,0.753,-0.461,0.0
90.187,1.653,1.447,1.0
91.838,1.652,0.962,15.0
84.613,1.493,0.415,7.0
73.548,1.273,-0.055,2.0
0.0,0.0,0.0,0.0
41.604,0.691,-0.494,0.0
91.94,1.492,1.438,38.0
91.943,1.461,0.927,30.0
84.923,1.32,0.384,8.0
0.0,0.0,0.0,0.0
0.0,0.0,0.0,0.0
0.0,0.0,0.0,0.0
98.49,1.392,1.505,31.0
98.564,1.359,0.959,25.0
85.14,1.144,0.355,11.0
0.0,0.0,0.0,0.0
0.0,0.0,0.0,0.0
0.0,0.0,0.0,0.0
98.551,1.183,1.474,33.0
98.47,1.148,0.926,18.0
85.394,0.966,0.329,7.0
0.0,0.0,0.0,0.0
46.698,0.495,-0.342,0.0
0.0,0.0,0.0,0.0
104.741,1.034,1.536,17.0
98.6,0.938,0.899,14.0
85.068,0.78,0.304,8.0
0.0,0.0,0.0,0.0
48.566,0.411,-0.369,0.0
0.0,0.0,0.0,0.0
100.435,0.779,1.447,3.0
104.884,0.777,0.93,27.0
86.137,0.607,0.287,5.0
0.0,0.0,0.0,0.0
45.976,0.291,-0.36,0.0
0.0,0.0,0.0,0.0
111.082,0.625,1.577,34.0
110.918,0.584,0.961,15.0
87.973,0.432,0.275,1.0
0.0,0.0,0.0,0.0
45.992,0.193,-0.369,0.0
0.0,0.0,0.0,0.0
119.827,0.416,1.679,12.0
110.969,0.347,0.942,18.0
92.586,0.257,0.274,1.0
0.0,0.0,0.0,0.0
45.294,0.094,-0.37,1.0
0.0,0.0,0.0,0.0
111.092,0.151,1.541,17.0
111.009,0.111,0.927,7.0
95.606,0.062,0.271,3.0
0.0,0.0,0.0,0.0
45.116,-0.003,-0.374,1.0
0.0,0.0,0.0,0.0
117.367,-0.091,1.616,14.0
111.231,-0.125,0.918,9.0
0.0,0.0,0.0,0.0
0.0,0.0,0.0,0.0
45.105,-0.099,-0.377,1.0
0.0,0.0,0.0,0.0
112.62,-0.329,1.543,17.0
119.672,-0.392,0.981,6.0
0.0,0.0,0.0,0.0
0.0,0.0,0.0,0.0
0.0,0.0,0.0,0.0
0.0,0.0,0.0,0.0
119.715,-0.606,1.637,11.0
119.698,-0.65,0.978,9.0
0.0,0.0,0.0,0.0
0.0,0.0,0.0,0.0
0.0,0.0,0.0,0.0
36.409,-0.25,-0.506,0.0
119.73,-0.863,1.638,10.0
119.665,-0.906,0.98,12.0
0.0,0.0,0.0,0.0
0.0,0.0,0.0,0.0
0.0,0.0,0.0,0.0
0.0,0.0,0.0,0.0
119.745,-1.122,1.644,150.0
119.764,-1.165,0.987,150.0
0.0,0.0,0.0,0.0
0.0,0.0,0.0,0.0
47.045,-0.509,-0.391,0.0
0.0,0.0,0.0,0.0
0.0,0.0,0.0,0.0
139.194,-1.653,1.16,24.0
0.0,0.0,0.0,0.0
0.0,0.0,0.0,0.0
46.84,-0.607,-0.384,0.0
36.703,-0.489,-0.502,0.0
139.083,-1.896,1.938,4.0
138.863,-1.945,1.174,22.0
0.0,0.0,0.0,0.0
0.0,0.0,0.0,0.0
46.759,-0.705,-0.377,0.0
37.363,-0.578,-0.505,0.0
139.124,-2.195,1.961,4.0
139.104,-2.244,1.199,22.0
0.0,0.0,0.0,0.0
0.0,0.0,0.0,0.0
47.009,-0.81,-0.37,1.0
37.665,-0.662,-0.502,0.0
138.981,-2.487,1.986,4.0
139.023,-2.537,1.227,27.0
0.0,0.0,0.0,0.0
0.0,0.0,0.0,0.0
46.23,-0.894,-0.354,0.0
0.0,0.0,0.0,0.0
139.037,-2.782,2.019,6.0
139.007,-2.83,1.259,27.0
0.0,0.0,0.0,0.0
0.0,0.0,0.0,0.0
47.575,-1.021,-0.352,0.0
0.0,0.0,0.0,0.0
138.87,-3.072,2.054,6.0
138.914,-3.125,1.297,22.0
0.0,0.0,0.0,0.0
0.0,0.0,0.0,0.0
0.0,0.0,0.0,0.0
38.021,-0.911,-0.477,0.0
138.797,-3.364,2.095,8.0
138.86,-3.414,1.34,25.0
0.0,0.0,0.0,0.0
0.0,0.0,0.0,0.0
0.0,0.0,0.0,0.0
41.113,-1.071,-0.502,0.0
138.714,-3.651,2.141,7.0
138.786,-3.704,1.388,23.0
0.0,0.0,0.0,0.0
0.0,0.0,0.0,0.0
0.0,0.0,0.0,0.0
41.392,-1.164,-0.49,0.0
138.576,-3.936,2.192,9.0
138.47,-3.982,1.438,17.0
0.0,0.0,0.0,0.0
0.0,0.0,0.0,0.0
50.635,-1.511,-0.304,0.0
41.307,-1.248,-0.472,2.0
138.691,-4.224,2.251,4.0
138.724,-4.276,1.499,17.0
0.0,0.0,0.0,0.0
0.0,0.0,0.0,0.0
0.0,0.0,0.0,0.0
41.558,-1.342,-0.456,0.0
193.386,-6.29,3.227,14.0
138.57,-4.555,1.56,11.0
138.588,-4.606,0.81,8.0
0.0,0.0,0.0,0.0
0.0,0.0,0.0,0.0
41.464,-1.423,-0.435,0.0
193.3,-6.682,3.32,16.0
138.537,-4.838,1.628,4.0
138.517,-4.885,0.878,10.0
0.0,0.0,0.0,0.0
0.0,0.0,0.0,0.0
0.0,0.0,0.0,0.0
193.378,-7.072,3.421,17.0
0.0,0.0,0.0,0.0
138.532,-5.167,0.952,13.0
0.0,0.0,0.0,0.0
0.0,0.0,0.0,0.0
45.303,-1.738,-0.427,1.0
193.561,-7.471,3.532,13.0
0.0,0.0,0.0,0.0
138.454,-5.44,1.03,16.0
0.0,0.0,0.0,0.0
0.0,0.0,0.0,0.0
47.849,-1.932,-0.423,0.0
192.718,-7.82,3.63,21.0
187.353,-7.67,2.518,17.0
138.366,-5.714,1.113,17.0
0.0,0.0,0.0,0.0
0.0,0.0,0.0,0.0
47.189,-1.998,-0.388,0.0
192.936,-8.209,3.755,24.0
138.075,-5.924,1.943,36.0
138.009,-5.969,1.197,24.0
0.0,0.0,0.0,0.0
0.0,0.0,0.0,0.0
0.0,0.0,0.0,0.0
194.218,-8.637,3.905,6.0
138.036,-6.187,2.032,59.0
138.226,-6.242,1.29,22.0
0.0,0.0,0.0,0.0
20.041,-0.918,-0.03,0.0
20.01,-0.924,-0.138,16.0
20.149,-0.934,0.419,16.0
20.161,-0.942,0.31,0.0
138.24,-6.507,1.387,23.0
0.0,0.0,0.0,0.0
19.994,-0.955,-0.016,11.0
19.977,-0.961,-0.123,26.0
20.141,-0.972,0.433,23.0
20.15,-0.979,0.325,20.0
20.165,-0.987,0.216,18.0
20.028,-0.987,0.105,6.0
19.999,-0.993,-0.001,14.0
19.977,-0.998,-0.109,34.0
20.099,-1.008,0.447,18.0
20.093,-1.014,0.339,16.0
20.015,-1.017,0.23,19.0
19.981,-1.022,0.12,16.0
19.979,-1.029,0.013,25.0
19.985,-1.036,-0.093,24.0
19.971,-1.039,0.46,17.0
19.962,-1.045,0.353,15.0
20.005,-1.054,0.246,29.0
19.986,-1.059,0.136,25.0
19.98,-1.066,0.029,27.0
19.99,-1.073,-0.077,24.0
19.964,-1.075,0.476,23.0
19.955,-1.081,0.369,19.0
19.968,-1.088,0.262,19.0
20.001,-1.097,0.153,24.0
19.995,-1.103,0.046,21.0
20.036,-1.112,-0.06,1.0
19.959,-1.111,0.493,25.0
19.961,-1.117,0.386,27.0
19.965,-1.124,0.279,26.0
20.01,-1.133,0.17,11.0
20.084,-1.143,0.063,2.0
20.062,-1.149,-0.043,0.0
19.962,-1.146,0.51,28.0
19.943,-1.151,0.403,19.0
19.955,-1.158,0.296,19.0
20.001,-1.168,0.188,13.0
20.002,-1.174,0.081,70.0
19.991,-1.18,-0.025,150.0
19.954,-1.181,0.528,25.0
19.934,-1.186,0.421,22.0
19.922,-1.191,0.314,18.0
19.978,-1.201,0.206,119.0
19.985,-1.208,0.099,150.0
19.987,-1.214,-0.006,150.0
19.949,-1.215,0.546,27.0
19.925,-1.22,0.439,23.0
19.941,-1.227,0.333,21.0
19.967,-1.235,0.225,25.0
19.997,-1.243,0.118,24.0
20.006,-1.25,0.012,24.0
19.943,-1.248,0.565,25.0
19.931,-1.254,0.459,19.0
19.933,-1.26,0.352,19.0
19.967,-1.269,0.244,27.0
19.976,-1.275,0.138,25.0
19.991,-1.282,0.031,27.0
19.939,-1.282,0.585,20.0
19.927,-1.287,0.478,15.0
19.929,-1.293,0.372,16.0
19.944,-1.3,0.264,26.0
19.987,-1.309,0.158,22.0
19.995,-1.315,0.052,22.0
20.048,-1.321,0.608,12.0
20.033,-1.326,0.501,9.0
19.986,-1.329,0.393,7.0
19.982,-1.335,0.285,7.0
20.003,-1.342,0.178,16.0
20.015,-1.349,0.072,14.0
20.015,-1.351,0.628,10.0
20.049,-1.359,0.522,11.0
20.054,-1.365,0.416,3.0
119.373,-8.164,1.828,35.0
119.304,-8.194,1.191,16.0
95.481,-6.588,0.447,3.0
20.012,-1.383,0.649,12.0
20.004,-1.388,0.542,11.0
20.011,-1.394,0.436,10.0
20.012,-1.4,0.328,9.0
20.026,-1.406,0.221,18.0
20.034,-1.413,0.115,4.0
20.014,-1.414,0.671,9.0
20.0,-1.418,0.564,10.0
19.995,-1.423,0.458,9.0
20.007,-1.43,0.349,10.0
20.015,-1.436,0.243,34.0
20.021,-1.442,0.137,26.0
67.871,-4.899,2.352,17.0
20.017,-1.45,0.587,4.0
20.028,-1.456,0.481,6.0
20.019,-1.461,0.372,5.0
20.017,-1.466,0.266,8.0
20.028,-1.473,0.16,14.0
67.891,-5.001,2.43,35.0
71.768,-5.305,2.187,18.0
72.798,-5.4,1.832,11.0
72.448,-5.393,1.431,13.0
119.272,-8.912,1.724,17.0
114.006,-8.549,1.044,2.0
67.917,-5.101,2.51,31.0
71.865,-5.416,2.273,25.0
72.843,-5.508,1.918,7.0
72.391,-5.492,1.514,8.0
67.896,-5.168,1.06,8.0
67.886,-5.185,0.7,33.0
67.934,-5.197,2.589,64.0
67.916,-5.212,2.228,71.0
67.902,-5.227,1.867,86.0
67.883,-5.243,1.499,91.0
67.874,-5.26,1.14,88.0
67.865,-5.276,0.78,83.0
67.943,-5.29,2.671,51.0
67.926,-5.306,2.31,37.0
67.909,-5.321,1.949,20.0
72.576,-5.704,1.691,18.0
119.351,-9.41,2.15,18.0
119.244,-9.432,1.517,18.0
72.274,-5.725,2.93,17.0
72.138,-5.731,2.541,9.0
74.808,-5.96,2.238,3.0
71.602,-5.721,1.756,28.0
126.547,-10.143,2.434,54.0
119.196,-9.583,1.662,13.0
71.559,-5.761,2.989,17.0
67.945,-5.485,2.478,43.0
72.54,-5.872,2.26,10.0
119.314,-9.686,3.075,46.0
126.494,-10.298,2.59,36.0
119.302,-9.741,1.812,17.0
67.955,-5.555,2.923,47.0
67.932,-5.568,2.561,46.0
71.928,-5.911,2.33,10.0
119.315,-9.832,3.223,32.0
119.337,-9.861,2.592,10.0
126.491,-10.48,2.078,24.0
67.963,-5.638,3.008,50.0
67.947,-5.651,2.648,44.0
67.884,-5.66,2.286,11.0
72.801,-6.086,2.059,9.0
72.806,-6.102,1.674,7.0
126.475,-10.628,2.24,57.0
67.97,-5.719,3.096,48.0
67.959,-5.732,2.735,44.0
67.918,-5.742,2.373,38.0
103.394,-8.763,3.056,11.0
72.758,-6.181,1.766,9.0
126.467,-10.77,2.402,44.0
67.969,-5.796,3.183,54.0
67.97,-5.808,2.823,48.0
67.948,-5.82,2.462,43.0
102.845,-8.83,3.173,14.0
119.209,-10.257,3.048,29.0
119.246,-10.285,2.418,63.0
67.973,-5.871,3.272,57.0
67.975,-5.883,2.912,44.0
67.955,-5.894,2.551,43.0
71.941,-6.253,2.313,14.0
104.306,-9.086,2.802,5.0
72.797,-6.355,1.571,9.0
67.971,-5.942,3.36,55.0
67.978,-5.953,3.0,46.0
67.964,-5.964,2.64,42.0
67.903,-5.972,2.272,8.0
75.436,-6.648,2.125,8.0
135.692,-11.982,3.106,98.0
67.974,-6.011,3.45,27.0
71.6,-6.343,3.256,14.0
71.041,-6.306,2.854,25.0
74.776,-6.65,2.601,3.0
104.348,-9.298,3.079,11.0
119.283,-10.65,2.891,34.0
71.198,-6.365,3.71,19.0
71.462,-6.4,3.345,10.0
71.158,-6.384,2.954,6.0
72.402,-6.507,2.616,6.0
104.412,-9.401,3.222,12.0
75.539,-6.814,1.932,8.0
70.733,-6.39,3.781,15.0
71.314,-6.452,3.435,12.0
71.165,-6.45,3.052,10.0
70.947,-6.441,2.66,7.0
74.689,-6.793,2.406,2.0
75.604,-6.888,2.037,5.0
70.345,-6.417,3.857,19.0
0.0,0.0,0.0,0.0
71.21,-6.516,3.15,21.0
77.56,-7.108,3.014,10.0
78.56,-7.211,2.637,10.0
104.175,-9.578,2.947,8.0
71.463,-6.58,4.016,2.0
71.05,-6.551,3.617,34.0
71.143,-6.569,3.245,10.0
74.695,-6.907,3.004,20.0
78.422,-7.262,2.739,37.0
103.657,-9.614,3.074,8.0
33.248,-3.314,2.639,55.0
33.24,-3.312,2.461,52.0
33.253,-3.312,2.284,52.0
69.627,-6.933,4.406,41.0
68.992,-6.869,3.998,12.0
72.433,-7.21,3.812,20.0
33.245,-3.315,2.683,54.0
33.241,-3.313,2.504,50.0
33.255,-3.313,2.328,52.0
69.627,-6.935,4.496,22.0
69.064,-6.876,4.092,13.0
71.671,-7.134,3.864,21.0
33.246,-3.315,2.726,54.0
33.238,-3.313,2.547,52.0
33.248,-3.312,2.37,52.0
33.241,-3.31,2.189,45.0
69.411,-6.909,4.201,36.0
71.515,-7.116,3.947,24.0
33.248,-3.314,2.769,53.0
33.242,-3.311,2.591,54.0
33.246,-3.31,2.413,52.0
33.242,-3.308,2.232,51.0
69.447,-6.907,4.292,37.0
68.917,-6.851,3.892,10.0
33.247,-3.311,2.812,54.0
33.243,-3.309,2.633,54.0
33.23,-3.305,2.454,51.0
33.24,-3.304,2.274,53.0
69.432,-6.897,4.378,32.0
68.968,-6.847,3.981,17.0
33.246,-3.307,2.853,53.0
33.245,-3.304,2.675,53.0
33.237,-3.301,2.495,51.0
33.235,-3.298,2.314,52.0
69.417,-6.885,4.462,22.0
69.075,-6.846,4.071,17.0
33.244,-3.301,2.894,53.0
33.237,-3.297,2.714,52.0
33.241,-3.295,2.536,53.0
33.233,-3.292,2.354,52.0
33.247,-3.29,2.177,36.0
69.224,-6.846,4.163,25.0
33.248,-3.295,2.935,54.0
33.237,-3.29,2.755,51.0
33.245,-3.288,2.577,53.0
33.228,-3.283,2.393,52.0
33.245,-3.282,2.217,49.0
69.37,-6.843,4.254,27.0
33.25,-3.286,2.974,54.0
33.237,-3.281,2.794,53.0
33.231,-3.278,2.615,51.0
33.219,-3.273,2.432,53.0
33.248,-3.273,2.255,53.0
69.54,-6.839,4.345,30.0
33.247,-3.276,3.013,54.0
33.238,-3.272,2.833,52.0
33.225,-3.267,2.652,50.0
33.216,-3.262,2.47,52.0
33.239,-3.261,2.293,51.0
69.597,-6.822,4.428,26.0
33.247,-3.265,3.051,55.0
33.239,-3.26,2.871,51.0
33.225,-3.255,2.69,52.0
33.21,-3.25,2.507,52.0
33.235,-3.248,2.33,52.0
69.668,-6.802,4.511,14.0
33.251,-3.253,3.089,54.0
33.229,-3.247,2.907,51.0
33.223,-3.241,2.728,51.0
33.208,-3.236,2.544,52.0
33.223,-3.234,2.366,51.0
33.232,-3.231,2.188,39.0
33.248,-3.239,3.126,54.0
33.236,-3.233,2.945,51.0
33.225,-3.228,2.764,51.0
33.204,-3.221,2.58,53.0
33.22,-3.218,2.402,52.0
33.238,-3.216,2.224,48.0
33.25,-3.223,3.163,55.0
33.237,-3.217,2.981,52.0
33.226,-3.212,2.8,51.0
33.206,-3.205,2.616,53.0
33.217,-3.202,2.437,50.0
33.231,-3.199,2.259,49.0
33.255,-3.208,3.198,54.0
33.233,-3.2,3.015,52.0
33.219,-3.194,2.834,51.0
33.197,-3.187,2.649,52.0
33.214,-3.184,2.471,48.0
33.228,-3.181,2.292,50.0
33.253,-3.189,3.232,55.0
33.232,-3.182,3.05,50.0
33.212,-3.175,2.868,51.0
33.202,-3.169,2.683,51.0
33.206,-3.164,2.504,50.0
33.228,-3.162,2.326,56.0
33.251,-3.17,3.266,55.0
33.232,-3.163,3.082,48.0
33.212,-3.156,2.9,48.0
33.189,-3.148,2.715,49.0
33.204,-3.145,2.536,49.0
33.219,-3.141,2.357,57.0
47.321,-4.483,4.693,14.0
33.228,-3.142,3.114,5.0
74.908,-7.072,6.613,14.0
33.212,-3.129,2.748,1.0
70.57,-6.639,5.456,17.0
33.223,-3.12,2.388,6.0
47.348,-4.455,4.74,17.0
47.469,-4.458,4.494,9.0
74.695,-7.002,6.664,25.0
74.572,-6.978,6.239,8.0
73.796,-6.892,5.774,5.0
69.9,-6.517,5.089,34.0
47.303,-4.419,4.779,22.0
47.465,-4.425,4.536,8.0
74.535,-6.935,6.717,17.0
74.262,-6.897,6.279,19.0
71.152,-6.596,5.629,5.0
70.165,-6.492,5.169,16.0
47.395,-4.394,4.83,17.0
47.432,-4.388,4.575,4.0
79.664,-7.355,7.248,5.0
73.849,-6.804,6.308,30.0
71.097,-6.538,5.686,12.0
70.24,-6.446,5.235,18.0
47.365,-4.355,4.868,15.0
73.932,-6.784,7.193,16.0
79.83,-7.309,7.33,8.0
73.579,-6.722,6.346,8.0
71.068,-6.48,5.742,9.0
70.303,-6.397,5.297,23.0
47.533,-4.333,4.924,19.0
73.694,-6.704,7.23,23.0
73.691,-6.689,6.825,7.0
71.296,-6.456,6.207,11.0
0.0,0.0,0.0,0.0
70.641,-6.37,5.378,32.0
47.585,-4.299,4.967,5.0
73.737,-6.646,7.293,11.0
73.664,-6.624,6.881,17.0
76.206,-6.837,6.693,9.0
74.252,-6.647,6.115,10.0
70.843,-6.327,5.447,23.0
76.297,-6.827,8.023,11.0
76.751,-6.851,7.648,9.0
73.418,-6.538,6.913,31.0
76.247,-6.774,6.753,8.0
74.477,-6.601,6.188,16.0
70.813,-6.263,5.495,29.0
77.534,-6.869,8.21,5.0
73.11,-6.46,7.338,34.0
73.662,-6.493,6.988,25.0
73.342,-6.449,6.547,7.0
74.528,-6.538,6.243,9.0
70.987,-6.213,5.558,16.0
0.0,0.0,0.0,0.0
72.841,-6.369,7.361,11.0
73.619,-6.421,7.033,33.0
73.44,-6.389,6.605,5.0
71.412,-6.198,6.029,9.0
70.944,-6.142,5.601,18.0
69.972,-6.068,7.503,13.0
76.52,-6.618,7.782,4.0
73.422,-6.333,7.062,24.0
78.002,-6.71,7.064,8.0
71.251,-6.114,6.061,18.0
74.539,-6.38,5.93,8.0
70.348,-6.032,7.586,9.0
70.228,-6.005,7.184,20.0
73.334,-6.254,7.096,20.0
71.677,-6.096,6.533,6.0
72.191,-6.123,6.182,15.0
70.961,-6.003,5.686,12.0
70.523,-5.976,7.646,33.0
70.273,-5.938,7.229,11.0
73.228,-6.17,7.128,10.0
72.839,-6.12,6.68,19.0
74.695,-6.259,6.437,8.0
70.409,-5.884,5.68,25.0
70.665,-5.914,7.7,36.0
70.282,-5.865,7.268,8.0
73.476,-6.115,7.19,20.0
71.616,-5.942,6.604,11.0
72.947,-6.036,6.324,9.0
70.436,-5.812,5.717,20.0
70.862,-5.856,7.757,22.0
70.523,-5.81,7.327,13.0
73.472,-6.036,7.225,11.0
71.738,-5.876,6.649,15.0
72.975,-5.96,6.36,15.0
73.335,-5.973,5.986,9.0
70.904,-5.783,7.794,21.0
0.0,0.0,0.0,0.0
73.472,-5.955,7.258,11.0
79.449,-6.42,7.399,10.0
73.077,-5.888,6.401,7.0
73.304,-5.889,6.014,21.0
70.618,-5.681,7.792,14.0
71.524,-5.736,7.493,12.0
71.998,-5.756,7.141,38.0
77.965,-6.214,7.291,8.0
70.862,-5.63,6.234,15.0
73.516,-5.824,6.06,23.0
71.735,-5.689,7.943,16.0
78.128,-6.176,8.214,4.0
71.906,-5.666,7.159,33.0
71.004,-5.578,6.666,13.0
71.982,-5.637,6.357,11.0
68.009,-5.309,5.629,21.0
71.386,-5.579,7.929,40.0
70.863,-5.52,7.474,15.0
71.521,-5.553,7.143,24.0
70.835,-5.481,6.673,15.0
68.007,-5.245,6.028,82.0
67.998,-5.228,5.649,52.0
71.153,-5.476,7.924,40.0
70.542,-5.411,7.461,29.0
71.434,-5.461,7.155,7.0
68.022,-5.183,6.426,48.0
0.0,0.0,0.0,0.0
70.536,-5.339,5.878,25.0
71.025,-5.38,7.928,23.0
71.421,-5.392,7.571,19.0
71.518,-5.381,7.181,5.0
71.208,-5.339,6.744,18.0
72.743,-5.436,6.483,8.0
70.559,-5.256,5.895,18.0
71.197,-5.308,7.962,43.0
71.034,-5.276,7.545,38.0
68.03,-5.036,6.844,22.0
71.37,-5.265,6.773,3.0
70.976,-5.218,6.338,14.0
0.0,0.0,0.0,0.0
0.0,0.0,0.0,0.0
71.485,-5.222,7.605,40.0
68.047,-4.953,6.857,32.0
73.445,-5.326,6.981,8.0
70.92,-5.125,6.344,21.0
70.554,-5.08,5.916,11.0
70.777,-5.099,7.937,27.0
70.248,-5.042,7.482,8.0
71.43,-5.108,7.206,12.0
73.277,-5.221,6.973,14.0
73.509,-5.219,6.583,3.0
71.895,-5.086,6.036,20.0
71.086,-5.031,7.978,17.0
70.212,-4.951,7.484,29.0
71.109,-4.995,7.178,46.0
69.383,-4.856,6.607,7.0
72.846,-5.078,6.528,16.0
72.386,-5.029,6.08,18.0
71.126,-4.942,7.985,50.0
70.63,-4.889,7.53,34.0
71.011,-4.896,7.171,28.0
69.389,-4.767,6.609,36.0
64.311,-4.401,5.763,24.0
72.239,-4.925,6.068,27.0
70.231,-4.789,7.885,29.0
70.97,-4.82,7.566,35.0
70.966,-4.801,7.165,30.0
70.096,-4.724,6.674,21.0
64.236,-4.312,5.754,30.0
72.437,-4.844,6.083,34.0
70.323,-4.703,7.892,15.0
71.572,-4.766,7.627,9.0
71.722,-4.757,7.237,7.0
63.993,-4.228,6.089,28.0
64.17,-4.223,5.744,38.0
70.93,-4.649,5.95,17.0
70.655,-4.631,7.923,31.0
70.978,-4.633,7.557,10.0
59.453,-3.865,5.993,22.0
64.015,-4.144,6.084,39.0
64.115,-4.134,5.732,33.0
64.155,-4.12,5.374,22.0
70.512,-4.527,7.898,30.0
59.518,-3.805,6.328,10.0
59.533,-3.79,5.992,33.0
64.105,-4.064,6.083,32.0
63.898,-4.034,5.702,38.0
63.683,-4.003,5.324,38.0
70.303,-4.418,7.862,21.0
59.414,-3.718,6.306,18.0
59.121,-3.683,5.939,31.0
64.085,-3.975,6.068,14.0
63.82,-3.941,5.682,37.0
63.512,-3.906,5.295,31.0
58.881,-3.619,6.571,32.0
59.065,-3.614,6.255,16.0
59.075,-3.598,5.92,31.0
63.9,-3.875,6.035,25.0
63.799,-3.852,5.664,38.0
63.477,-3.816,5.276,31.0
58.863,-3.536,6.553,34.0
59.196,-3.541,6.253,33.0
58.72,-3.497,5.868,33.0
59.387,-3.52,5.591,27.0
63.432,-3.743,5.612,37.0
63.369,-3.723,5.248,38.0
58.832,-3.453,6.531,32.0
58.288,-3.406,6.138,32.0
58.327,-3.392,5.81,32.0
59.301,-3.433,5.563,33.0
63.242,-3.645,5.574,37.0
63.034,-3.617,5.198,32.0
58.651,-3.362,6.49,34.0
58.244,-3.323,6.112,32.0
58.135,-3.301,5.769,32.0
58.419,-3.302,5.459,33.0
62.723,-3.529,5.504,40.0
63.048,-3.531,5.175,18.0
58.795,-3.289,6.483,34.0
58.213,-3.241,6.085,32.0
58.082,-3.218,5.739,32.0
57.659,-3.179,5.363,34.0
62.329,-3.42,5.443,22.0
58.579,-3.199,4.782,29.0
58.91,-3.212,6.469,35.0
58.572,-3.178,6.096,32.0
57.932,-3.128,5.698,32.0
57.035,-3.065,5.278,31.0
57.115,-3.055,4.961,21.0
58.352,-3.107,4.736,32.0
58.316,-3.099,6.375,29.0
58.633,-3.1,6.073,33.0
56.979,-2.997,5.576,25.0
57.026,-2.985,5.248,31.0
60.319,-3.142,5.207,21.0
0.0,0.0,0.0,0.0
58.132,-3.008,6.323,33.0
56.683,-2.918,5.84,13.0
56.665,-2.902,5.513,30.0
56.906,-2.9,5.206,31.0
60.317,-3.058,5.173,10.0
57.01,-2.876,4.564,30.0
58.353,-2.938,6.314,33.0
46.955,-2.351,4.81,21.0
56.545,-2.817,5.468,30.0
56.891,-2.82,5.17,31.0
56.896,-2.806,4.845,13.0
56.906,-2.793,4.521,15.0
58.134,-2.846,6.254,10.0
56.392,-2.746,5.742,10.0
47.224,-2.287,4.537,21.0
57.086,-2.751,5.151,28.0
56.87,-2.727,4.806,20.0
44.164,-2.106,3.48,16.0
46.88,-2.23,5.012,27.0
46.736,-2.211,4.727,24.0
47.026,-2.213,4.486,29.0
57.575,-2.696,5.157,7.0
44.081,-2.053,3.695,35.0
44.169,-2.046,3.45,39.0
46.869,-2.165,4.977,43.0
46.684,-2.144,4.688,26.0
46.865,-2.141,4.437,31.0
44.341,-2.015,3.939,25.0
44.17,-1.996,3.67,40.0
44.222,-1.988,3.422,44.0
46.786,-2.097,4.933,32.0
46.751,-2.084,4.66,33.0
46.681,-2.068,4.384,33.0
44.247,-1.95,3.896,31.0
44.165,-1.936,3.636,37.0
44.206,-1.926,3.386,32.0
46.816,-2.033,4.899,39.0
46.472,-2.007,4.594,30.0
46.702,-2.005,4.348,18.0
44.233,-1.888,3.859,37.0
44.29,-1.88,3.61,33.0
44.105,-1.862,3.342,46.0
52.682,-2.216,5.469,16.0
46.376,-1.939,4.546,38.0
46.348,-1.927,4.275,9.0
44.317,-1.832,3.829,33.0
44.096,-1.812,3.556,41.0
44.203,-1.806,3.311,46.0
52.795,-2.148,5.434,25.0
46.264,-1.871,4.494,35.0
44.193,-1.776,4.037,37.0
44.381,-1.774,3.794,20.0
44.08,-1.752,3.515,45.0
44.153,-1.744,3.267,41.0
10.984,-0.873,-0.876,0.0
10.371,-0.826,-0.885,0.0
9.828,-0.785,-0.893,0.0
9.399,-0.754,-0.908,0.0
8.905,-0.716,-0.91,0.0
8.58,-0.692,-0.924,0.0
11.008,-0.888,-0.875,0.0
10.426,-0.843,-0.886,0.0
9.861,-0.8,-0.893,0.0
9.43,-0.767,-0.908,0.0
8.979,-0.733,-0.914,0.0
8.593,-0.704,-0.923,0.0
11.054,-0.904,-0.875,0.0
10.458,-0.858,-0.886,0.0
9.931,-0.817,-0.896,0.0
9.449,-0.78,-0.906,0.0
9.046,-0.749,-0.918,0.0
8.633,-0.717,-0.924,0.0
11.083,-0.919,-0.873,0.0
10.52,-0.875,-0.887,0.0
9.953,-0.83,-0.894,0.0
9.488,-0.794,-0.906,0.0
9.061,-0.76,-0.916,0.0
8.684,-0.731,-0.926,0.0
11.133,-0.936,-0.873,0.0
10.554,-0.89,-0.885,0.0
10.013,-0.846,-0.895,0.0
9.487,-0.804,-0.902,0.0
9.058,-0.77,-0.912,0.0
8.668,-0.739,-0.921,0.0
11.181,-0.952,-0.871,0.0
10.606,-0.906,-0.885,0.0
10.056,-0.861,-0.895,0.0
9.568,-0.821,-0.905,0.0
9.138,-0.787,-0.915,0.0
8.693,-0.75,-0.919,0.0
11.266,-0.971,-0.872,0.0
10.679,-0.923,-0.886,0.0
10.092,-0.875,-0.893,0.0
9.603,-0.835,-0.904,0.0
9.179,-0.8,-0.915,0.0
8.723,-0.762,-0.917,0.0
11.342,-0.99,-0.872,0.0
10.749,-0.94,-0.886,0.0
10.17,-0.892,-0.894,0.0
9.638,-0.848,-0.902,0.0
9.169,-0.809,-0.908,0.0
8.79,-0.777,-0.92,0.0
11.403,-1.007,-0.871,0.0
10.807,-0.956,-0.885,0.0
10.228,-0.908,-0.894,0.0
9.706,-0.863,-0.902,0.0
9.251,-0.825,-0.911,0.0
8.836,-0.79,-0.919,0.0
11.481,-1.025,-0.87,0.0
10.88,-0.974,-0.884,0.0
10.28,-0.922,-0.892,0.0
9.753,-0.877,-0.901,0.0
9.302,-0.839,-0.91,0.0
8.891,-0.804,-0.919,0.0
11.573,-1.044,-0.87,0.0
10.962,-0.991,-0.884,0.0
10.334,-0.937,-0.89,0.0
9.841,-0.894,-0.902,0.0
9.379,-0.854,-0.912,0.0
8.974,-0.819,-0.922,0.0
11.695,-1.066,-0.871,0.0
11.024,-1.007,-0.881,0.0
10.453,-0.957,-0.893,0.0
9.89,-0.908,-0.9,0.0
9.444,-0.869,-0.911,0.0
9.006,-0.831,-0.919,0.0
11.761,-1.083,-0.868,0.0
11.123,-1.026,-0.881,0.0
10.522,-0.973,-0.891,1.0
9.94,-0.921,-0.897,0.0
9.475,-0.88,-0.907,0.0
9.06,-0.843,-0.917,0.0
11.813,-1.098,-0.863,0.0
11.226,-1.045,-0.881,0.0
10.554,-0.985,-0.886,1.0
10.045,-0.94,-0.899,0.0
9.534,-0.894,-0.906,0.0
9.118,-0.857,-0.916,0.0
11.999,-1.125,-0.867,0.0
11.305,-1.062,-0.878,0.0
10.65,-1.003,-0.886,0.0
10.153,-0.958,-0.901,0.0
9.638,-0.911,-0.908,0.0
9.186,-0.87,-0.916,0.0
12.06,-1.141,-0.862,0.0
11.406,-1.081,-0.877,0.0
10.8,-1.025,-0.889,0.0
10.242,-0.974,-0.9,0.0
9.705,-0.925,-0.906,0.0
9.26,-0.885,-0.915,0.0
12.234,-1.167,-0.864,0.0
11.469,-1.096,-0.872,0.0
10.881,-1.041,-0.887,0.0
10.322,-0.99,-0.898,0.0
9.802,-0.942,-0.907,0.0
9.327,-0.898,-0.914,0.0
12.313,-1.183,-0.859,0.0
11.589,-1.115,-0.871,0.0
10.94,-1.055,-0.882,0.0
10.396,-1.004,-0.896,0.0
9.926,-0.961,-0.909,0.0
9.407,-0.912,-0.913,0.0
12.405,-1.201,-0.854,0.0
11.751,-1.139,-0.873,0.0
11.083,-1.076,-0.884,0.0
10.433,-1.015,-0.889,0.0
9.961,-0.971,-0.903,0.0
9.503,-0.928,-0.914,0.0
12.572,-1.225,-0.854,0.0
11.786,-1.15,-0.865,0.0
11.209,-1.096,-0.883,0.0
10.595,-1.037,-0.893,0.0
10.081,-0.989,-0.905,0.0
9.574,-0.941,-0.911,0.0
12.718,-1.247,-0.852,0.0
11.941,-1.173,-0.864,0.0
11.297,-1.111,-0.879,0.0
10.744,-1.059,-0.895,0.0
10.212,-1.008,-0.906,0.0
9.696,-0.958,-0.913,0.0
12.896,-1.272,-0.851,0.0
12.137,-1.199,-0.867,0.0
11.423,-1.13,-0.877,0.0
10.814,-1.072,-0.89,0.0
10.288,-1.021,-0.903,0.0
9.778,-0.972,-0.911,0.0
13.033,-1.293,-0.847,0.0
12.259,-1.218,-0.863,0.0
11.584,-1.153,-0.878,0.0
10.938,-1.09,-0.889,0.0
10.368,-1.034,-0.899,0.0
9.873,-0.987,-0.909,0.0
13.183,-1.315,-0.843,0.0
12.407,-1.239,-0.86,0.0
11.645,-1.164,-0.87,0.0
11.036,-1.105,-0.885,0.0
10.434,-1.046,-0.893,0.0
9.965,-1.0,-0.907,0.0
13.399,-1.343,-0.843,0.0
12.526,-1.257,-0.855,0.0
11.864,-1.192,-0.874,0.0
11.155,-1.122,-0.883,0.0
10.618,-1.069,-0.898,0.0
10.089,-1.017,-0.907,0.0
13.532,-1.362,-0.836,0.0
12.675,-1.277,-0.851,0.0
11.924,-1.203,-0.865,0.0
11.282,-1.139,-0.88,0.0
10.748,-1.087,-0.897,0.0
10.174,-1.03,-0.904,0.0
13.837,-1.398,-0.84,0.0
12.868,-1.301,-0.85,0.0
12.126,-1.228,-0.866,0.0
11.402,-1.156,-0.877,0.0
10.827,-1.098,-0.891,0.0
10.307,-1.047,-0.904,0.0
13.957,-1.415,-0.831,0.0
13.095,-1.329,-0.85,0.0
12.261,-1.245,-0.862,0.0
11.483,-1.168,-0.87,0.0
10.958,-1.115,-0.889,0.0
10.366,-1.056,-0.897,0.0
14.196,-1.444,-0.829,0.0
13.274,-1.351,-0.847,0.0
12.388,-1.262,-0.857,0.0
11.72,-1.195,-0.875,0.0
11.1,-1.133,-0.888,0.0
10.472,-1.07,-0.894,0.0
14.365,-1.465,-0.823,0.0
13.434,-1.371,-0.841,0.0
12.593,-1.286,-0.856,0.0
11.872,-1.213,-0.872,0.0
11.224,-1.148,-0.885,0.0
10.647,-1.09,-0.896,0.0
14.718,-1.504,-0.825,0.0
13.603,-1.391,-0.836,0.0
12.808,-1.311,-0.855,0.0
12.003,-1.229,-0.867,0.0
11.358,-1.164,-0.881,0.0
10.761,-1.103,-0.893,0.0
14.787,-1.514,-0.812,0.0
13.919,-1.426,-0.838,0.0
12.94,-1.326,-0.849,0.0
12.186,-1.25,-0.866,0.0
11.548,-1.185,-0.882,0.0
10.893,-1.118,-0.89,0.0
9.805,0.703,-0.887,0.0
9.357,0.67,-0.9,0.0
8.919,0.637,-0.909,0.0
0.0,0.0,0.0,0.0
8.226,0.586,-0.933,0.0
7.837,0.557,-0.934,0.0
9.831,0.694,-0.894,0.0
9.339,0.658,-0.902,0.0
8.847,0.623,-0.905,0.0
0.0,0.0,0.0,0.0
8.15,0.571,-0.928,0.0
7.809,0.546,-0.933,0.0
9.751,0.678,-0.891,0.0
9.36,0.65,-0.908,0.0
8.884,0.615,-0.912,0.0
0.0,0.0,0.0,0.0
8.175,0.564,-0.933,0.0
7.808,0.538,-0.936,0.0
9.75,0.667,-0.894,0.0
9.243,0.631,-0.9,0.0
8.804,0.6,-0.907,0.0
8.498,0.578,-0.925,0.0
8.125,0.551,-0.93,0.0
7.793,0.528,-0.937,0.0
9.693,0.653,-0.892,0.0
9.318,0.626,-0.91,0.0
8.876,0.595,-0.917,0.0
0.0,0.0,0.0,0.0
8.094,0.54,-0.929,0.0
7.781,0.518,-0.938,0.0
9.683,0.641,-0.893,0.0
9.267,0.612,-0.907,0.0
8.802,0.58,-0.912,0.0
0.0,0.0,0.0,0.0
8.056,0.528,-0.927,0.0
7.768,0.508,-0.938,0.0
9.66,0.628,-0.893,0.0
9.246,0.599,-0.907,0.0
8.785,0.568,-0.912,0.0
8.422,0.544,-0.923,0.0
8.056,0.519,-0.928,0.0
7.763,0.499,-0.939,0.0
9.694,0.619,-0.898,0.0
9.278,0.591,-0.912,0.0
8.797,0.559,-0.914,0.0
8.41,0.533,-0.923,0.0
8.084,0.511,-0.933,0.0
7.786,0.491,-0.943,0.0
9.636,0.603,-0.894,0.0
9.195,0.574,-0.905,0.0
8.769,0.546,-0.913,0.0
8.414,0.523,-0.924,0.0
8.058,0.499,-0.931,0.0
7.738,0.478,-0.938,0.0
9.653,0.593,-0.897,0.0
9.152,0.56,-0.902,0.0
8.81,0.538,-0.918,0.0
8.483,0.517,-0.932,0.0
8.055,0.489,-0.931,0.0
7.732,0.468,-0.937,0.0
9.663,0.581,-0.898,0.0
9.265,0.556,-0.913,0.0
8.779,0.525,-0.915,0.0
0.0,0.0,0.0,0.0
8.065,0.48,-0.932,0.0
7.726,0.459,-0.937,0.0
9.67,0.57,-0.899,0.0
9.177,0.539,-0.904,0.0
8.784,0.515,-0.915,0.0
0.0,0.0,0.0,0.0
8.046,0.469,-0.93,0.0
7.734,0.449,-0.937,0.0
9.624,0.555,-0.894,0.0
9.237,0.531,-0.91,0.0
8.792,0.504,-0.915,0.0
0.0,0.0,0.0,0.0
8.064,0.46,-0.931,0.0
7.742,0.44,-0.938,0.0
9.665,0.545,-0.897,0.0
9.266,0.521,-0.912,0.0
8.771,0.492,-0.912,0.0
0.0,0.0,0.0,0.0
8.1,0.451,-0.935,0.0
7.733,0.43,-0.936,0.0
9.66,0.533,-0.895,0.0
9.225,0.507,-0.907,0.0
8.757,0.48,-0.91,0.0
8.449,0.461,-0.926,0.0
8.072,0.439,-0.93,0.0
7.754,0.421,-0.937,0.0
9.683,0.522,-0.896,0.0
9.233,0.496,-0.906,0.0
8.816,0.472,-0.914,0.0
8.403,0.448,-0.919,0.0
8.077,0.429,-0.929,0.0
7.74,0.41,-0.934,0.0
9.762,0.513,-0.901,0.0
9.229,0.484,-0.903,0.0
8.853,0.462,-0.916,0.0
8.497,0.442,-0.928,0.0
8.066,0.418,-0.926,0.0
7.803,0.403,-0.939,0.0
9.765,0.501,-0.899,0.0
9.31,0.476,-0.909,0.0
8.857,0.451,-0.914,0.0
8.477,0.43,-0.923,0.0
8.094,0.409,-0.927,0.0
7.792,0.392,-0.936,0.0
9.796,0.49,-0.899,0.0
9.312,0.464,-0.906,0.0
8.819,0.437,-0.907,0.0
8.523,0.421,-0.925,0.0
8.075,0.397,-0.922,0.0
7.819,0.383,-0.936,0.0
9.812,0.478,-0.897,0.0
9.35,0.453,-0.906,0.0
8.919,0.431,-0.914,0.0
8.535,0.41,-0.923,0.0
8.209,0.393,-0.934,0.0
7.819,0.373,-0.933,0.0
9.852,0.467,-0.896,0.0
9.391,0.443,-0.907,0.0
8.951,0.42,-0.914,0.0
8.499,0.397,-0.916,0.0
8.23,0.383,-0.933,0.0
7.829,0.363,-0.931,0.0
9.89,0.455,-0.895,0.0
9.441,0.433,-0.907,0.0
9.012,0.411,-0.916,0.0
8.561,0.389,-0.918,0.0
8.241,0.373,-0.93,0.0
7.878,0.355,-0.933,0.0
9.899,0.443,-0.891,0.0
9.442,0.42,-0.902,0.0
8.997,0.399,-0.91,0.0
8.637,0.381,-0.922,0.0
8.258,0.363,-0.928,0.0
7.901,0.345,-0.931,0.0
9.936,0.431,-0.889,0.0
9.452,0.408,-0.898,0.0
9.017,0.388,-0.907,0.0
8.688,0.372,-0.923,0.0
8.287,0.353,-0.926,0.0
8.007,0.34,-0.939,0.0
9.969,0.42,-0.887,0.0
9.591,0.402,-0.906,0.0
9.174,0.383,-0.917,0.0
8.705,0.361,-0.919,0.0
8.342,0.344,-0.927,0.0
8.022,0.33,-0.936,0.0
10.055,0.41,-0.888,0.0
9.612,0.39,-0.902,0.0
9.131,0.369,-0.907,0.0
8.706,0.35,-0.914,0.0
8.374,0.335,-0.925,0.0
8.054,0.32,-0.935,0.0
10.113,0.4,-0.887,0.0
9.714,0.382,-0.905,0.0
9.276,0.363,-0.915,0.0
8.822,0.343,-0.92,0.0
8.409,0.325,-0.923,0.0
8.118,0.312,-0.936,0.0
10.197,0.39,-0.887,0.0
9.754,0.371,-0.902,0.0
9.224,0.349,-0.903,0.0
8.89,0.334,-0.92,0.0
8.5,0.318,-0.927,0.0
8.135,0.302,-0.932,0.0
10.216,0.377,-0.881,0.0
9.791,0.359,-0.898,0.0
9.361,0.342,-0.91,0.0
8.942,0.324,-0.919,0.0
8.546,0.308,-0.925,0.0
8.159,0.293,-0.928,0.0
10.281,0.366,-0.878,0.0
9.853,0.349,-0.895,0.0
9.344,0.329,-0.9,0.0
8.998,0.315,-0.917,0.0
8.605,0.299,-0.924,0.0
8.211,0.284,-0.927,0.0
10.395,0.357,-0.879,0.0
9.883,0.337,-0.89,0.0
