X,Y,Z,Reflectivity
65.277,7.975,2.208,15.0
65.243,7.971,1.832,15.0
65.186,7.966,1.458,15.0
65.35,7.998,3.269,12.0
65.313,7.993,2.893,11.0
65.277,7.989,2.516,15.0
65.207,7.981,2.133,17.0
65.157,7.976,1.757,16.0
65.114,7.971,1.383,14.0
65.275,8.002,3.192,12.0
65.204,7.993,2.814,13.0
65.188,7.991,2.438,15.0
65.12,7.982,2.056,17.0
65.098,7.98,1.682,17.0
65.059,7.976,1.308,16.0
65.204,8.004,3.113,12.0
65.175,7.999,2.738,12.0
65.15,7.995,2.363,17.0
65.07,7.985,1.98,17.0
65.039,7.981,1.605,16.0
64.997,7.977,1.232,15.0
65.175,8.007,3.038,13.0
65.13,8.0,2.661,13.0
65.07,7.992,2.285,15.0
65.035,7.987,1.905,17.0
64.985,7.98,1.53,15.0
64.946,7.976,1.156,17.0
65.141,8.007,2.961,13.0
65.117,8.002,2.586,14.0
65.055,7.993,2.21,16.0
64.993,7.985,1.828,17.0
64.968,7.981,1.455,15.0
64.94,7.977,1.082,14.0
65.101,8.003,2.884,13.0
65.098,8.0,2.51,14.0
65.057,7.994,2.134,16.0
65.02,7.988,1.753,17.0
64.988,7.983,1.38,18.0
64.955,7.979,1.007,15.0
65.139,8.006,2.81,14.0
65.091,7.997,2.434,16.0
65.041,7.989,2.058,16.0
65.027,7.986,1.678,16.0
64.98,7.979,1.304,17.0
64.951,7.974,0.931,14.0
65.131,8.0,2.733,12.0
65.115,7.995,2.358,16.0
65.08,7.988,1.984,16.0
65.051,7.982,1.603,16.0
65.014,7.977,1.228,16.0
64.992,7.972,0.856,15.0
65.18,7.997,2.659,14.0
65.15,7.991,2.283,15.0
65.125,7.985,1.908,15.0
65.094,7.979,1.527,15.0
65.052,7.972,1.153,14.0
65.04,7.969,0.78,16.0
65.234,7.993,2.584,14.0
65.192,7.985,2.207,16.0
65.181,7.98,1.833,16.0
65.175,7.977,1.452,16.0
65.093,7.964,1.077,14.0
65.108,7.964,0.704,16.0
65.335,7.991,2.511,14.0
65.279,7.98,2.133,15.0
65.265,7.975,1.759,16.0
65.22,7.967,1.376,15.0
65.206,7.963,1.002,15.0
65.21,7.961,0.628,16.0
62.665,-3.474,5.582,28.0
63.102,-3.498,5.288,38.0
62.947,-3.489,4.944,24.0
64.399,-3.569,4.713,40.0
63.489,-3.519,4.313,10.0
58.503,-3.242,3.668,31.0
58.911,-3.277,5.346,34.0
62.911,-3.498,5.377,37.0
62.938,-3.499,5.048,15.0
63.726,-3.543,4.77,39.0
58.644,-3.259,4.081,16.0
58.666,-3.26,3.775,32.0
58.66,-3.272,5.421,34.0
62.757,-3.499,5.469,38.0
63.047,-3.514,5.162,37.0
63.442,-3.535,4.853,38.0
64.624,-3.599,4.605,18.0
58.807,-3.275,3.881,32.0
58.875,-3.29,5.538,34.0
62.718,-3.503,5.569,37.0
63.082,-3.522,5.268,37.0
63.039,-3.518,4.926,32.0
64.424,-3.594,4.695,34.0
58.889,-3.283,3.983,29.0
58.61,-3.28,5.61,34.0
62.686,-3.505,5.669,9.0
62.941,-3.517,5.36,37.0
62.948,-3.515,5.021,10.0
63.867,-3.564,4.759,38.0
63.562,-3.545,4.402,8.0
58.059,-3.251,5.652,33.0
58.802,-3.289,5.412,33.0
62.779,-3.509,5.447,37.0
63.027,-3.52,5.128,31.0
63.506,-3.544,4.833,37.0
64.606,-3.603,4.577,14.0
58.0,-3.246,5.739,28.0
58.743,-3.284,5.501,33.0
62.737,-3.504,5.543,37.0
63.075,-3.52,5.233,38.0
63.107,-3.519,4.902,37.0
64.549,-3.596,4.674,26.0
58.18,-3.253,5.848,33.0
58.698,-3.279,5.589,33.0
62.659,-3.496,5.635,13.0
63.028,-3.513,5.328,38.0
62.881,-3.501,4.983,17.0
64.004,-3.56,4.735,39.0
58.294,-3.254,5.952,33.0
58.107,-3.239,5.624,32.0
58.681,-3.268,5.369,33.0
62.797,-3.493,5.406,38.0
63.045,-3.502,5.093,17.0
63.559,-3.527,4.799,38.0
58.034,-3.232,6.016,28.0
57.93,-3.222,5.696,32.0
57.774,-3.209,5.373,33.0
62.719,-3.479,5.494,37.0
63.127,-3.497,5.195,37.0
63.235,-3.498,4.869,33.0
58.146,-3.229,6.114,33.0
58.055,-3.219,5.795,32.0
57.122,-3.162,5.398,23.0
62.574,-3.459,5.575,31.0
63.084,-3.482,5.285,37.0
63.049,-3.475,4.948,11.0
58.326,-3.227,6.221,33.0
58.129,-3.21,5.89,32.0
58.273,-3.213,5.593,32.0
58.374,-3.213,5.286,33.0
62.881,-3.456,5.361,35.0
58.604,-3.215,4.685,23.0
59.17,-3.258,6.399,34.0
57.975,-3.187,5.96,32.0
57.986,-3.182,5.651,32.0
57.546,-3.152,5.296,33.0
62.494,-3.417,5.419,36.0
58.56,-3.197,4.766,21.0
59.182,-3.242,6.486,24.0
58.08,-3.176,6.054,32.0
58.026,-3.167,5.739,32.0
57.103,-3.11,5.337,31.0
62.351,-3.39,5.495,12.0
63.091,-3.424,5.225,10.0
52.02,-2.833,5.776,18.0
58.294,-3.168,6.16,32.0
58.057,-3.149,5.824,32.0
56.933,-3.081,5.401,31.0
57.074,-3.083,5.11,17.0
60.265,-3.249,5.074,5.0
52.013,-2.814,5.848,31.0
59.009,-3.185,6.319,33.0
58.091,-3.129,5.908,32.0
57.367,-3.083,5.522,33.0
57.029,-3.058,5.184,30.0
60.304,-3.228,5.16,13.0
20.085,-1.235,-0.664,5.0
19.853,-1.227,-0.768,0.0
17.462,-1.085,-0.774,0.0
16.086,-1.005,-0.806,1.0
14.712,-0.924,-0.82,0.0
13.664,-0.863,-0.839,0.0
20.092,-1.272,-0.674,15.0
20.007,-1.273,-0.784,2.0
20.112,-1.286,-0.901,0.0
20.076,-1.291,-1.015,0.0
14.602,-0.944,-0.821,0.0
13.601,-0.884,-0.841,0.0
20.104,-1.308,-0.683,14.0
19.994,-1.307,-0.792,1.0
20.119,-1.322,-0.91,0.0
15.726,-1.039,-0.802,0.0
14.532,-0.965,-0.823,0.0
13.484,-0.9,-0.839,0.0
20.145,-1.346,-0.692,5.0
18.805,-1.263,-0.752,0.0
17.192,-1.16,-0.784,0.0
15.658,-1.062,-0.804,0.0
14.415,-0.983,-0.821,0.0
13.473,-0.923,-0.844,0.0
20.141,-1.381,-0.699,1.0
18.466,-1.273,-0.745,0.0
16.99,-1.176,-0.781,0.0
15.673,-1.09,-0.81,0.0
14.383,-1.005,-0.824,0.0
13.387,-0.94,-0.843,0.0
20.169,-1.418,-0.707,3.0
18.568,-1.312,-0.755,0.0
16.963,-1.204,-0.785,0.0
15.514,-1.106,-0.806,0.0
14.329,-1.027,-0.825,0.0
13.387,-0.964,-0.846,0.0
19.732,-1.422,-0.697,1.0
18.465,-1.337,-0.755,0.0
16.841,-1.225,-0.783,0.0
15.366,-1.122,-0.802,0.0
14.34,-1.052,-0.829,0.0
13.325,-0.982,-0.845,0.0
20.477,-1.511,-0.728,0.0
18.337,-1.359,-0.754,0.0
16.842,-1.253,-0.787,0.0
15.394,-1.151,-0.807,0.0
14.283,-1.072,-0.829,0.0
13.313,-1.004,-0.847,0.0
20.444,-1.543,-0.73,0.0
18.216,-1.381,-0.752,0.0
16.705,-1.272,-0.783,0.0
15.333,-1.172,-0.806,0.0
14.268,-1.096,-0.83,0.0
13.294,-1.025,-0.848,0.0
20.363,-1.572,-0.73,0.0
18.245,-1.414,-0.756,0.0
16.654,-1.296,-0.783,1.0
15.309,-1.196,-0.807,0.0
14.237,-1.117,-0.83,0.0
13.259,-1.045,-0.848,0.0
20.511,-1.617,-0.738,0.0
18.057,-1.43,-0.75,0.0
16.683,-1.326,-0.786,0.0
15.261,-1.218,-0.806,0.0
14.259,-1.143,-0.833,0.0
13.253,-1.067,-0.848,0.0
20.416,-1.644,-0.736,0.0
18.288,-1.479,-0.761,0.0
16.752,-1.36,-0.79,0.0
15.314,-1.248,-0.81,0.0
14.161,-1.159,-0.828,0.0
13.301,-1.093,-0.852,0.0
20.1,-1.652,-0.725,0.0
18.44,-1.522,-0.768,0.0
16.59,-1.374,-0.783,0.0
15.3,-1.272,-0.809,0.0
14.262,-1.191,-0.834,0.0
13.246,-1.11,-0.848,0.0
20.133,-1.688,-0.726,0.0
17.921,-1.508,-0.746,0.0
16.701,-1.411,-0.788,0.0
15.208,-1.29,-0.804,0.0
14.296,-1.217,-0.835,0.0
13.21,-1.129,-0.845,0.0
20.149,-1.722,-0.725,0.0
18.272,-1.567,-0.759,0.0
16.715,-1.439,-0.787,0.0
15.426,-1.333,-0.814,0.0
14.244,-1.235,-0.831,0.0
13.315,-1.159,-0.851,0.0
22.033,-1.918,-0.791,0.0
18.205,-1.59,-0.755,0.0
16.788,-1.472,-0.789,0.0
15.457,-1.36,-0.814,0.0
14.235,-1.257,-0.829,0.0
13.253,-1.175,-0.845,0.0
20.853,-1.849,-0.746,0.0
18.173,-1.617,-0.751,0.0
16.765,-1.497,-0.786,0.0
15.341,-1.374,-0.805,0.0
14.283,-1.284,-0.829,0.0
13.397,-1.209,-0.852,0.0
20.008,-1.805,-0.712,1.0
18.37,-1.663,-0.756,0.0
16.699,-1.517,-0.779,1.0
15.354,-1.4,-0.803,0.0
14.34,-1.312,-0.83,0.0
13.374,-1.228,-0.848,0.0
19.08,-1.751,-0.675,1.0
18.444,-1.698,-0.755,0.0
16.709,-1.544,-0.776,0.0
15.387,-1.426,-0.801,0.0
14.368,-1.336,-0.828,0.0
13.417,-1.252,-0.848,0.0
18.301,-1.707,-0.643,1.0
18.142,-1.698,-0.738,0.0
16.787,-1.576,-0.775,0.0
15.519,-1.462,-0.804,0.0
14.46,-1.367,-0.83,0.0
13.504,-1.28,-0.849,0.0
17.951,-1.701,-0.626,2.0
17.484,-1.662,-0.706,1.0
17.192,-1.64,-0.789,0.0
15.399,-1.473,-0.793,0.0
14.435,-1.386,-0.824,0.0
13.48,-1.298,-0.844,0.0
17.997,-1.732,-0.622,3.0
16.833,-1.625,-0.674,1.0
16.747,-1.622,-0.763,0.0
15.586,-1.514,-0.798,0.0
14.484,-1.411,-0.821,0.0
13.485,-1.318,-0.839,0.0
18.155,-1.773,-0.621,3.0
16.441,-1.611,-0.653,2.0
16.191,-1.591,-0.732,1.0
15.789,-1.556,-0.802,1.0
14.574,-1.441,-0.821,0.0
13.481,-1.337,-0.834,0.0
18.05,-1.789,-0.61,12.0
16.345,-1.624,-0.643,3.0
15.697,-1.564,-0.704,1.0
15.646,-1.564,-0.789,0.0
14.658,-1.47,-0.82,0.0
13.604,-1.368,-0.836,0.0
17.933,-1.802,-0.599,19.0
16.357,-1.648,-0.636,8.0
15.338,-1.55,-0.681,2.0
15.097,-1.53,-0.754,0.0
14.877,-1.512,-0.825,0.0
13.771,-1.404,-0.84,0.0
17.813,-1.814,-0.587,17.0
16.473,-1.682,-0.633,11.0
15.143,-1.551,-0.665,1.0
14.693,-1.509,-0.727,1.0
14.612,-1.505,-0.804,0.0
14.036,-1.45,-0.849,0.0
18.159,-1.874,-0.589,20.0
16.541,-1.711,-0.627,14.0
15.259,-1.583,-0.662,2.0
14.331,-1.491,-0.702,1.0
14.239,-1.485,-0.776,0.0
14.031,-1.467,-0.841,0.0
18.176,-1.899,-0.58,17.0
16.5,-1.728,-0.617,15.0
15.366,-1.614,-0.659,4.0
14.164,-1.492,-0.686,1.0
13.891,-1.467,-0.749,0.0
13.8,-1.461,-0.82,0.0
18.364,-1.942,-0.576,20.0
16.613,-1.762,-0.612,15.0
15.403,-1.637,-0.651,10.0
14.159,-1.509,-0.678,1.0
13.544,-1.447,-0.722,0.0
13.479,-1.444,-0.793,0.0
18.444,-1.974,-0.567,21.0
16.696,-1.791,-0.605,15.0
15.361,-1.652,-0.64,13.0
14.307,-1.542,-0.676,2.0
13.336,-1.441,-0.703,1.0
13.201,-1.43,-0.768,0.0
18.519,-2.004,-0.558,21.0
17.024,-1.847,-0.606,18.0
15.311,-1.665,-0.629,14.0
14.349,-1.564,-0.669,8.0
13.302,-1.453,-0.693,1.0
12.912,-1.414,-0.743,0.0
18.613,-2.037,-0.549,18.0
17.134,-1.879,-0.599,20.0
15.335,-1.685,-0.619,13.0
14.382,-1.584,-0.661,12.0
13.375,-1.477,-0.688,1.0
12.654,-1.4,-0.72,0.0
18.73,-2.071,-0.54,19.0
17.234,-1.909,-0.59,21.0
15.689,-1.742,-0.623,17.0
14.391,-1.601,-0.651,13.0
13.535,-1.509,-0.686,1.0
12.558,-1.404,-0.705,1.0
18.93,-2.114,-0.532,27.0
17.325,-1.939,-0.581,16.0
15.817,-1.773,-0.617,18.0
14.38,-1.616,-0.64,12.0
13.741,-1.547,-0.687,2.0
12.607,-1.423,-0.699,1.0
19.056,-2.148,-0.521,23.0
17.454,-1.972,-0.572,16.0
15.989,-1.81,-0.611,17.0
14.454,-1.639,-0.632,11.0
13.679,-1.555,-0.673,8.0
12.736,-1.45,-0.696,0.0
19.23,-2.188,-0.511,28.0
17.603,-2.007,-0.564,16.0
16.137,-1.843,-0.604,16.0
14.543,-1.664,-0.625,11.0
13.707,-1.572,-0.664,13.0
12.908,-1.483,-0.695,0.0
19.422,-2.229,-0.501,28.0
17.793,-2.046,-0.555,16.0
16.259,-1.873,-0.596,15.0
15.042,-1.736,-0.634,15.0
13.739,-1.588,-0.654,12.0
13.113,-1.519,-0.695,1.0
19.84,-2.296,-0.496,19.0
18.073,-2.095,-0.549,21.0
16.347,-1.898,-0.585,14.0
15.178,-1.766,-0.627,15.0
13.893,-1.619,-0.65,13.0
13.144,-1.535,-0.686,7.0
20.214,-2.358,-0.488,19.0
18.205,-2.127,-0.538,19.0
16.487,-1.929,-0.577,14.0
15.262,-1.789,-0.618,15.0
14.115,-1.658,-0.648,12.0
13.129,-1.544,-0.674,11.0
20.348,-2.391,-0.474,20.0
18.512,-2.179,-0.531,17.0
16.737,-1.973,-0.571,14.0
15.305,-1.807,-0.606,17.0
14.254,-1.686,-0.642,13.0
13.145,-1.557,-0.663,11.0
20.639,-2.443,-0.462,20.0
18.726,-2.22,-0.52,17.0
17.011,-2.02,-0.565,14.0
15.416,-1.833,-0.597,16.0
14.377,-1.712,-0.634,13.0
13.278,-1.584,-0.658,11.0
21.241,-2.531,-0.457,22.0
18.957,-2.262,-0.51,18.0
17.395,-2.079,-0.562,15.0
15.617,-1.869,-0.59,14.0
14.513,-1.739,-0.627,14.0
13.489,-1.619,-0.656,11.0
21.627,-2.594,-0.445,22.0
19.301,-2.318,-0.501,27.0
17.678,-2.126,-0.554,16.0
15.773,-1.899,-0.581,13.0
14.715,-1.774,-0.622,14.0
13.783,-1.664,-0.657,11.0
21.902,-2.642,-0.429,20.0
19.488,-2.354,-0.487,26.0
17.901,-2.165,-0.544,16.0
16.011,-1.939,-0.574,13.0
14.914,-1.808,-0.616,14.0
13.9,-1.688,-0.649,13.0
22.427,-2.721,-0.418,26.0
19.872,-2.414,-0.477,19.0
18.118,-2.203,-0.533,16.0
16.334,-1.989,-0.57,14.0
15.126,-1.844,-0.609,15.0
13.992,-1.708,-0.639,13.0
22.767,-2.777,-0.401,27.0
20.288,-2.477,-0.467,18.0
18.326,-2.24,-0.52,17.0
16.673,-2.04,-0.565,14.0
15.309,-1.875,-0.601,15.0
14.137,-1.734,-0.631,13.0
23.42,-2.87,-0.389,24.0
20.619,-2.53,-0.453,19.0
18.537,-2.276,-0.507,17.0
16.991,-2.089,-0.558,14.0
15.459,-1.902,-0.591,15.0
14.332,-1.766,-0.625,13.0
23.955,-2.949,-0.373,21.0
20.968,-2.584,-0.44,18.0
18.796,-2.318,-0.495,16.0
17.329,-2.139,-0.551,15.0
15.631,-1.932,-0.581,15.0
14.481,-1.791,-0.616,13.0
24.735,-3.058,-0.36,23.0
21.551,-2.666,-0.429,18.0
19.035,-2.357,-0.481,16.0
17.647,-2.187,-0.543,15.0
15.939,-1.977,-0.576,14.0
14.709,-1.826,-0.61,13.0
25.338,-3.144,-0.342,21.0
22.028,-2.735,-0.415,19.0
19.451,-2.417,-0.471,16.0
17.877,-2.223,-0.531,16.0
16.121,-2.006,-0.565,13.0
14.961,-1.864,-0.605,14.0
26.02,-3.239,-0.323,13.0
22.647,-2.821,-0.403,20.0
20.066,-2.501,-0.464,20.0
18.15,-2.264,-0.519,17.0
16.505,-2.06,-0.561,14.0
15.213,-1.901,-0.599,14.0
0.0,0.0,0.0,0.0
23.083,-2.884,-0.385,26.0
20.541,-2.568,-0.453,22.0
18.359,-2.296,-0.505,17.0
16.877,-2.113,-0.555,14.0
15.433,-1.933,-0.59,15.0
29.747,-3.724,-0.305,21.0
23.387,-2.929,-0.365,29.0
20.882,-2.617,-0.438,19.0
18.649,-2.338,-0.493,16.0
17.253,-2.164,-0.548,15.0
15.622,-1.961,-0.581,15.0
30.8,-3.864,-0.282,10.0
24.262,-3.045,-0.352,17.0
21.167,-2.658,-0.42,17.0
19.076,-2.397,-0.483,17.0
17.549,-2.206,-0.538,15.0
15.918,-2.002,-0.574,14.0
35.604,-4.476,-0.286,16.0
0.0,0.0,0.0,0.0
0.0,0.0,0.0,0.0
19.603,-2.467,-0.474,18.0
17.843,-2.246,-0.528,16.0
16.149,-2.034,-0.564,13.0
36.05,-4.538,-0.249,17.0
28.863,-3.634,-0.354,2.0
22.685,-2.857,-0.4,20.0
20.047,-2.526,-0.462,21.0
18.286,-2.305,-0.52,18.0
16.519,-2.083,-0.558,14.0
37.037,-4.668,-0.214,14.0
0.0,0.0,0.0,0.0
23.149,-2.918,-0.381,22.0
20.475,-2.582,-0.449,20.0
18.453,-2.328,-0.503,17.0
16.931,-2.136,-0.553,15.0
37.924,-4.783,-0.176,23.0
29.779,-3.756,-0.297,22.0
23.771,-2.999,-0.364,23.0
20.839,-2.629,-0.433,17.0
18.81,-2.374,-0.492,17.0
17.434,-2.2,-0.549,16.0
38.529,-4.861,-0.135,14.0
30.962,-3.907,-0.274,9.0
24.39,-3.077,-0.346,18.0
21.194,-2.674,-0.416,17.0
19.277,-2.433,-0.482,17.0
17.659,-2.229,-0.536,15.0
0.0,0.0,0.0,0.0
35.833,-4.521,-0.276,12.0
0.0,0.0,0.0,0.0
0.0,0.0,0.0,0.0
19.757,-2.492,-0.471,19.0
18.167,-2.292,-0.531,18.0
0.0,0.0,0.0,0.0
36.422,-4.593,-0.239,13.0
0.0,0.0,0.0,0.0
22.773,-2.871,-0.395,21.0
20.231,-2.55,-0.459,21.0
18.361,-2.315,-0.515,19.0
0.0,0.0,0.0,0.0
37.424,-4.716,-0.203,17.0
29.356,-3.698,-0.316,20.0
23.245,-2.928,-0.376,23.0
20.679,-2.604,-0.446,19.0
18.561,-2.337,-0.499,17.0
46.798,-5.892,0.051,21.0
38.315,-4.822,-0.163,19.0
30.293,-3.811,-0.291,9.0
23.895,-3.006,-0.36,26.0
21.009,-2.642,-0.429,18.0
18.975,-2.386,-0.489,17.0
50.667,-6.37,0.112,5.0
38.728,-4.867,-0.121,14.0
35.472,-4.456,-0.3,10.0
0.0,0.0,0.0,0.0
21.406,-2.687,-0.412,17.0
19.397,-2.434,-0.478,17.0
0.0,0.0,0.0,0.0
40.91,-5.131,-0.081,16.0
35.936,-4.505,-0.263,17.0
26.063,-3.266,-0.333,8.0
22.622,-2.834,-0.41,21.0
20.03,-2.508,-0.47,22.0
62.606,-7.839,0.282,4.0
45.967,-5.752,-0.038,17.0
36.971,-4.624,-0.229,14.0
0.0,0.0,0.0,0.0
23.068,-2.882,-0.391,25.0
20.53,-2.564,-0.458,22.0
76.651,-9.573,0.432,5.0
46.383,-5.789,0.013,21.0
38.02,-4.742,-0.192,21.0
29.679,-3.699,-0.311,19.0
23.867,-2.973,-0.378,26.0
21.023,-2.618,-0.445,19.0
83.565,-10.405,0.568,7.0
47.093,-5.859,0.068,15.0
38.64,-4.804,-0.15,14.0
35.398,-4.398,-0.331,2.0
24.906,-3.092,-0.366,22.0
21.637,-2.685,-0.434,19.0
85.282,-10.583,0.676,3.0
50.962,-6.319,0.131,5.0
0.0,0.0,0.0,0.0
35.778,-4.429,-0.294,12.0
25.452,-3.148,-0.345,22.0
22.305,-2.757,-0.422,21.0
90.859,-11.233,0.823,4.0
52.454,-6.479,0.193,7.0
0.0,0.0,0.0,0.0
36.193,-4.463,-0.257,19.0
29.186,-3.596,-0.363,2.0
22.91,-2.82,-0.408,22.0
90.891,-11.191,0.923,9.0
78.742,-9.686,0.378,1.0
45.791,-5.627,-0.024,20.0
37.348,-4.585,-0.223,17.0
29.507,-3.619,-0.334,28.0
23.666,-2.9,-0.395,23.0
100.924,-12.371,1.138,6.0
83.689,-10.247,0.495,12.0
46.469,-5.684,0.025,21.0
38.32,-4.682,-0.187,20.0
30.288,-3.697,-0.31,17.0
24.565,-2.996,-0.383,21.0
107.711,-13.138,1.333,10.0
83.681,-10.195,0.587,8.0
0.0,0.0,0.0,0.0
38.839,-4.721,-0.147,14.0
35.433,-4.303,-0.324,4.0
25.204,-3.057,-0.365,17.0
73.289,-8.892,0.986,3.0
85.235,-10.329,0.69,7.0
51.493,-6.232,0.141,18.0
41.436,-5.009,-0.112,17.0
35.693,-4.31,-0.288,27.0
28.364,-3.421,-0.381,8.0
73.255,-8.838,1.064,17.0
90.179,-10.866,0.826,8.0
52.217,-6.283,0.198,4.0
45.673,-5.489,-0.076,7.0
0.0,0.0,0.0,0.0
28.943,-3.47,-0.358,14.0
73.204,-8.778,1.14,14.0
90.296,-10.813,0.924,12.0
77.82,-9.306,0.378,3.0
46.235,-5.521,-0.027,21.0
37.608,-4.485,-0.224,24.0
29.786,-3.547,-0.337,24.0
73.13,-8.712,1.217,11.0
107.693,-12.811,1.213,7.0
83.593,-9.93,0.493,12.0
47.051,-5.581,0.02,21.0
38.527,-4.563,-0.19,18.0
30.76,-3.638,-0.316,12.0
73.22,-8.664,1.293,9.0
112.579,-13.299,1.384,4.0
84.86,-10.009,0.587,11.0
0.0,0.0,0.0,0.0
39.228,-4.613,-0.153,14.0
35.435,-4.161,-0.329,12.0
73.307,-8.61,1.37,9.0
112.613,-13.205,1.499,11.0
75.213,-8.805,0.597,26.0
51.26,-5.991,0.126,25.0
42.006,-4.901,-0.122,17.0
35.766,-4.167,-0.296,23.0
73.317,-8.545,1.443,25.0
75.238,-8.754,1.076,23.0
75.216,-8.736,0.671,29.0
51.62,-5.985,0.178,5.0
0.0,0.0,0.0,0.0
36.919,-4.267,-0.269,15.0
73.291,-8.473,1.514,21.0
75.214,-8.679,1.15,30.0
75.206,-8.662,0.745,33.0
75.134,-8.638,0.333,11.0
46.169,-5.299,-0.043,20.0
37.89,-4.341,-0.239,22.0
75.173,-8.616,1.626,15.0
75.181,-8.601,1.22,34.0
75.24,-8.591,0.816,27.0
75.241,-8.575,0.405,16.0
46.647,-5.306,0.0,20.0
38.639,-4.387,-0.207,14.0
74.994,-8.518,1.692,30.0
75.209,-8.526,1.292,28.0
75.341,-8.523,0.889,21.0
75.324,-8.505,0.475,3.0
48.587,-5.475,0.045,10.0
0.0,0.0,0.0,0.0
74.971,-8.435,1.761,33.0
75.284,-8.453,1.363,22.0
112.466,-12.602,1.43,8.0
85.52,-9.563,0.617,7.0
0.0,0.0,0.0,0.0
41.98,-4.676,-0.149,17.0
75.113,-8.369,1.831,31.0
118.965,-13.226,2.26,18.0
114.268,-12.675,1.555,13.0
88.772,-9.826,0.72,4.0
51.377,-5.675,0.139,4.0
0.0,0.0,0.0,0.0
33.178,-3.658,0.838,41.0
33.16,-3.648,0.659,30.0
33.163,-3.64,0.48,16.0
33.13,-3.628,0.297,2.0
33.128,-3.619,0.118,0.0
45.612,-4.973,-0.082,22.0
33.135,-3.614,0.866,86.0
33.132,-3.605,0.686,80.0
33.127,-3.596,0.507,78.0
33.134,-3.588,0.325,72.0
33.117,-3.578,0.146,64.0
33.098,-3.568,-0.032,50.0
33.147,-3.575,0.893,84.0
33.138,-3.565,0.714,84.0
33.124,-3.555,0.534,85.0
33.107,-3.544,0.352,80.0
33.107,-3.536,0.173,75.0
33.103,-3.527,-0.005,85.0
33.167,-3.535,0.92,52.0
33.171,-3.526,0.741,69.0
33.149,-3.515,0.561,72.0
33.122,-3.503,0.378,73.0
33.124,-3.495,0.199,72.0
33.105,-3.484,0.02,68.0
78.42,-8.258,2.238,18.0
78.834,-8.279,1.823,7.0
119.184,-12.483,2.11,88.0
113.901,-11.898,1.389,11.0
33.116,-3.45,0.224,0.0
33.143,-3.444,0.045,4.0
78.334,-8.143,2.295,15.0
74.812,-7.756,1.786,13.0
104.498,-10.804,1.928,8.0
104.673,-10.794,1.353,15.0
87.313,-8.979,0.656,8.0
51.528,-5.285,0.107,2.0
78.585,-8.063,2.359,20.0
79.033,-8.086,1.943,8.0
74.848,-7.636,1.434,6.0
135.391,-13.774,1.847,113.0
87.786,-8.906,0.721,9.0
70.547,-7.138,0.196,1.0
73.992,-7.488,2.272,15.0
78.552,-7.927,1.986,22.0
74.804,-7.526,1.484,9.0
135.437,-13.588,1.94,77.0
88.081,-8.811,0.782,2.0
79.895,-7.969,0.277,9.0
78.597,-7.843,2.466,24.0
78.533,-7.812,2.037,24.0
135.444,-13.433,2.777,36.0
135.484,-13.397,2.028,150.0
111.047,-10.948,1.059,11.0
79.955,-7.859,0.327,9.0
78.873,-7.755,2.526,12.0
104.34,-10.226,2.773,7.0
135.515,-13.24,2.864,34.0
135.496,-13.196,2.112,150.0
111.067,-10.783,1.127,16.0
84.053,-8.136,0.397,4.0
78.419,-7.592,2.559,15.0
104.45,-10.079,2.839,13.0
119.234,-11.469,2.592,9.0
119.25,-11.433,1.931,9.0
111.534,-10.66,1.198,14.0
82.985,-7.906,0.44,6.0
78.596,-7.489,2.61,23.0
104.623,-9.935,2.904,6.0
193.38,-18.305,4.313,23.0
119.223,-11.247,1.997,37.0
112.204,-10.55,1.267,6.0
85.058,-7.972,0.497,10.0
78.857,-7.392,2.662,17.0
104.013,-9.716,2.942,7.0
119.251,-11.102,2.723,81.0
135.547,-12.576,2.342,150.0
119.059,-11.009,1.406,6.0
85.548,-7.884,0.544,12.0
72.305,-6.664,2.477,15.0
104.133,-9.563,2.998,12.0
193.51,-17.708,4.516,10.0
135.598,-12.365,2.409,150.0
119.118,-10.825,1.465,12.0
85.546,-7.747,0.586,8.0
78.695,-7.126,2.734,3.0
74.63,-6.732,2.185,5.0
119.283,-10.722,2.84,42.0
119.25,-10.681,2.174,35.0
119.148,-10.632,1.521,12.0
89.337,-7.943,0.652,5.0
67.853,-6.033,2.388,2.0
74.749,-6.621,2.221,6.0
119.169,-10.516,2.888,8.0
135.692,-11.928,2.534,99.0
119.147,-10.435,1.572,17.0
89.519,-7.812,0.691,5.0
67.938,-5.928,2.419,46.0
103.487,-8.995,3.117,7.0
119.214,-10.322,2.938,42.0
119.219,-10.283,2.272,34.0
119.188,-10.24,1.619,16.0
111.918,-9.578,0.907,2.0
67.941,-5.814,2.445,43.0
103.302,-8.805,3.15,8.0
72.479,-6.153,1.813,7.0
126.462,-10.693,2.456,51.0
119.18,-10.038,1.661,12.0
112.098,-9.403,0.947,4.0
67.943,-5.698,2.468,41.0
72.049,-6.017,2.221,9.0
119.292,-9.923,3.023,21.0
126.488,-10.479,2.498,87.0
119.222,-9.836,1.7,16.0
114.126,-9.378,1.001,6.0
67.929,-5.58,2.488,47.0
72.663,-5.942,2.262,11.0
71.673,-5.836,1.837,25.0
126.499,-10.256,2.535,63.0
119.29,-9.63,1.736,19.0
114.416,-9.198,1.037,8.0
74.739,-6.006,2.759,7.0
72.443,-5.795,2.275,14.0
71.684,-5.71,1.857,24.0
72.611,-5.758,1.474,7.0
67.903,-5.361,1.005,43.0
67.868,-5.336,0.631,74.0
67.923,-5.337,2.523,50.0
67.898,-5.311,2.148,84.0
67.878,-5.285,1.774,91.0
67.883,-5.262,1.393,71.0
67.891,-5.24,1.019,55.0
67.885,-5.217,0.645,10.0
72.04,-5.532,2.69,9.0
71.867,-5.492,2.287,12.0
119.322,-9.077,3.141,28.0
72.445,-5.485,1.5,24.0
119.326,-8.993,1.813,24.0
20.075,-1.505,0.194,0.0
67.914,-5.091,2.548,46.0
72.106,-5.379,2.307,29.0
72.193,-5.359,1.911,10.0
20.036,-1.48,0.417,3.0
20.02,-1.472,0.307,8.0
20.026,-1.465,0.196,35.0
67.899,-4.964,2.556,52.0
20.03,-1.457,0.643,5.0
20.006,-1.448,0.532,9.0
20.001,-1.44,0.419,10.0
20.012,-1.434,0.309,10.0
20.038,-1.429,0.198,25.0
67.898,-4.839,2.562,38.0
20.006,-1.418,0.644,10.0
19.993,-1.41,0.533,11.0
20.009,-1.404,0.42,9.0
20.049,-1.4,0.31,5.0
119.313,-8.291,1.19,15.0
67.898,-4.712,2.565,26.0
20.006,-1.381,0.645,11.0
20.034,-1.375,0.535,8.0
20.059,-1.37,0.422,1.0
119.429,-8.116,1.854,53.0
19.999,-1.351,0.199,16.0
20.034,-1.352,0.757,7.0
20.03,-1.344,0.646,10.0
20.029,-1.337,0.534,10.0
19.944,-1.324,0.42,11.0
19.93,-1.316,0.309,16.0
19.954,-1.311,0.199,26.0
19.995,-1.312,0.755,13.0
19.932,-1.3,0.642,16.0
19.939,-1.293,0.531,19.0
19.91,-1.284,0.418,18.0
19.936,-1.279,0.308,21.0
19.971,-1.274,0.198,25.0
19.983,-1.273,0.753,13.0
19.965,-1.264,0.642,21.0
19.941,-1.255,0.53,23.0
19.909,-1.246,0.416,19.0
19.934,-1.24,0.306,23.0
19.975,-1.236,0.196,24.0
19.989,-1.234,0.751,14.0
19.959,-1.225,0.639,22.0
19.942,-1.217,0.528,27.0
19.925,-1.209,0.414,22.0
19.941,-1.202,0.304,20.0
19.994,-1.198,0.194,150.0
19.992,-1.196,0.749,18.0
19.974,-1.187,0.637,23.0
19.954,-1.179,0.525,23.0
19.919,-1.169,0.411,18.0
19.943,-1.163,0.301,20.0
20.132,-1.167,0.192,5.0
19.991,-1.156,0.745,19.0
19.965,-1.147,0.633,23.0
19.957,-1.139,0.521,24.0
19.943,-1.132,0.408,24.0
19.96,-1.125,0.297,21.0
20.0,-1.12,0.186,25.0
20.019,-1.118,0.741,21.0
19.971,-1.108,0.628,22.0
19.962,-1.101,0.517,21.0
19.931,-1.091,0.403,19.0
19.953,-1.086,0.292,17.0
19.977,-1.08,0.181,20.0
20.004,-1.078,0.736,16.0
19.971,-1.069,0.623,19.0
19.959,-1.061,0.511,18.0
19.955,-1.054,0.398,14.0
19.972,-1.047,0.286,17.0
20.011,-1.042,0.175,19.0
20.021,-1.04,0.73,14.0
19.977,-1.03,0.617,13.0
20.056,-1.027,0.507,13.0
20.1,-1.022,0.394,19.0
20.147,-1.017,0.282,25.0
20.164,-1.011,0.17,14.0
20.078,-1.003,0.726,14.0
20.114,-0.998,0.614,22.0
20.129,-0.991,0.502,23.0
20.136,-0.984,0.388,21.0
20.162,-0.978,0.275,8.0
138.195,-6.657,1.118,21.0
20.085,-0.964,0.718,18.0
20.097,-0.957,0.606,19.0
20.12,-0.951,0.494,14.0
20.137,-0.944,0.38,3.0
194.535,-9.056,2.582,13.0
138.266,-6.389,1.062,14.0
20.108,-0.925,0.711,15.0
20.122,-0.919,0.598,8.0
193.883,-8.785,4.683,9.0
192.799,-8.665,3.556,11.0
194.671,-8.679,2.499,5.0
138.014,-6.106,0.999,24.0
115.917,-5.106,4.047,24.0
193.24,-8.442,5.661,20.0
193.335,-8.379,4.58,21.0
192.577,-8.276,3.461,26.0
0.0,0.0,0.0,0.0
138.292,-5.846,0.935,15.0
104.443,-4.394,3.595,17.0
193.915,-8.086,5.584,19.0
193.192,-7.988,4.477,9.0
192.858,-7.904,3.366,20.0
0.0,0.0,0.0,0.0
138.428,-5.575,0.862,10.0
206.922,-8.29,7.01,9.0
193.156,-7.668,5.456,9.0
192.952,-7.591,4.365,17.0
193.274,-7.533,3.267,8.0
138.414,-5.347,1.561,3.0
138.431,-5.298,0.783,8.0
194.415,-7.403,6.474,20.0
192.978,-7.28,5.34,22.0
193.78,-7.242,4.271,7.0
193.616,-7.168,3.159,5.0
138.591,-5.081,1.481,11.0
138.504,-5.029,0.701,2.0
193.756,-6.994,6.333,23.0
193.152,-6.906,5.226,18.0
204.398,-7.234,4.378,20.0
138.585,-4.857,2.173,4.0
138.587,-4.81,1.394,21.0
0.0,0.0,0.0,0.0
187.413,-6.399,6.006,48.0
187.449,-6.335,4.949,19.0
193.629,-6.475,4.02,9.0
138.594,-4.588,2.083,6.0
138.658,-4.541,1.302,25.0
0.0,0.0,0.0,0.0
194.499,-6.261,6.1,6.0
194.015,-6.177,4.988,23.0
194.454,-6.122,3.902,9.0
138.652,-4.317,1.985,7.0
138.612,-4.269,1.204,15.0
0.0,0.0,0.0,0.0
205.096,-6.195,6.281,13.0
194.445,-5.806,4.856,22.0
194.41,-5.741,3.758,23.0
138.463,-4.041,1.88,9.0
138.45,-3.993,1.098,23.0
0.0,0.0,0.0,0.0
0.0,0.0,0.0,0.0
205.494,-5.734,4.973,10.0
0.0,0.0,0.0,0.0
0.0,0.0,0.0,0.0
138.792,-3.732,0.992,13.0
0.0,0.0,0.0,0.0
0.0,0.0,0.0,0.0
118.261,-3.069,2.766,4.0
192.969,-4.943,3.422,18.0
0.0,0.0,0.0,0.0
138.846,-3.464,0.878,11.0
0.0,0.0,0.0,0.0
118.171,-2.877,3.333,6.0
118.163,-2.837,2.664,7.0
193.096,-4.574,3.261,16.0
138.957,-3.244,1.545,2.0
138.867,-3.196,0.758,6.0
0.0,0.0,0.0,0.0
209.598,-4.702,5.73,6.0
193.698,-4.279,4.197,7.0
192.991,-4.198,3.087,9.0
138.887,-2.975,1.421,12.0
0.0,0.0,0.0,0.0
0.0,0.0,0.0,0.0
113.037,-2.319,2.987,9.0
193.6,-3.907,4.018,20.0
138.93,-2.758,2.095,7.0
139.021,-2.715,1.294,18.0
0.0,0.0,0.0,0.0
0.0,0.0,0.0,0.0
112.86,-2.1,2.875,12.0
193.853,-3.544,3.839,19.0
139.046,-2.497,1.964,4.0
139.11,-2.452,1.161,20.0
0.0,0.0,0.0,0.0
0.0,0.0,0.0,0.0
112.737,-1.886,2.762,4.0
193.877,-3.179,3.648,6.0
0.0,0.0,0.0,0.0
138.752,-2.184,1.019,22.0
0.0,0.0,0.0,0.0
0.0,0.0,0.0,0.0
206.475,-3.064,4.847,17.0
204.114,-2.962,3.63,10.0
0.0,0.0,0.0,0.0
127.661,-1.773,0.807,10.0
0.0,0.0,0.0,0.0
0.0,0.0,0.0,0.0
210.504,-2.732,4.72,20.0
204.193,-2.584,3.416,19.0
139.402,-1.722,1.54,8.0
0.0,0.0,0.0,0.0
0.0,0.0,0.0,0.0
0.0,0.0,0.0,0.0
119.7,-1.334,2.555,21.0
119.746,-1.296,1.873,150.0
119.75,-1.259,1.192,150.0
0.0,0.0,0.0,0.0
0.0,0.0,0.0,0.0
48.29,-0.464,-0.348,0.0
119.742,-1.116,2.422,79.0
119.748,-1.079,1.74,79.0
119.705,-1.042,1.057,19.0
0.0,0.0,0.0,0.0
0.0,0.0,0.0,0.0
46.904,-0.366,-0.391,0.0
193.997,-1.459,3.702,18.0
119.698,-0.863,1.601,15.0
119.684,-0.826,0.918,7.0
0.0,0.0,0.0,0.0
0.0,0.0,0.0,0.0
46.465,-0.278,-0.443,0.0
119.839,-0.686,2.144,20.0
119.715,-0.648,1.458,17.0
111.054,-0.568,0.718,4.0
0.0,0.0,0.0,0.0
0.0,0.0,0.0,0.0
0.0,0.0,0.0,0.0
119.843,-0.473,1.998,150.0
119.69,-0.437,1.312,12.0
110.92,-0.372,0.582,2.0
53.574,-0.164,-0.029,0.0
0.0,0.0,0.0,0.0
40.488,-0.1,-0.484,0.0
113.889,-0.249,1.756,5.0
117.437,-0.222,1.139,12.0
98.898,-0.159,0.395,2.0
0.0,0.0,0.0,0.0
45.59,-0.046,-0.343,0.0
37.512,-0.027,-0.497,0.0
111.111,-0.05,1.57,9.0
111.111,-0.019,0.935,7.0
95.632,0.01,0.258,3.0
0.0,0.0,0.0,0.0
45.54,0.031,-0.402,1.0
35.757,0.034,-0.52,0.0
111.086,0.139,1.424,22.0
110.662,0.169,0.786,7.0
90.095,0.163,0.124,1.0
0.0,0.0,0.0,0.0
42.918,0.101,-0.435,1.0
0.0,0.0,0.0,0.0
119.762,0.351,1.375,16.0
104.137,0.334,0.6,2.0
0.0,0.0,0.0,0.0
0.0,0.0,0.0,0.0
0.0,0.0,0.0,0.0
33.011,0.142,-0.568,0.0
111.075,0.509,1.124,20.0
90.924,0.441,0.4,2.0
0.0,0.0,0.0,0.0
0.0,0.0,0.0,0.0
37.797,0.214,-0.487,0.0
31.257,0.185,-0.581,0.0
104.923,0.652,0.915,25.0
85.683,0.556,0.256,7.0
0.0,0.0,0.0,0.0
0.0,0.0,0.0,0.0
36.235,0.264,-0.518,0.0
30.054,0.227,-0.602,0.0
98.338,0.77,0.718,15.0
83.612,0.676,0.131,1.0
0.0,0.0,0.0,0.0
42.749,0.369,-0.427,1.0
34.599,0.307,-0.544,0.0
29.033,0.265,-0.623,0.0
98.091,0.924,0.573,5.0
78.506,0.759,0.008,0.0
0.0,0.0,0.0,0.0
40.846,0.416,-0.468,1.0
0.0,0.0,0.0,0.0
0.0,0.0,0.0,0.0
85.424,0.937,0.373,8.0
0.0,0.0,0.0,0.0
0.0,0.0,0.0,0.0
37.355,0.438,-0.483,0.0
31.318,0.375,-0.585,0.0
26.549,0.324,-0.648,0.0
81.058,1.012,0.233,4.0
0.0,0.0,0.0,0.0
43.906,0.57,-0.378,0.0
35.777,0.473,-0.517,0.0
29.94,0.403,-0.604,0.0
0.0,0.0,0.0,0.0
76.506,1.07,0.103,1.0
0.0,0.0,0.0,0.0
41.499,0.601,-0.421,0.0
33.697,0.496,-0.539,0.0
28.966,0.433,-0.629,0.0
24.891,0.378,-0.684,0.0
74.685,1.155,-0.015,0.0
0.0,0.0,0.0,0.0
41.614,0.663,-0.486,0.0
33.123,0.536,-0.581,0.0
27.279,0.448,-0.636,0.0
23.978,0.399,-0.696,0.0
0.0,0.0,0.0,0.0
0.0,0.0,0.0,0.0
0.0,0.0,0.0,0.0
30.59,0.538,-0.585,0.0
26.325,0.469,-0.655,0.0
22.828,0.412,-0.699,0.0
57.925,1.06,-0.195,0.0
45.613,0.845,-0.416,0.0
35.46,0.665,-0.527,0.0
29.271,0.556,-0.607,0.0
25.206,0.484,-0.668,0.0
22.245,0.432,-0.717,0.0
0.0,0.0,0.0,0.0
41.43,0.824,-0.444,0.0
33.504,0.674,-0.552,0.0
27.894,0.567,-0.623,0.0
24.104,0.496,-0.678,0.0
21.164,0.44,-0.717,0.0
48.992,1.03,-0.324,0.0
0.0,0.0,0.0,0.0
31.895,0.684,-0.578,0.0
26.546,0.575,-0.637,0.0
23.3,0.51,-0.693,0.0
20.628,0.456,-0.733,0.0
45.257,1.01,-0.374,0.0
35.947,0.81,-0.504,0.0
29.939,0.681,-0.592,0.0
25.743,0.591,-0.66,0.0
22.439,0.52,-0.705,0.0
20.036,0.469,-0.745,0.0
0.0,0.0,0.0,0.0
34.162,0.813,-0.536,0.0
28.65,0.688,-0.614,0.0
24.854,0.602,-0.679,0.0
21.7,0.53,-0.718,0.0
19.231,0.474,-0.747,0.0
0.0,0.0,0.0,0.0
32.15,0.805,-0.558,0.0
27.046,0.683,-0.626,0.0
23.651,0.602,-0.686,0.0
20.874,0.535,-0.726,0.0
18.715,0.484,-0.759,0.0
0.0,0.0,0.0,0.0
30.699,0.806,-0.586,0.0
26.154,0.691,-0.65,0.0
22.619,0.602,-0.695,0.0
20.171,0.541,-0.736,0.0
18.182,0.491,-0.769,0.0
0.0,0.0,0.0,0.0
28.564,0.783,-0.594,1.0
25.069,0.691,-0.666,0.0
21.906,0.608,-0.71,0.0
19.623,0.549,-0.75,0.0
17.589,0.495,-0.773,0.0
32.938,0.933,-0.551,0.0
28.435,0.811,-0.64,0.0
23.976,0.688,-0.678,0.0
21.049,0.608,-0.719,0.0
18.866,0.549,-0.754,0.0
17.063,0.499,-0.78,0.0
31.158,0.917,-0.576,0.0
26.505,0.785,-0.643,0.0
23.0,0.685,-0.691,0.0
20.33,0.609,-0.73,0.0
18.416,0.555,-0.768,0.0
16.576,0.503,-0.787,0.0
28.794,0.878,-0.583,0.0
25.263,0.775,-0.657,0.0
22.33,0.689,-0.71,0.0
19.683,0.61,-0.742,0.0
17.775,0.554,-0.773,0.0
16.253,0.51,-0.801,0.0
28.593,0.901,-0.629,1.0
24.157,0.765,-0.671,0.0
21.35,0.68,-0.716,0.0
19.009,0.609,-0.75,0.0
17.243,0.555,-0.78,0.0
15.685,0.507,-0.8,0.0
26.521,0.862,-0.631,0.0
23.357,0.763,-0.69,0.0
20.432,0.671,-0.722,0.0
18.412,0.607,-0.759,0.0
16.701,0.553,-0.785,0.0
15.325,0.51,-0.809,0.0
25.359,0.848,-0.648,0.0
22.367,0.752,-0.701,0.0
19.856,0.67,-0.737,0.0
17.847,0.605,-0.768,0.0
16.236,0.553,-0.792,0.0
14.933,0.511,-0.815,0.0
24.423,0.839,-0.668,0.0
21.415,0.739,-0.71,0.0
19.151,0.664,-0.746,0.0
17.256,0.601,-0.773,0.0
15.769,0.551,-0.798,0.0
14.619,0.513,-0.825,0.0
23.684,0.834,-0.69,0.0
20.663,0.731,-0.722,0.0
18.567,0.659,-0.756,0.0
16.767,0.598,-0.782,0.0
15.365,0.55,-0.805,0.0
14.248,0.512,-0.83,0.0
22.613,0.815,-0.7,0.0
19.966,0.722,-0.734,0.0
17.952,0.652,-0.764,0.0
16.326,0.596,-0.791,0.0
14.997,0.549,-0.814,0.0
13.902,0.511,-0.835,0.0
21.575,0.795,-0.707,0.0
19.184,0.709,-0.74,0.0
17.313,0.643,-0.768,0.0
15.812,0.589,-0.795,0.0
14.587,0.545,-0.818,0.0
13.58,0.51,-0.84,0.0
20.881,0.785,-0.722,0.0
18.501,0.698,-0.747,0.0
16.936,0.641,-0.782,0.0
15.403,0.585,-0.802,0.0
14.276,0.544,-0.826,0.0
13.25,0.507,-0.844,0.0
20.136,0.771,-0.733,0.0
18.131,0.697,-0.765,0.0
16.424,0.633,-0.788,0.0
15.056,0.582,-0.811,0.0
13.911,0.54,-0.83,0.0
12.845,0.5,-0.841,0.0
19.346,0.754,-0.739,0.0
17.409,0.68,-0.766,0.0
15.978,0.627,-0.796,0.0
14.731,0.579,-0.821,0.0
13.683,0.54,-0.842,0.0
12.512,0.495,-0.843,0.0
18.761,0.743,-0.751,0.0
17.033,0.676,-0.781,0.0
15.485,0.617,-0.799,0.0
14.331,0.572,-0.825,0.0
13.344,0.535,-0.845,0.0
12.232,0.491,-0.846,0.0
18.068,0.726,-0.756,0.0
16.494,0.665,-0.786,0.0
15.185,0.614,-0.812,0.0
13.981,0.566,-0.83,0.0
12.972,0.527,-0.845,0.0
11.93,0.486,-0.847,0.0
17.514,0.713,-0.765,0.0
16.045,0.655,-0.794,0.0
14.717,0.603,-0.813,0.0
13.651,0.56,-0.835,0.0
12.569,0.517,-0.842,0.0
11.664,0.481,-0.849,0.0
16.992,0.701,-0.773,0.0
15.657,0.647,-0.803,0.0
14.419,0.598,-0.823,0.0
13.402,0.557,-0.845,0.0
12.297,0.512,-0.846,0.0
11.438,0.478,-0.854,0.0
16.694,0.697,-0.79,0.0
15.212,0.636,-0.808,0.0
14.031,0.588,-0.827,0.0
12.999,0.546,-0.843,0.0
11.999,0.505,-0.848,0.0
11.28,0.476,-0.863,0.0
16.142,0.68,-0.793,0.0
14.75,0.623,-0.81,0.0
13.671,0.579,-0.83,0.0
12.645,0.536,-0.843,0.0
11.745,0.499,-0.851,0.0
11.085,0.472,-0.868,0.0
15.707,0.668,-0.8,0.0
14.401,0.614,-0.817,0.0
13.401,0.572,-0.838,0.0
12.339,0.528,-0.845,0.0
11.516,0.494,-0.855,0.0
10.888,0.468,-0.872,0.0
15.229,0.653,-0.803,0.0
14.215,0.611,-0.832,0.0
13.064,0.562,-0.84,0.0
12.052,0.52,-0.847,0.0
11.299,0.488,-0.86,0.0
10.656,0.461,-0.873,0.0
14.897,0.643,-0.812,0.0
13.759,0.595,-0.83,0.0
12.698,0.55,-0.84,0.0
11.731,0.509,-0.845,0.0
11.135,0.484,-0.867,0.0
10.46,0.456,-0.876,0.0
14.386,0.625,-0.81,0.0
13.466,0.586,-0.836,0.0
12.369,0.539,-0.84,0.0
11.551,0.504,-0.853,0.0
10.924,0.478,-0.87,0.0
10.275,0.45,-0.878,0.0
14.261,0.623,-0.828,0.0
13.13,0.574,-0.839,0.0
12.133,0.531,-0.846,0.0
11.296,0.495,-0.854,0.0
10.688,0.47,-0.87,0.0
10.136,0.446,-0.885,0.0
13.878,0.609,-0.831,0.0
12.861,0.565,-0.844,0.0
11.834,0.52,-0.846,0.0
11.168,0.492,-0.864,0.0
10.546,0.465,-0.877,0.0
10.021,0.442,-0.892,0.0
13.584,0.598,-0.836,0.0
12.48,0.55,-0.841,0.0
11.62,0.513,-0.85,0.0
10.946,0.483,-0.866,0.0
10.368,0.458,-0.881,0.0
9.839,0.436,-0.893,0.0
13.191,0.582,-0.835,0.0
12.215,0.539,-0.844,0.0
11.335,0.501,-0.849,0.0
10.743,0.475,-0.868,0.0
10.173,0.451,-0.882,0.0
9.723,0.431,-0.899,0.0
12.984,0.574,-0.844,0.0
11.89,0.526,-0.842,0.0
11.247,0.498,-0.862,0.0
10.546,0.467,-0.871,0.0
10.063,0.446,-0.89,0.0
9.599,0.426,-0.905,0.0
12.539,0.554,-0.837,0.0
11.712,0.518,-0.849,0.0
11.059,0.49,-0.866,0.0
10.369,0.459,-0.874,0.0
9.908,0.439,-0.893,0.0
9.427,0.418,-0.904,0.0
12.302,0.544,-0.842,0.0
11.472,0.507,-0.851,0.0
10.856,0.48,-0.869,0.0
10.227,0.453,-0.879,0.0
9.777,0.433,-0.897,0.0
9.277,0.411,-0.906,0.0
12.003,0.53,-0.841,0.0
11.301,0.499,-0.858,0.0
10.656,0.471,-0.871,0.0
10.094,0.446,-0.885,0.0
9.677,0.428,-0.904,0.0
9.148,0.405,-0.909,0.0
11.784,0.519,-0.845,0.0
11.139,0.491,-0.864,0.0
10.446,0.46,-0.871,0.0
9.983,0.44,-0.891,0.0
9.474,0.418,-0.901,0.0
9.009,0.398,-0.91,0.0
11.608,0.51,-0.852,0.0
10.945,0.481,-0.867,0.0
10.322,0.454,-0.877,0.0
9.827,0.432,-0.894,0.0
9.346,0.411,-0.904,0.0
8.904,0.392,-0.914,0.0
11.32,0.495,-0.849,0.0
10.727,0.469,-0.867,0.0
10.187,0.446,-0.882,0.0
9.676,0.423,-0.895,0.0
9.256,0.405,-0.911,0.0
8.77,0.384,-0.914,0.0
11.226,0.489,-0.86,0.0
10.549,0.459,-0.869,0.0
10.052,0.438,-0.887,0.0
9.594,0.418,-0.903,0.0
9.076,0.395,-0.907,0.0
8.69,0.378,-0.919,0.0
11.055,0.479,-0.864,0.0
10.421,0.451,-0.875,0.0
9.888,0.428,-0.888,0.0
9.477,0.41,-0.907,0.0
8.987,0.389,-0.912,0.0
8.61,0.373,-0.924,0.0
10.879,0.468,-0.867,0.0
10.266,0.441,-0.877,0.0
9.779,0.42,-0.893,0.0
9.332,0.401,-0.907,0.0
8.868,0.381,-0.914,0.0
8.447,0.363,-0.92,0.0
10.68,0.456,-0.867,0.0
10.138,0.433,-0.882,0.0
9.731,0.415,-0.903,0.0
9.201,0.392,-0.908,0.0
8.753,0.373,-0.915,0.0
8.389,0.358,-0.926,0.0
10.506,0.445,-0.868,0.0
10.009,0.424,-0.885,0.0
9.576,0.405,-0.903,0.0
8.998,0.38,-0.902,0.0
8.678,0.367,-0.92,0.0
8.295,0.35,-0.928,0.0
10.4,0.436,-0.875,0.0
9.917,0.416,-0.892,0.0
9.428,0.395,-0.903,0.0
8.978,0.376,-0.913,0.0
8.586,0.359,-0.923,0.0
8.225,0.344,-0.932,0.0
10.274,0.427,-0.879,0.0
9.824,0.408,-0.898,0.0
9.316,0.386,-0.905,0.0
8.903,0.369,-0.918,0.0
8.419,0.349,-0.917,0.0
8.124,0.336,-0.932,0.0
10.131,0.416,-0.881,0.0
9.655,0.396,-0.896,0.0
9.152,0.375,-0.902,0.0
8.773,0.359,-0.917,0.0
8.36,0.342,-0.922,0.0
8.048,0.329,-0.935,0.0
10.001,0.406,-0.884,0.0
9.549,0.387,-0.899,0.0
9.069,0.367,-0.906,0.0
8.661,0.351,-0.917,0.0
8.311,0.336,-0.928,0.0
7.954,0.321,-0.935,0.0
9.899,0.397,-0.888,0.0
9.412,0.377,-0.899,0.0
8.976,0.359,-0.909,0.0
8.543,0.341,-0.916,0.0
8.224,0.328,-0.93,0.0
7.851,0.313,-0.933,0.0
9.792,0.387,-0.891,0.0
9.291,0.367,-0.899,0.0
8.923,0.352,-0.916,0.0
8.436,0.332,-0.916,0.0
8.173,0.321,-0.935,0.0
7.782,0.306,-0.935,0.0
9.73,0.379,-0.898,0.0
9.258,0.36,-0.908,0.0
8.791,0.341,-0.913,0.0
8.37,0.324,-0.919,0.0
8.071,0.312,-0.933,0.0
7.71,0.298,-0.936,0.0
9.584,0.367,-0.897,0.0
9.155,0.35,-0.909,0.0
8.746,0.334,-0.92,0.0
8.31,0.317,-0.923,0.0
7.936,0.302,-0.927,0.0
7.628,0.29,-0.936,0.0
9.436,0.356,-0.894,0.0
9.04,0.34,-0.909,0.0
8.696,0.327,-0.925,0.0
8.252,0.309,-0.926,0.0
7.877,0.295,-0.93,0.0
7.564,0.282,-0.937,0.0
9.399,0.348,-0.902,0.0
8.94,0.33,-0.909,0.0
0.0,0.0,0.0,0.0
8.205,0.302,-0.931,0.0
7.876,0.289,-0.939,0.0
7.55,0.277,-0.944,0.0
9.32,0.338,-0.905,0.0
8.874,0.321,-0.913,0.0
8.42,0.304,-0.915,0.0
0.0,0.0,0.0,0.0
7.806,0.281,-0.94,0.0
7.498,0.269,-0.946,0.0
9.243,0.329,-0.908,0.0
8.746,0.31,-0.91,0.0
8.354,0.296,-0.917,0.0
0.0,0.0,0.0,0.0
7.705,0.272,-0.936,0.0
7.395,0.26,-0.941,0.0
9.128,0.318,-0.906,0.0
8.751,0.304,-0.919,0.0
8.306,0.288,-0.921,0.0
0.0,0.0,0.0,0.0
7.687,0.265,-0.942,0.0
7.363,0.253,-0.945,0.0
9.054,0.308,-0.909,0.0
8.605,0.292,-0.913,0.0
8.283,0.28,-0.927,0.0
7.94,0.268,-0.935,0.0
7.656,0.258,-0.946,0.0
0.0,0.0,0.0,0.0
8.975,0.298,-0.91,0.0
8.58,0.284,-0.919,0.0
8.294,0.274,-0.936,0.0
0.0,0.0,0.0,0.0
7.536,0.247,-0.939,0.0
7.292,0.239,-0.951,0.0
8.93,0.289,-0.914,0.0
8.53,0.275,-0.922,0.0
8.162,0.263,-0.929,0.0
0.0,0.0,0.0,0.0
7.544,0.241,-0.947,0.0
0.0,0.0,0.0,0.0
8.823,0.278,-0.911,0.0
8.406,0.264,-0.916,0.0
8.104,0.254,-0.93,0.0
0.0,0.0,0.0,0.0
7.41,0.23,-0.937,0.0
7.148,0.221,-0.945,0.0
8.813,0.27,-0.918,0.0
8.431,0.257,-0.927,0.0
8.035,0.244,-0.929,0.0
0.0,0.0,0.0,0.0
7.38,0.223,-0.94,0.0
7.1,0.213,-0.945,0.0
8.725,0.259,-0.916,0.0
8.344,0.247,-0.924,0.0
8.035,0.237,-0.936,0.0
0.0,0.0,0.0,0.0
7.364,0.215,-0.944,0.0
7.071,0.206,-0.947,0.0
8.698,0.251,-0.92,0.0
8.266,0.237,-0.922,0.0
7.925,0.226,-0.93,0.0
0.0,0.0,0.0,0.0
0.0,0.0,0.0,0.0
7.04,0.198,-0.949,0.0
8.657,0.241,-0.923,0.0
8.22,0.228,-0.923,0.0
7.858,0.217,-0.928,0.0
7.546,0.207,-0.935,0.0
0.0,0.0,0.0,0.0
0.0,0.0,0.0,0.0
8.545,0.23,-0.917,0.0
0.0,0.0,0.0,0.0
7.828,0.208,-0.93,0.0
0.0,0.0,0.0,0.0
0.0,0.0,0.0,0.0
6.944,0.182,-0.946,0.0
8.497,0.22,-0.918,0.0
0.0,0.0,0.0,0.0
7.775,0.199,-0.929,0.0
0.0,0.0,0.0,0.0
0.0,0.0,0.0,0.0
0.0,0.0,0.0,0.0
8.473,0.211,-0.92,0.0
0.0,0.0,0.0,0.0
7.753,0.191,-0.931,0.0
0.0,0.0,0.0,0.0
0.0,0.0,0.0,0.0
0.0,0.0,0.0,0.0
8.401,0.201,-0.918,0.0
0.0,0.0,0.0,0.0
7.659,0.181,-0.924,0.0
0.0,0.0,0.0,0.0
0.0,0.0,0.0,0.0
0.0,0.0,0.0,0.0
8.384,0.192,-0.92,0.0
0.0,0.0,0.0,0.0
7.71,0.174,-0.935,0.0
0.0,0.0,0.0,0.0
0.0,0.0,0.0,0.0
0.0,0.0,0.0,0.0
8.336,0.182,-0.919,0.0
7.993,0.173,-0.927,0.0
0.0,0.0,0.0,0.0
0.0,0.0,0.0,0.0
0.0,0.0,0.0,0.0
0.0,0.0,0.0,0.0
8.371,0.174,-0.927,0.0
7.986,0.164,-0.93,0.0
0.0,0.0,0.0,0.0
0.0,0.0,0.0,0.0
0.0,0.0,0.0,0.0
0.0,0.0,0.0,0.0
8.3,0.163,-0.923,0.0
7.93,0.155,-0.927,0.0
0.0,0.0,0.0,0.0
0.0,0.0,0.0,0.0
0.0,0.0,0.0,0.0
0.0,0.0,0.0,0.0
8.274,0.154,-0.923,0.0
7.957,0.146,-0.933,0.0
0.0,0.0,0.0,0.0
0.0,0.0,0.0,0.0
0.0,0.0,0.0,0.0
0.0,0.0,0.0,0.0
8.268,0.145,-0.925,0.0
7.926,0.137,-0.932,0.0
7.589,0.13,-0.935,0.0
0.0,0.0,0.0,0.0
7.052,0.119,-0.951,0.0
0.0,0.0,0.0,0.0
8.255,0.135,-0.926,0.0
7.901,0.128,-0.931,0.0
7.571,0.121,-0.935,0.0
0.0,0.0,0.0,0.0
0.0,0.0,0.0,0.0
0.0,0.0,0.0,0.0
8.231,0.126,-0.925,0.0
7.891,0.119,-0.932,0.0
7.618,0.114,-0.943,0.0
0.0,0.0,0.0,0.0
0.0,0.0,0.0,0.0
0.0,0.0,0.0,0.0
8.188,0.116,-0.922,0.0
7.88,0.11,-0.932,0.0
7.572,0.104,-0.938,0.0
0.0,0.0,0.0,0.0
0.0,0.0,0.0,0.0
0.0,0.0,0.0,0.0
8.193,0.107,-0.924,0.0
7.903,0.102,-0.936,0.0
7.57,0.096,-0.939,0.0
0.0,0.0,0.0,0.0
0.0,0.0,0.0,0.0
0.0,0.0,0.0,0.0
8.201,0.098,-0.925,0.0
7.86,0.092,-0.931,0.0
7.589,0.087,-0.942,0.0
0.0,0.0,0.0,0.0
0.0,0.0,0.0,0.0
0.0,0.0,0.0,0.0
8.194,0.088,-0.925,0.0
7.798,0.082,-0.924,0.0
7.554,0.079,-0.938,0.0
0.0,0.0,0.0,0.0
0.0,0.0,0.0,0.0
0.0,0.0,0.0,0.0
8.197,0.079,-0.926,0.0
7.911,0.075,-0.938,0.0
7.543,0.07,-0.937,0.0
0.0,0.0,0.0,0.0
0.0,0.0,0.0,0.0
0.0,0.0,0.0,0.0
8.22,0.07,-0.928,0.0
7.886,0.065,-0.935,0.0
7.528,0.061,-0.935,0.0
0.0,0.0,0.0,0.0
0.0,0.0,0.0,0.0
0.0,0.0,0.0,0.0
8.208,0.06,-0.926,0.0
7.88,0.056,-0.933,0.0
7.532,0.052,-0.934,0.0
0.0,0.0,0.0,0.0
0.0,0.0,0.0,0.0
0.0,0.0,0.0,0.0
8.232,0.051,-0.927,0.0
0.0,0.0,0.0,0.0
7.624,0.044,-0.945,0.0
0.0,0.0,0.0,0.0
0.0,0.0,0.0,0.0
0.0,0.0,0.0,0.0
8.213,0.042,-0.924,0.0
0.0,0.0,0.0,0.0
7.605,0.036,-0.941,0.0
0.0,0.0,0.0,0.0
0.0,0.0,0.0,0.0
0.0,0.0,0.0,0.0
8.266,0.033,-0.928,0.0
7.902,0.03,-0.931,0.0
7.604,0.027,-0.939,0.0
0.0,0.0,0.0,0.0
0.0,0.0,0.0,0.0
0.0,0.0,0.0,0.0
8.285,0.023,-0.928,0.0
7.859,0.021,-0.924,0.0
7.642,0.018,-0.941,0.0
0.0,0.0,0.0,0.0
0.0,0.0,0.0,0.0
0.0,0.0,0.0,0.0
8.277,0.014,-0.924,0.0
7.894,0.012,-0.926,0.0
7.604,0.01,-0.934,0.0
0.0,0.0,0.0,0.0
0.0,0.0,0.0,0.0
0.0,0.0,0.0,0.0
8.297,0.005,-0.924,0.0
8.009,0.003,-0.936,0.0
7.626,0.001,-0.934,0.0
0.0,0.0,0.0,0.0
0.0,0.0,0.0,0.0
0.0,0.0,0.0,0.0
8.293,-0.003,-0.92,0.0
7.995,-0.005,-0.931,0.0
7.688,-0.006,-0.938,0.0
0.0,0.0,0.0,0.0
0.0,0.0,0.0,0.0
0.0,0.0,0.0,0.0
8.386,-0.013,-0.926,0.0
8.06,-0.014,-0.935,0.0
7.714,-0.015,-0.938,0.0
0.0,0.0,0.0,0.0
0.0,0.0,0.0,0.0
0.0,0.0,0.0,0.0
8.412,-0.022,-0.925,0.0
8.085,-0.023,-0.934,0.0
7.735,-0.023,-0.936,0.0
0.0,0.0,0.0,0.0
0.0,0.0,0.0,0.0
0.0,0.0,0.0,0.0
8.425,-0.031,-0.922,0.0
8.067,-0.031,-0.927,0.0
7.719,-0.032,-0.93,0.0
0.0,0.0,0.0,0.0
0.0,0.0,0.0,0.0
0.0,0.0,0.0,0.0
8.458,-0.04,-0.921,0.0
8.106,-0.04,-0.927,0.0
7.794,-0.04,-0.934,0.0
0.0,0.0,0.0,0.0
0.0,0.0,0.0,0.0
0.0,0.0,0.0,0.0
8.48,-0.049,-0.918,0.0
8.143,-0.049,-0.926,0.0
7.821,-0.049,-0.933,0.0
0.0,0.0,0.0,0.0
7.175,-0.047,-0.936,0.0
0.0,0.0,0.0,0.0
8.51,-0.059,-0.915,0.0
8.21,-0.058,-0.928,0.0
7.807,-0.057,-0.925,0.0
0.0,0.0,0.0,0.0
0.0,0.0,0.0,0.0
7.039,-0.055,-0.952,0.0
8.599,-0.068,-0.918,0.0
8.239,-0.067,-0.925,0.0
7.93,-0.066,-0.934,0.0
0.0,0.0,0.0,0.0
0.0,0.0,0.0,0.0
7.061,-0.063,-0.95,0.0
8.687,-0.078,-0.921,0.0
8.31,-0.076,-0.927,0.0
7.956,-0.074,-0.931,0.0
0.0,0.0,0.0,0.0
7.332,-0.071,-0.94,0.0
7.134,-0.071,-0.954,0.0
8.729,-0.087,-0.919,0.0
8.346,-0.085,-0.924,0.0
8.025,-0.083,-0.932,0.0
0.0,0.0,0.0,0.0
0.0,0.0,0.0,0.0
7.129,-0.078,-0.947,0.0
8.769,-0.096,-0.915,0.0
8.421,-0.094,-0.925,0.0
8.053,-0.091,-0.929,0.0
0.0,0.0,0.0,0.0
0.0,0.0,0.0,0.0
7.195,-0.086,-0.949,0.0
8.83,-0.105,-0.914,0.0
8.498,-0.103,-0.926,0.0
8.094,-0.099,-0.926,0.0
7.765,-0.097,-0.932,0.0
7.509,-0.095,-0.942,0.0
7.208,-0.093,-0.944,0.0
8.916,-0.115,-0.915,0.0
8.54,-0.111,-0.922,0.0
8.142,-0.108,-0.924,0.0
7.845,-0.105,-0.934,0.0
7.545,-0.103,-0.94,0.0
7.246,-0.1,-0.942,0.0
9.016,-0.124,-0.916,0.0
8.591,-0.12,-0.92,0.0
8.254,-0.117,-0.929,0.0
7.908,-0.113,-0.934,0.0
7.575,-0.11,-0.936,0.0
7.327,-0.108,-0.945,0.0
9.036,-0.133,-0.909,0.0
8.712,-0.13,-0.924,0.0
8.286,-0.125,-0.924,0.0
7.962,-0.121,-0.932,0.0
0.0,0.0,0.0,0.0
7.393,-0.115,-0.946,0.0
9.118,-0.142,-0.908,0.0
8.725,-0.137,-0.916,0.0
8.426,-0.134,-0.93,0.0
8.034,-0.129,-0.932,0.0
7.732,-0.126,-0.939,0.0
7.413,-0.122,-0.94,0.0
9.199,-0.151,-0.906,0.0
8.844,-0.147,-0.919,0.0
8.467,-0.142,-0.925,0.0
8.091,-0.137,-0.929,0.0
7.773,-0.133,-0.935,0.0
7.497,-0.13,-0.943,0.0
9.292,-0.161,-0.904,0.0
8.874,-0.155,-0.912,0.0
8.537,-0.15,-0.923,0.0
8.17,-0.145,-0.929,0.0
7.886,-0.142,-0.939,0.0
7.563,-0.137,-0.942,0.0
9.399,-0.17,-0.904,0.0
8.985,-0.164,-0.913,0.0
8.585,-0.158,-0.918,0.0
8.226,-0.153,-0.925,0.0
7.912,-0.149,-0.933,0.0
7.646,-0.145,-0.943,0.0
9.52,-0.18,-0.904,0.0
9.075,-0.173,-0.911,0.0
8.657,-0.166,-0.916,0.0
8.38,-0.163,-0.932,0.0
8.012,-0.157,-0.935,0.0
7.727,-0.152,-0.943,0.0
9.597,-0.189,-0.9,0.0
9.203,-0.182,-0.912,0.0
8.81,-0.176,-0.921,0.0
8.41,-0.169,-0.925,0.0
8.073,-0.164,-0.932,0.0
7.793,-0.16,-0.941,0.0
9.708,-0.198,-0.898,0.0
9.289,-0.191,-0.909,0.0
8.904,-0.184,-0.919,0.0
8.492,-0.177,-0.923,0.0
8.151,-0.171,-0.93,0.0
7.879,-0.167,-0.942,0.0
9.814,-0.207,-0.895,0.0
9.372,-0.199,-0.904,0.0
9.018,-0.193,-0.919,0.0
8.629,-0.186,-0.926,0.0
8.241,-0.179,-0.929,0.0
7.914,-0.173,-0.935,0.0
9.934,-0.217,-0.892,0.0
9.501,-0.208,-0.904,0.0
9.092,-0.201,-0.914,0.0
8.73,-0.194,-0.925,0.0
8.34,-0.187,-0.929,0.0
7.999,-0.18,-0.934,0.0
10.068,-0.226,-0.891,0.0
9.647,-0.218,-0.905,0.0
9.194,-0.209,-0.911,0.0
8.791,-0.201,-0.919,0.0
8.48,-0.195,-0.932,0.0
8.104,-0.188,-0.935,0.0
10.192,-0.235,-0.887,0.0
9.726,-0.226,-0.899,0.0
9.32,-0.218,-0.911,0.0
8.898,-0.209,-0.918,0.0
8.516,-0.201,-0.924,0.0
8.169,-0.194,-0.93,0.0
10.313,-0.244,-0.883,0.0
9.868,-0.235,-0.897,0.0
9.419,-0.226,-0.907,0.0
8.982,-0.216,-0.914,0.0
8.603,-0.208,-0.921,0.0
8.32,-0.203,-0.935,0.0
10.465,-0.254,-0.881,0.0
9.954,-0.243,-0.89,0.0
9.552,-0.234,-0.905,0.0
9.151,-0.225,-0.917,0.0
8.745,-0.217,-0.923,0.0
8.342,-0.208,-0.925,0.0
10.608,-0.263,-0.877,0.0
10.119,-0.252,-0.89,0.0
9.675,-0.242,-0.902,0.0
9.222,-0.232,-0.91,0.0
8.867,-0.224,-0.922,0.0
8.465,-0.215,-0.926,0.0
10.805,-0.273,-0.876,0.0
10.256,-0.261,-0.886,0.0
9.818,-0.251,-0.9,0.0
9.386,-0.241,-0.912,0.0
8.983,-0.231,-0.92,0.0
8.609,-0.223,-0.928,0.0
10.955,-0.282,-0.871,0.0
10.403,-0.269,-0.883,0.0
9.925,-0.258,-0.895,0.0
9.463,-0.247,-0.904,0.0
9.047,-0.237,-0.912,0.0
8.686,-0.229,-0.922,0.0
11.105,-0.291,-0.866,0.0
10.539,-0.277,-0.877,0.0
10.115,-0.267,-0.896,0.0
9.657,-0.256,-0.907,0.0
9.178,-0.244,-0.911,0.0
8.851,-0.237,-0.926,0.0
11.315,-0.301,-0.864,0.0
10.69,-0.285,-0.873,0.0
10.245,-0.275,-0.891,0.0
9.719,-0.261,-0.897,0.0
9.339,-0.252,-0.912,0.0
8.982,-0.243,-0.924,0.0
11.487,-0.31,-0.858,0.0
10.923,-0.296,-0.874,0.0
10.365,-0.281,-0.884,0.0
9.909,-0.27,-0.898,0.0
9.495,-0.26,-0.911,0.0
9.085,-0.249,-0.92,0.0
11.709,-0.32,-0.856,0.0
11.087,-0.304,-0.868,0.0
10.512,-0.289,-0.879,0.0
10.041,-0.277,-0.893,0.0
9.643,-0.267,-0.909,0.0
9.198,-0.255,-0.915,0.0
11.958,-0.33,-0.853,0.0
11.275,-0.312,-0.864,0.0
10.711,-0.297,-0.877,0.0
10.219,-0.285,-0.892,0.0
9.72,-0.271,-0.899,0.0
9.293,-0.26,-0.909,0.0
12.247,-0.341,-0.853,0.0
11.478,-0.321,-0.86,0.0
10.935,-0.306,-0.877,0.0
10.333,-0.29,-0.884,0.0
9.906,-0.279,-0.899,0.0
9.457,-0.267,-0.909,0.0
12.495,-0.351,-0.849,0.0
11.708,-0.33,-0.857,0.0
11.113,-0.314,-0.872,0.0
10.529,-0.298,-0.882,0.0
10.065,-0.285,-0.896,0.0
9.655,-0.274,-0.91,0.0
12.877,-0.364,-0.852,0.0
11.974,-0.339,-0.855,0.0
11.315,-0.321,-0.868,0.0
10.713,-0.305,-0.879,0.0
10.213,-0.291,-0.891,0.0
9.731,-0.278,-0.9,0.0
13.115,-0.373,-0.845,0.0
12.327,-0.351,-0.859,0.0
11.481,-0.328,-0.86,0.0
10.905,-0.312,-0.875,0.0
10.387,-0.298,-0.888,0.0
9.901,-0.284,-0.898,0.0
13.523,-0.386,-0.847,0.0
12.533,-0.358,-0.851,0.0
11.733,-0.336,-0.858,0.0
11.114,-0.319,-0.872,0.0
10.562,-0.304,-0.884,0.0
10.063,-0.29,-0.895,0.0
13.729,-0.393,-0.836,0.0
12.895,-0.37,-0.852,0.0
12.01,-0.345,-0.856,0.0
11.326,-0.326,-0.868,0.0
10.749,-0.309,-0.88,0.0
10.249,-0.295,-0.893,0.0
14.115,-0.405,-0.833,0.0
13.243,-0.38,-0.851,0.0
12.342,-0.355,-0.857,0.0
11.505,-0.331,-0.86,0.0
10.965,-0.316,-0.877,0.0
10.41,-0.3,-0.887,0.0
14.488,-0.415,-0.829,0.0
13.504,-0.387,-0.843,0.0
12.608,-0.362,-0.853,0.0
11.779,-0.339,-0.859,0.0
11.158,-0.321,-0.872,0.0
10.589,-0.305,-0.883,0.0
21.85,-0.626,-1.21,0.0
13.776,-0.395,-0.834,0.0
12.974,-0.372,-0.853,0.0
12.05,-0.346,-0.856,0.0
11.356,-0.326,-0.866,0.0
10.838,-0.311,-0.884,0.0
15.274,-0.436,-0.817,0.0
14.116,-0.403,-0.829,0.0
13.347,-0.381,-0.853,0.0
12.385,-0.354,-0.857,0.0
11.597,-0.332,-0.863,0.0
11.019,-0.315,-0.878,0.0
21.888,-0.623,-1.13,0.0
14.52,-0.413,-0.825,0.0
13.575,-0.386,-0.842,0.0
12.623,-0.359,-0.85,0.0
11.864,-0.338,-0.861,0.0
11.207,-0.319,-0.871,0.0
16.245,-0.46,-0.808,0.0
21.85,-0.618,-1.201,0.0
13.92,-0.394,-0.837,0.0
13.016,-0.368,-0.852,0.0
12.153,-0.344,-0.859,0.0
11.418,-0.323,-0.866,0.0
21.885,-0.615,-1.047,1.0
15.33,-0.43,-0.813,0.0
14.255,-0.4,-0.83,0.0
13.389,-0.376,-0.85,0.0
12.527,-0.351,-0.861,0.0
11.663,-0.327,-0.862,0.0
21.892,-0.61,-1.006,3.0
21.904,-0.61,-1.12,0.0
21.822,-0.607,-1.229,0.0
13.663,-0.38,-0.842,0.0
12.795,-0.355,-0.855,0.0
11.933,-0.331,-0.859,0.0
18.0,-0.497,-0.793,1.0
21.878,-0.603,-1.077,1.0
21.9,-0.603,-1.191,0.0
14.046,-0.386,-0.838,0.0
13.153,-0.361,-0.853,0.0
12.265,-0.337,-0.859,0.0
21.867,-0.597,-0.921,6.0
21.872,-0.596,-1.035,0.0
21.908,-0.596,-1.15,0.0
14.393,-0.391,-0.831,0.0
13.503,-0.366,-0.85,0.0
12.549,-0.34,-0.855,0.0
21.892,-0.59,-0.88,28.0
17.704,-0.476,-0.803,0.0
21.906,-0.588,-1.107,0.0
14.783,-0.396,-0.825,0.0
13.754,-0.368,-0.839,0.0
12.948,-0.346,-0.857,0.0
21.882,-0.581,-0.837,6.0
18.063,-0.478,-0.784,8.0
18.134,-0.479,-0.881,0.0
18.179,-0.48,-0.98,0.0
14.179,-0.373,-0.837,0.0
13.28,-0.349,-0.853,0.0
18.159,-0.474,-0.66,65.0
18.106,-0.472,-0.751,11.0
18.035,-0.469,-0.842,2.0
18.142,-0.47,-0.942,6.0
18.139,-0.469,-1.036,0.0
13.619,-0.351,-0.848,0.0
18.112,-0.464,-0.623,155.0
18.13,-0.463,-0.717,26.0
18.042,-0.46,-0.807,2.0
18.138,-0.461,-0.907,17.0
18.142,-0.46,-1.001,2.0
18.142,-0.459,-1.095,0.0
18.111,-0.455,-0.588,156.0
18.139,-0.455,-0.683,55.0
18.081,-0.452,-0.774,12.0
18.024,-0.449,-0.867,12.0
18.141,-0.451,-0.966,22.0
18.143,-0.449,-1.06,1.0
18.157,-0.446,-0.554,150.0
18.095,-0.443,-0.646,158.0
18.121,-0.442,-0.74,150.0
18.1,-0.44,-0.835,5.0
18.144,-0.44,-0.931,54.0
18.126,-0.438,-1.024,8.0
18.163,-0.436,-0.519,63.0
18.106,-0.433,-0.611,194.0
18.131,-0.432,-0.705,150.0
18.09,-0.429,-0.799,3.0
18.139,-0.429,-0.895,64.0
18.127,-0.427,-0.989,10.0
18.166,-0.424,-0.484,7.0
18.107,-0.421,-0.576,157.0
18.154,-0.421,-0.671,151.0
18.109,-0.418,-0.765,27.0
18.061,-0.415,-0.857,12.0
18.144,-0.415,-0.955,25.0
26.672,-0.606,-0.659,0.0
18.162,-0.41,-0.542,60.0
18.093,-0.407,-0.634,162.0
18.125,-0.406,-0.731,64.0
18.072,-0.403,-0.822,3.0
18.13,-0.402,-0.919,35.0
28.176,-0.62,-0.642,0.0
18.18,-0.398,-0.508,3.0
