X,Y,Z,Reflectivity
28.534,1.95,-0.613,0.0
24.614,1.687,-0.669,0.0
21.612,1.486,-0.713,0.0
19.409,1.338,-0.751,0.0
17.62,1.219,-0.783,0.0
0.0,0.0,0.0,0.0
27.546,1.919,-0.628,0.0
23.845,1.666,-0.679,0.0
21.139,1.481,-0.725,0.0
18.827,1.323,-0.753,0.0
17.123,1.207,-0.783,0.0
31.095,2.2,-0.572,0.0
26.696,1.894,-0.643,0.0
23.226,1.652,-0.692,0.0
20.483,1.461,-0.73,0.0
18.423,1.317,-0.762,0.0
16.849,1.208,-0.793,0.0
29.959,2.157,-0.59,0.0
25.577,1.846,-0.65,0.0
22.672,1.641,-0.706,0.0
20.045,1.454,-0.741,0.0
18.034,1.312,-0.77,0.0
16.455,1.2,-0.797,0.0
28.765,2.106,-0.606,0.0
24.933,1.83,-0.667,0.0
21.783,1.602,-0.708,0.0
19.456,1.435,-0.745,0.0
17.694,1.308,-0.779,0.0
16.157,1.198,-0.804,0.0
0.0,0.0,0.0,0.0
24.024,1.791,-0.676,0.0
21.34,1.595,-0.723,0.0
19.024,1.425,-0.755,0.0
17.232,1.294,-0.783,0.0
15.737,1.185,-0.805,0.0
26.617,2.01,-0.634,0.0
23.246,1.759,-0.686,0.0
20.502,1.555,-0.723,0.0
18.385,1.398,-0.755,0.0
16.807,1.281,-0.787,0.0
15.408,1.177,-0.81,0.0
25.604,1.962,-0.645,0.0
22.609,1.736,-0.699,0.0
20.106,1.547,-0.737,0.0
18.025,1.39,-0.766,0.0
16.478,1.273,-0.795,0.0
15.141,1.173,-0.817,0.0
24.867,1.931,-0.661,0.0
21.886,1.703,-0.707,0.0
19.509,1.521,-0.742,0.0
17.671,1.38,-0.775,0.0
16.146,1.264,-0.801,0.0
14.782,1.16,-0.818,0.0
24.057,1.892,-0.673,0.0
21.374,1.684,-0.721,0.0
18.951,1.497,-0.748,0.0
17.24,1.364,-0.781,0.0
15.803,1.253,-0.807,0.0
14.474,1.15,-0.822,0.0
23.353,1.86,-0.687,0.0
20.519,1.637,-0.721,0.0
18.452,1.475,-0.754,0.0
16.857,1.35,-0.788,0.0
15.41,1.236,-0.809,0.0
14.222,1.143,-0.828,0.0
22.516,1.814,-0.694,0.0
20.046,1.618,-0.733,0.0
18.071,1.461,-0.765,0.0
16.437,1.331,-0.792,0.0
15.135,1.228,-0.816,0.0
13.923,1.132,-0.831,0.0
21.86,1.78,-0.705,0.0
19.52,1.592,-0.742,0.0
17.626,1.44,-0.771,0.0
16.126,1.32,-0.8,0.0
14.857,1.218,-0.822,0.0
13.78,1.132,-0.842,0.0
21.231,1.747,-0.716,0.0
18.996,1.566,-0.75,0.0
17.16,1.417,-0.776,0.0
15.696,1.298,-0.801,0.0
14.51,1.202,-0.824,0.0
13.397,1.112,-0.838,0.0
20.513,1.704,-0.721,0.0
18.555,1.544,-0.759,0.0
16.812,1.401,-0.784,0.0
15.46,1.291,-0.812,0.0
14.234,1.19,-0.829,0.0
13.243,1.109,-0.848,0.0
20.016,1.678,-0.733,0.0
18.026,1.514,-0.764,0.0
16.48,1.386,-0.793,0.0
15.154,1.276,-0.818,0.0
13.856,1.169,-0.828,0.0
13.006,1.099,-0.852,0.0
19.365,1.638,-0.737,0.0
17.614,1.492,-0.772,0.0
16.046,1.361,-0.796,0.0
14.688,1.247,-0.814,0.0
13.689,1.164,-0.838,0.0
12.684,1.08,-0.849,0.0
18.931,1.614,-0.748,0.0
17.185,1.467,-0.778,0.0
15.766,1.347,-0.805,0.0
14.432,1.235,-0.821,0.0
13.428,1.151,-0.841,0.0
12.424,1.066,-0.85,0.0
18.374,1.578,-0.753,0.0
16.786,1.443,-0.785,0.0
15.293,1.316,-0.803,0.0
14.129,1.218,-0.824,0.0
13.153,1.135,-0.843,0.0
12.22,1.056,-0.854,0.0
17.965,1.553,-0.762,0.0
16.369,1.417,-0.789,0.0
15.05,1.304,-0.812,0.0
13.898,1.206,-0.831,0.0
12.892,1.12,-0.846,0.0
11.953,1.04,-0.853,0.0
17.58,1.529,-0.772,0.0
16.043,1.397,-0.796,0.0
14.753,1.286,-0.817,0.0
13.685,1.194,-0.838,0.0
12.658,1.106,-0.848,0.0
11.776,1.03,-0.857,0.0
17.125,1.498,-0.776,0.0
15.664,1.372,-0.8,0.0
14.415,1.264,-0.819,0.0
13.374,1.174,-0.839,0.0
12.357,1.086,-0.846,0.0
11.583,1.019,-0.86,0.0
16.731,1.471,-0.783,0.0
15.398,1.355,-0.809,0.0
14.152,1.247,-0.825,0.0
13.199,1.164,-0.847,0.0
12.205,1.077,-0.854,0.0
11.33,1.001,-0.858,0.0
16.365,1.446,-0.789,0.0
15.036,1.329,-0.811,0.0
13.837,1.224,-0.827,0.0
12.976,1.149,-0.851,0.0
11.991,1.063,-0.856,0.0
11.175,0.992,-0.862,0.0
16.056,1.424,-0.797,0.0
14.802,1.314,-0.82,0.0
13.688,1.216,-0.837,0.0
12.529,1.114,-0.84,0.0
11.771,1.048,-0.857,0.0
10.998,0.98,-0.865,0.0
15.637,1.392,-0.799,0.0
14.45,1.287,-0.822,0.0
13.427,1.197,-0.841,0.0
12.466,1.112,-0.854,0.0
11.548,1.031,-0.858,0.0
10.845,0.969,-0.868,0.0
15.357,1.371,-0.807,0.0
14.149,1.264,-0.825,0.0
13.133,1.174,-0.841,0.0
12.229,1.094,-0.855,0.0
11.348,1.016,-0.859,0.0
10.682,0.958,-0.871,0.0
15.026,1.345,-0.81,0.0
13.848,1.241,-0.827,0.0
12.879,1.155,-0.843,0.0
11.99,1.076,-0.855,0.0
11.188,1.004,-0.863,0.0
10.564,0.949,-0.876,0.0
14.771,1.325,-0.818,0.0
13.687,1.229,-0.836,0.0
12.596,1.131,-0.842,0.0
11.726,1.054,-0.853,0.0
11.022,0.991,-0.865,0.0
10.382,0.934,-0.875,0.0
14.441,1.298,-0.819,0.0
13.411,1.206,-0.838,0.0
12.345,1.11,-0.842,0.0
11.518,1.037,-0.854,0.0
10.843,0.976,-0.867,0.0
10.32,0.93,-0.884,0.0
14.218,1.279,-0.826,0.0
13.175,1.186,-0.841,0.0
12.265,1.104,-0.854,1.0
11.355,1.023,-0.857,0.0
10.71,0.965,-0.87,0.0
10.181,0.918,-0.886,0.0
13.854,1.247,-0.824,0.0
13.037,1.174,-0.85,0.0
12.073,1.088,-0.857,0.0
11.199,1.009,-0.861,0.0
10.61,0.957,-0.877,0.0
10.089,0.91,-0.892,0.0
13.729,1.236,-0.835,0.0
12.735,1.147,-0.848,0.0
11.798,1.063,-0.853,0.0
11.013,0.993,-0.861,0.0
10.422,0.94,-0.875,0.0
9.877,0.891,-0.887,0.0
13.521,1.217,-0.84,0.0
12.409,1.117,-0.843,0.0
11.588,1.044,-0.854,0.0
10.838,0.976,-0.862,0.0
10.323,0.93,-0.881,0.0
9.772,0.881,-0.89,0.0
13.265,1.193,-0.842,0.0
12.274,1.104,-0.85,0.0
11.373,1.023,-0.853,0.0
10.721,0.965,-0.867,0.0
10.206,0.919,-0.884,0.0
9.702,0.874,-0.897,0.0
13.036,1.171,-0.844,0.0
12.148,1.091,-0.857,0.0
11.258,1.012,-0.859,0.0
10.628,0.955,-0.873,0.0
10.078,0.906,-0.886,0.0
9.538,0.858,-0.894,0.0
12.78,1.146,-0.844,0.0
11.896,1.067,-0.854,0.0
11.054,0.991,-0.857,0.0
10.499,0.942,-0.876,0.0
9.998,0.897,-0.892,0.0
9.498,0.852,-0.902,0.0
12.55,1.123,-0.844,0.0
11.721,1.049,-0.856,0.0
10.966,0.981,-0.864,0.0
10.331,0.925,-0.875,0.0
9.816,0.879,-0.888,0.0
9.359,0.838,-0.901,0.0
12.402,1.107,-0.85,0.0
11.525,1.028,-0.856,0.0
10.791,0.963,-0.864,0.0
10.282,0.918,-0.883,0.0
9.714,0.867,-0.891,0.0
9.282,0.828,-0.905,0.0
12.206,1.086,-0.851,0.0
11.305,1.006,-0.853,0.0
10.67,0.949,-0.867,0.0
10.148,0.903,-0.884,0.0
9.701,0.863,-0.901,0.0
9.208,0.819,-0.909,0.0
12.002,1.064,-0.851,0.0
11.208,0.993,-0.859,0.0
10.558,0.936,-0.87,0.0
10.004,0.887,-0.883,0.0
9.541,0.845,-0.898,0.0
9.066,0.803,-0.906,0.0
11.796,1.042,-0.85,0.0
11.018,0.973,-0.858,0.0
10.423,0.92,-0.871,0.0
9.9,0.874,-0.886,0.0
9.383,0.828,-0.894,0.0
9.047,0.798,-0.914,0.0
11.668,1.026,-0.855,0.0
10.916,0.959,-0.862,0.0
10.336,0.908,-0.876,0.0
9.861,0.866,-0.894,0.0
9.395,0.825,-0.906,0.0
8.974,0.788,-0.917,0.0
11.424,0.999,-0.85,0.0
10.778,0.942,-0.863,0.0
10.219,0.893,-0.878,0.0
9.749,0.852,-0.894,0.0
9.252,0.808,-0.902,0.0
8.848,0.773,-0.914,0.0
11.354,0.988,-0.857,0.0
10.669,0.928,-0.867,0.0
10.128,0.88,-0.881,0.0
9.713,0.844,-0.902,0.0
9.219,0.801,-0.909,0.0
8.788,0.763,-0.917,0.0
11.206,0.969,-0.858,0.0
10.566,0.913,-0.869,0.0
10.064,0.87,-0.886,0.0
9.573,0.827,-0.899,0.0
9.127,0.788,-0.91,0.0
8.695,0.75,-0.917,0.0
11.075,0.952,-0.859,0.0
10.474,0.9,-0.873,0.0
9.96,0.855,-0.887,0.0
9.477,0.813,-0.9,0.0
9.027,0.774,-0.909,0.0
8.643,0.741,-0.921,0.0
10.943,0.934,-0.86,0.0
10.359,0.884,-0.874,0.0
9.842,0.839,-0.887,0.0
9.446,0.805,-0.906,0.0
8.971,0.764,-0.913,0.0
8.592,0.731,-0.924,0.0
10.831,0.918,-0.862,0.0
10.295,0.872,-0.879,0.0
9.751,0.825,-0.888,0.0
9.312,0.788,-0.903,0.0
8.932,0.755,-0.917,0.0
8.461,0.715,-0.918,0.0
10.724,0.902,-0.864,0.0
10.201,0.857,-0.88,0.0
9.67,0.812,-0.89,0.0
0.0,0.0,0.0,0.0
8.863,0.743,-0.919,0.0
8.45,0.708,-0.925,0.0
10.64,0.888,-0.867,0.0
10.139,0.845,-0.884,0.0
9.64,0.803,-0.896,0.0
0.0,0.0,0.0,0.0
8.76,0.728,-0.916,0.0
8.43,0.701,-0.93,0.0
10.559,0.873,-0.87,0.0
10.062,0.831,-0.886,0.0
9.611,0.793,-0.902,0.0
0.0,0.0,0.0,0.0
8.703,0.717,-0.918,0.0
8.318,0.685,-0.925,0.0
10.468,0.858,-0.871,0.0
9.921,0.812,-0.882,0.0
9.549,0.781,-0.904,0.0
0.0,0.0,0.0,0.0
8.709,0.711,-0.926,0.0
8.236,0.672,-0.923,0.0
10.395,0.844,-0.874,0.0
9.861,0.8,-0.885,0.0
9.454,0.766,-0.903,0.0
0.0,0.0,0.0,0.0
0.0,0.0,0.0,0.0
8.24,0.666,-0.93,0.0
10.295,0.827,-0.873,0.0
9.845,0.79,-0.892,0.0
9.342,0.749,-0.9,0.0
8.936,0.716,-0.913,0.0
0.0,0.0,0.0,0.0
8.2,0.655,-0.932,0.0
10.257,0.815,-0.878,0.0
9.772,0.776,-0.892,0.0
9.407,0.746,-0.913,0.0
8.916,0.706,-0.917,0.0
0.0,0.0,0.0,0.0
8.111,0.641,-0.928,0.0
10.205,0.802,-0.881,0.0
9.746,0.765,-0.897,0.0
9.218,0.723,-0.901,0.0
8.808,0.69,-0.912,0.0
8.448,0.661,-0.924,0.0
8.045,0.629,-0.926,0.0
10.135,0.788,-0.882,0.0
9.638,0.748,-0.894,0.0
9.183,0.712,-0.904,0.0
8.76,0.678,-0.913,0.0
8.409,0.65,-0.925,0.0
8.06,0.622,-0.933,0.0
10.079,0.774,-0.883,0.0
9.624,0.738,-0.898,0.0
9.15,0.701,-0.906,0.0
8.744,0.669,-0.917,0.0
8.345,0.637,-0.923,0.0
7.997,0.61,-0.931,0.0
10.004,0.759,-0.883,0.0
9.537,0.722,-0.896,0.0
9.131,0.69,-0.91,0.0
8.661,0.654,-0.914,0.0
8.355,0.63,-0.929,0.0
7.967,0.6,-0.932,0.0
9.941,0.744,-0.883,0.0
9.554,0.714,-0.903,0.0
9.037,0.674,-0.906,0.0
8.664,0.645,-0.919,0.0
8.229,0.612,-0.92,0.0
7.88,0.585,-0.926,0.0
9.88,0.73,-0.883,0.0
9.401,0.693,-0.893,0.0
8.953,0.659,-0.902,0.0
8.613,0.633,-0.918,0.0
8.279,0.607,-0.93,0.0
7.873,0.577,-0.929,0.0
9.914,0.722,-0.891,0.0
9.419,0.685,-0.9,0.0
8.988,0.652,-0.91,0.0
8.628,0.625,-0.923,0.0
8.236,0.596,-0.929,0.0
7.875,0.568,-0.933,0.0
9.867,0.708,-0.891,0.0
9.365,0.671,-0.899,0.0
8.931,0.638,-0.908,0.0
0.0,0.0,0.0,0.0
8.178,0.582,-0.926,0.0
7.847,0.558,-0.933,0.0
9.815,0.693,-0.89,0.0
9.358,0.66,-0.902,0.0
8.875,0.625,-0.906,0.0
0.0,0.0,0.0,0.0
8.196,0.575,-0.931,0.0
7.854,0.55,-0.937,0.0
9.782,0.681,-0.891,0.0
9.292,0.645,-0.899,0.0
8.938,0.619,-0.916,0.0
0.0,0.0,0.0,0.0
8.206,0.566,-0.935,0.0
7.844,0.54,-0.938,0.0
9.765,0.668,-0.893,0.0
9.282,0.634,-0.901,0.0
8.894,0.606,-0.914,0.0
8.444,0.574,-0.916,0.0
8.108,0.55,-0.926,0.0
7.755,0.525,-0.93,0.0
9.731,0.655,-0.892,0.0
9.276,0.623,-0.903,0.0
8.849,0.593,-0.912,0.0
8.449,0.565,-0.919,0.0
8.066,0.538,-0.923,0.0
7.748,0.516,-0.931,0.0
9.71,0.642,-0.893,0.0
9.247,0.61,-0.903,0.0
8.82,0.581,-0.911,0.0
8.382,0.55,-0.914,0.0
8.093,0.53,-0.928,0.0
7.79,0.509,-0.938,0.0
9.684,0.629,-0.892,0.0
9.258,0.6,-0.905,0.0
8.843,0.572,-0.915,0.0
8.428,0.544,-0.92,0.0
8.069,0.519,-0.927,0.0
7.744,0.497,-0.934,0.0
9.693,0.618,-0.895,0.0
9.273,0.59,-0.908,0.0
8.818,0.559,-0.914,0.0
8.423,0.533,-0.921,0.0
8.095,0.511,-0.931,0.0
7.792,0.491,-0.941,0.0
9.712,0.608,-0.898,0.0
9.171,0.572,-0.899,0.0
8.812,0.548,-0.914,0.0
8.46,0.525,-0.926,0.0
8.073,0.5,-0.929,0.0
7.738,0.478,-0.935,0.0
9.692,0.594,-0.896,0.0
9.276,0.567,-0.91,0.0
8.808,0.537,-0.914,0.0
8.354,0.508,-0.915,0.0
8.096,0.491,-0.932,0.0
7.737,0.468,-0.935,0.0
9.706,0.583,-0.898,0.0
9.245,0.554,-0.907,0.0
8.849,0.529,-0.918,0.0
8.376,0.499,-0.917,0.0
8.076,0.48,-0.93,0.0
7.753,0.459,-0.937,0.0
9.684,0.57,-0.896,0.0
9.241,0.542,-0.907,0.0
8.82,0.516,-0.915,0.0
8.465,0.494,-0.927,0.0
8.052,0.468,-0.927,0.0
7.743,0.449,-0.935,0.0
9.713,0.559,-0.898,0.0
9.242,0.531,-0.906,0.0
8.85,0.507,-0.918,0.0
0.0,0.0,0.0,0.0
8.088,0.46,-0.93,0.0
7.79,0.442,-0.94,0.0
9.713,0.547,-0.897,0.0
9.232,0.518,-0.904,0.0
8.787,0.492,-0.91,0.0
0.0,0.0,0.0,0.0
8.087,0.45,-0.929,0.0
7.76,0.43,-0.935,0.0
9.705,0.534,-0.895,0.0
9.196,0.505,-0.899,0.0
8.792,0.481,-0.909,0.0
8.46,0.461,-0.923,0.0
8.112,0.441,-0.931,0.0
7.779,0.421,-0.936,0.0
9.741,0.524,-0.896,0.0
9.252,0.496,-0.903,0.0
8.878,0.474,-0.916,0.0
8.503,0.452,-0.926,0.0
8.17,0.433,-0.936,0.0
7.799,0.412,-0.937,0.0
9.759,0.512,-0.896,0.0
9.325,0.488,-0.908,0.0
8.846,0.461,-0.91,0.0
8.421,0.437,-0.915,0.0
8.182,0.423,-0.935,0.0
7.805,0.402,-0.935,0.0
9.788,0.501,-0.896,0.0
9.284,0.473,-0.901,0.0
8.895,0.452,-0.913,0.0
8.515,0.431,-0.922,0.0
8.217,0.414,-0.936,0.0
7.861,0.395,-0.94,0.0
9.816,0.49,-0.895,0.0
9.377,0.466,-0.907,0.0
8.886,0.44,-0.909,0.0
0.0,0.0,0.0,0.0
8.219,0.403,-0.933,0.0
7.846,0.384,-0.935,0.0
9.84,0.478,-0.893,0.0
9.356,0.452,-0.901,0.0
8.977,0.432,-0.915,0.0
8.54,0.41,-0.919,0.0
8.254,0.394,-0.934,0.0
7.861,0.374,-0.933,0.0
9.889,0.467,-0.894,0.0
9.364,0.441,-0.898,0.0
8.992,0.421,-0.912,0.0
8.581,0.4,-0.919,0.0
8.252,0.383,-0.93,0.0
7.907,0.366,-0.935,0.0
9.905,0.455,-0.891,0.0
9.468,0.433,-0.904,0.0
8.983,0.409,-0.907,0.0
0.0,0.0,0.0,0.0
8.256,0.373,-0.926,0.0
7.921,0.356,-0.933,0.0
9.938,0.444,-0.889,0.0
9.495,0.422,-0.902,0.0
9.1,0.403,-0.914,0.0
8.65,0.381,-0.918,0.0
8.302,0.364,-0.927,0.0
8.005,0.349,-0.939,0.0
9.974,0.432,-0.886,0.0
9.55,0.412,-0.901,0.0
9.092,0.39,-0.908,0.0
8.685,0.371,-0.917,0.0
8.343,0.355,-0.927,0.0
8.01,0.339,-0.934,0.0
10.032,0.421,-0.886,0.0
9.603,0.401,-0.901,0.0
9.127,0.38,-0.906,0.0
8.756,0.362,-0.919,0.0
8.371,0.345,-0.925,0.0
8.054,0.33,-0.934,0.0
10.089,0.411,-0.884,0.0
9.648,0.391,-0.899,0.0
9.217,0.371,-0.909,0.0
8.837,0.354,-0.921,0.0
8.382,0.334,-0.92,0.0
8.092,0.321,-0.933,0.0
10.152,0.4,-0.883,0.0
9.75,0.382,-0.901,0.0
9.23,0.36,-0.904,0.0
8.881,0.344,-0.92,0.0
8.465,0.326,-0.923,0.0
8.14,0.312,-0.933,0.0
10.224,0.389,-0.881,0.0
9.789,0.371,-0.898,0.0
9.277,0.349,-0.902,0.0
8.859,0.332,-0.911,0.0
8.57,0.319,-0.928,0.0
8.167,0.302,-0.929,0.0
10.308,0.379,-0.881,0.0
9.823,0.359,-0.893,0.0
9.337,0.34,-0.9,0.0
8.989,0.325,-0.917,0.0
8.605,0.309,-0.925,0.0
8.253,0.295,-0.933,0.0
10.355,0.368,-0.876,0.0
9.914,0.35,-0.893,0.0
9.468,0.332,-0.905,0.0
8.995,0.314,-0.91,0.0
8.638,0.299,-0.921,0.0
8.312,0.286,-0.932,0.0
10.432,0.357,-0.874,0.0
9.955,0.338,-0.888,0.0
9.538,0.322,-0.903,0.0
9.086,0.305,-0.911,0.0
8.686,0.29,-0.918,0.0
8.334,0.276,-0.927,0.0
10.506,0.346,-0.871,0.0
10.057,0.329,-0.888,0.0
9.618,0.313,-0.902,0.0
9.148,0.295,-0.909,0.0
8.787,0.282,-0.921,0.0
8.417,0.268,-0.928,0.0
10.677,0.338,-0.875,0.0
10.172,0.32,-0.889,0.0
9.696,0.303,-0.9,0.0
9.24,0.287,-0.909,0.0
8.876,0.274,-0.921,0.0
8.454,0.259,-0.924,0.0
10.811,0.329,-0.875,0.0
10.25,0.31,-0.885,0.0
9.783,0.293,-0.898,0.0
9.246,0.275,-0.9,0.0
8.934,0.264,-0.919,0.0
8.495,0.25,-0.92,0.0
10.91,0.318,-0.872,0.0
10.311,0.299,-0.88,0.0
9.888,0.284,-0.897,0.0
9.35,0.267,-0.9,0.0
9.007,0.255,-0.916,0.0
8.582,0.241,-0.92,0.0
11.013,0.308,-0.868,0.0
10.408,0.289,-0.877,0.0
9.96,0.274,-0.893,0.0
9.507,0.26,-0.905,0.0
9.076,0.246,-0.913,0.0
8.726,0.235,-0.926,0.0
11.161,0.298,-0.868,0.0
10.544,0.28,-0.877,0.0
10.081,0.265,-0.893,0.0
9.572,0.25,-0.9,0.0
9.126,0.236,-0.908,0.0
8.8,0.226,-0.923,0.0
11.278,0.288,-0.864,1.0
10.678,0.271,-0.876,0.0
10.173,0.256,-0.889,0.0
9.693,0.242,-0.9,0.0
9.238,0.228,-0.908,0.0
8.852,0.217,-0.918,0.0
11.39,0.278,-0.859,0.0
10.813,0.261,-0.874,0.0
10.271,0.246,-0.885,0.0
9.797,0.233,-0.898,0.0
9.339,0.22,-0.907,0.0
8.926,0.208,-0.915,0.0
11.46,0.266,-0.85,0.0
10.981,0.252,-0.874,0.0
10.367,0.236,-0.881,0.0
9.898,0.223,-0.895,0.0
9.418,0.211,-0.902,0.0
9.035,0.2,-0.915,0.0
11.637,0.257,-0.849,0.0
11.111,0.243,-0.87,0.0
10.479,0.227,-0.877,0.0
9.99,0.214,-0.89,0.0
9.568,0.203,-0.904,0.0
9.143,0.192,-0.913,0.0
11.814,0.247,-0.846,0.0
11.245,0.233,-0.866,1.0
10.652,0.219,-0.877,0.0
10.13,0.206,-0.889,0.0
9.713,0.195,-0.905,0.0
9.257,0.184,-0.912,0.0
12.036,0.238,-0.846,0.0
11.396,0.223,-0.862,1.0
10.782,0.209,-0.873,0.0
10.258,0.197,-0.887,0.0
9.808,0.186,-0.9,0.0
9.35,0.176,-0.908,0.0
12.318,0.23,-0.849,0.0
11.49,0.213,-0.853,0.0
10.985,0.201,-0.874,0.0
10.347,0.187,-0.88,0.0
9.903,0.178,-0.895,0.0
9.482,0.168,-0.908,0.0
12.52,0.221,-0.845,0.0
11.666,0.203,-0.849,0.0
11.158,0.193,-0.872,0.0
10.498,0.179,-0.878,0.0
10.043,0.169,-0.893,0.0
9.6,0.16,-0.905,0.0
12.76,0.212,-0.843,0.0
11.891,0.195,-0.848,0.0
11.281,0.183,-0.865,0.0
10.694,0.171,-0.878,0.0
10.183,0.161,-0.89,0.0
9.735,0.152,-0.903,0.0
13.13,0.204,-0.848,0.0
12.197,0.187,-0.852,0.0
11.416,0.173,-0.858,0.0
10.81,0.162,-0.871,0.0
10.327,0.153,-0.887,0.0
9.843,0.144,-0.898,0.0
13.392,0.195,-0.844,0.0
12.439,0.179,-0.85,0.0
11.601,0.164,-0.854,0.0
11.093,0.155,-0.877,0.0
10.433,0.144,-0.88,0.0
9.975,0.136,-0.895,0.0
13.667,0.186,-0.84,0.0
12.702,0.17,-0.848,0.0
11.8,0.156,-0.85,0.0
11.234,0.146,-0.87,0.0
10.597,0.136,-0.877,0.0
10.113,0.128,-0.891,0.0
13.902,0.175,-0.833,0.0
12.973,0.161,-0.846,0.0
12.072,0.148,-0.851,0.0
11.383,0.138,-0.863,0.0
10.752,0.128,-0.873,0.0
10.268,0.121,-0.888,0.0
14.26,0.167,-0.831,0.0
13.291,0.153,-0.845,0.0
12.367,0.14,-0.851,0.0
11.541,0.129,-0.857,0.0
11.011,0.121,-0.875,0.0
10.416,0.113,-0.884,0.0
14.547,0.157,-0.824,0.0
13.68,0.145,-0.847,0.0
12.588,0.132,-0.846,0.0
11.739,0.121,-0.852,0.0
11.215,0.113,-0.873,0.0
10.597,0.105,-0.881,0.0
14.907,0.148,-0.819,0.0
13.833,0.135,-0.833,0.0
12.935,0.124,-0.847,0.0
12.046,0.114,-0.853,0.0
11.357,0.105,-0.865,0.0
10.738,0.098,-0.874,0.0
15.27,0.139,-0.813,0.0
14.206,0.127,-0.831,0.0
13.328,0.117,-0.85,0.0
12.357,0.106,-0.854,0.0
11.548,0.097,-0.859,0.0
10.983,0.091,-0.875,0.0
15.807,0.13,-0.814,0.0
14.553,0.118,-0.826,0.0
13.549,0.108,-0.84,0.0
12.535,0.098,-0.844,0.0
11.765,0.09,-0.854,0.0
11.205,0.084,-0.872,0.0
15.992,0.119,-0.795,0.0
15.005,0.11,-0.825,0.0
13.867,0.099,-0.835,0.0
13.001,0.091,-0.852,0.0
12.079,0.083,-0.855,0.0
11.379,0.076,-0.865,0.0
16.625,0.111,-0.797,0.0
15.308,0.1,-0.814,0.0
14.291,0.091,-0.834,0.0
13.16,0.082,-0.839,0.0
12.407,0.076,-0.856,0.0
11.559,0.069,-0.858,0.0
17.061,0.102,-0.787,0.0
15.757,0.092,-0.809,0.0
14.565,0.083,-0.824,0.0
13.58,0.075,-0.84,0.0
12.86,0.069,-0.863,0.0
11.804,0.062,-0.854,0.0
17.664,0.093,-0.782,0.0
16.192,0.083,-0.801,0.0
15.064,0.075,-0.824,0.0
13.943,0.068,-0.837,0.0
12.953,0.061,-0.845,0.0
12.149,0.056,-0.856,0.0
18.086,0.083,-0.767,0.0
16.73,0.075,-0.796,0.0
15.417,0.067,-0.814,0.0
14.248,0.06,-0.829,0.0
13.362,0.055,-0.847,0.0
12.506,0.049,-0.858,0.0
18.716,0.074,-0.758,0.0
17.204,0.066,-0.787,0.0
15.801,0.059,-0.805,0.0
14.644,0.053,-0.823,0.0
13.608,0.047,-0.836,0.0
12.818,0.043,-0.854,0.0
19.488,0.066,-0.752,0.0
17.726,0.058,-0.776,0.0
16.409,0.051,-0.804,0.0
15.059,0.045,-0.818,0.0
14.136,0.041,-0.841,0.0
13.103,0.036,-0.848,0.0
20.025,0.056,-0.734,0.0
18.4,0.049,-0.77,0.0
16.836,0.043,-0.792,0.0
15.464,0.038,-0.81,0.0
14.446,0.034,-0.832,0.0
13.506,0.03,-0.848,0.0
20.926,0.047,-0.727,0.0
18.933,0.041,-0.756,0.0
17.475,0.036,-0.788,0.0
15.956,0.031,-0.804,0.0
14.819,0.027,-0.824,0.0
13.809,0.024,-0.84,0.0
21.799,0.039,-0.714,0.0
19.665,0.033,-0.746,0.0
18.101,0.028,-0.78,0.0
16.484,0.024,-0.798,0.0
15.284,0.021,-0.819,0.0
14.292,0.018,-0.84,0.0
22.659,0.029,-0.697,0.0
20.577,0.025,-0.739,0.0
18.598,0.021,-0.764,0.0
17.052,0.017,-0.791,0.0
15.867,0.015,-0.818,0.0
14.614,0.012,-0.829,0.0
23.865,0.021,-0.686,0.0
21.21,0.016,-0.719,0.0
19.353,0.013,-0.756,0.0
17.594,0.011,-0.78,0.0
16.304,0.008,-0.808,0.0
15.09,0.006,-0.826,0.0
25.268,0.012,-0.674,0.0
22.262,0.009,-0.709,0.0
20.213,0.006,-0.748,0.0
18.214,0.004,-0.77,0.0
16.86,0.002,-0.8,0.0
15.567,0.001,-0.819,0.0
26.528,0.003,-0.654,0.0
0.0,0.0,0.0,0.0
20.931,0.0,-0.732,0.0
19.005,-0.001,-0.765,0.0
17.493,-0.002,-0.794,0.0
15.952,-0.003,-0.807,0.0
28.078,-0.005,-0.634,0.0
24.648,-0.006,-0.684,0.0
21.827,-0.007,-0.718,0.0
19.672,-0.007,-0.751,0.0
17.769,-0.008,-0.77,0.0
16.648,-0.008,-0.808,0.0
29.904,-0.014,-0.614,0.0
26.129,-0.014,-0.671,0.0
22.987,-0.014,-0.708,0.0
20.555,-0.013,-0.742,0.0
18.702,-0.013,-0.771,0.0
17.085,-0.013,-0.793,0.0
31.381,-0.023,-0.579,0.0
27.432,-0.021,-0.647,0.0
23.825,-0.02,-0.684,0.0
21.382,-0.019,-0.727,0.0
19.447,-0.018,-0.761,0.0
17.688,-0.017,-0.784,1.0
33.789,-0.032,-0.552,0.0
28.678,-0.028,-0.616,0.0
24.851,-0.026,-0.662,0.0
22.429,-0.024,-0.715,0.0
20.025,-0.022,-0.742,0.0
18.357,-0.021,-0.775,0.0
36.92,-0.042,-0.525,0.0
31.386,-0.036,-0.608,0.0
26.71,-0.032,-0.655,0.0
23.623,-0.029,-0.704,0.0
20.934,-0.026,-0.731,0.0
19.131,-0.025,-0.767,0.0
40.287,-0.051,-0.489,0.0
0.0,0.0,0.0,0.0
28.67,-0.038,-0.643,0.0
24.682,-0.033,-0.683,0.0
22.024,-0.03,-0.723,0.0
19.781,-0.028,-0.751,0.0
45.493,-0.062,-0.456,0.0
35.482,-0.049,-0.539,0.0
0.0,0.0,0.0,0.0
26.149,-0.037,-0.669,0.0
23.232,-0.034,-0.714,0.0
20.725,-0.03,-0.743,0.0
45.417,-0.065,-0.359,1.0
0.0,0.0,0.0,0.0
32.038,-0.047,-0.583,0.0
27.37,-0.04,-0.641,0.0
24.154,-0.036,-0.69,0.0
21.715,-0.033,-0.732,0.0
0.0,0.0,0.0,0.0
0.0,0.0,0.0,0.0
35.076,-0.052,-0.563,0.0
29.034,-0.043,-0.618,0.0
25.808,-0.038,-0.682,0.0
22.6,-0.034,-0.714,0.0
0.0,0.0,0.0,0.0
45.516,-0.066,-0.399,1.0
37.81,-0.055,-0.526,0.0
0.0,0.0,0.0,0.0
26.949,-0.039,-0.655,0.0
23.765,-0.034,-0.7,0.0
0.0,0.0,0.0,0.0
0.0,0.0,0.0,0.0
39.986,-0.056,-0.471,0.0
0.0,0.0,0.0,0.0
28.59,-0.039,-0.634,0.0
24.819,-0.034,-0.678,0.0
0.0,0.0,0.0,0.0
0.0,0.0,0.0,0.0
45.377,-0.059,-0.437,1.0
0.0,0.0,0.0,0.0
30.526,-0.039,-0.611,0.0
26.6,-0.033,-0.669,0.0
99.23,-0.12,0.275,1.0
0.0,0.0,0.0,0.0
0.0,0.0,0.0,0.0
39.861,-0.046,-0.508,0.0
33.568,-0.037,-0.6,0.0
28.342,-0.031,-0.652,0.0
104.624,-0.11,0.514,2.0
0.0,0.0,0.0,0.0
0.0,0.0,0.0,0.0
0.0,0.0,0.0,0.0
34.484,-0.032,-0.543,0.0
29.415,-0.026,-0.614,0.0
111.113,-0.095,0.782,14.0
0.0,0.0,0.0,0.0
0.0,0.0,0.0,0.0
45.294,-0.034,-0.384,1.0
37.678,-0.027,-0.513,0.0
0.0,0.0,0.0,0.0
117.364,-0.073,1.075,15.0
98.226,-0.057,0.395,2.0
0.0,0.0,0.0,0.0
0.0,0.0,0.0,0.0
40.995,-0.018,-0.471,0.0
0.0,0.0,0.0,0.0
117.344,-0.041,1.327,11.0
110.858,-0.034,0.682,9.0
0.0,0.0,0.0,0.0
0.0,0.0,0.0,0.0
45.275,-0.007,-0.425,1.0
37.436,-0.003,-0.543,0.0
111.109,-0.005,1.491,12.0
117.28,0.0,0.969,4.0
95.563,0.005,0.298,1.0
0.0,0.0,0.0,0.0
49.907,0.008,-0.362,0.0
0.0,0.0,0.0,0.0
117.354,0.034,1.824,12.0
111.165,0.039,1.154,13.0
110.552,0.046,0.579,6.0
0.0,0.0,0.0,0.0
0.0,0.0,0.0,0.0
45.027,0.027,-0.463,2.0
117.374,0.079,2.074,17.0
111.111,0.083,1.391,18.0
110.944,0.09,0.816,8.0
95.535,0.085,0.202,2.0
0.0,0.0,0.0,0.0
45.9,0.047,-0.375,0.0
117.404,0.128,2.32,11.0
111.003,0.13,1.622,15.0
111.191,0.138,1.05,15.0
0.0,0.0,0.0,0.0
73.392,0.102,-0.071,0.0
0.0,0.0,0.0,0.0
112.575,0.174,2.458,11.0
117.439,0.191,1.959,16.0
111.098,0.19,1.28,23.0
110.687,0.198,0.693,8.0
92.948,0.174,0.102,2.0
0.0,0.0,0.0,0.0
112.539,0.229,2.692,10.0
193.591,0.412,3.634,7.0
111.121,0.246,1.511,17.0
111.157,0.256,0.928,13.0
92.988,0.223,0.298,1.0
0.0,0.0,0.0,0.0
119.832,0.308,3.119,30.0
119.854,0.319,2.499,16.0
119.826,0.331,1.881,11.0
119.761,0.342,1.249,12.0
104.056,0.307,0.548,8.0
0.0,0.0,0.0,0.0
70.113,0.219,1.968,7.0
193.665,0.626,4.438,19.0
119.861,0.4,2.128,23.0
119.728,0.412,1.497,12.0
110.884,0.393,0.812,12.0
0.0,0.0,0.0,0.0
70.178,0.261,2.115,23.0
119.849,0.46,2.994,31.0
119.852,0.474,2.374,20.0
119.843,0.487,1.744,30.0
111.126,0.464,1.042,19.0
94.724,0.407,0.4,2.0
70.206,0.306,2.26,12.0
194.346,0.872,5.252,9.0
119.845,0.552,2.619,7.0
111.13,0.524,1.843,21.0
111.122,0.537,1.267,18.0
104.617,0.519,0.653,8.0
69.999,0.352,2.396,7.0
111.142,0.574,3.23,21.0
111.12,0.587,2.652,23.0
111.063,0.601,2.066,29.0
111.045,0.615,1.492,1.0
111.016,0.629,0.918,18.0
69.776,0.401,2.53,9.0
111.031,0.652,3.45,23.0
111.074,0.667,2.876,31.0
111.071,0.681,2.29,30.0
101.588,0.637,1.568,5.0
101.143,0.648,1.038,5.0
70.022,0.454,2.679,22.0
104.796,0.694,3.465,15.0
111.046,0.75,3.095,28.0
111.061,0.766,2.51,23.0
101.56,0.714,1.769,5.0
100.67,0.722,1.232,5.0
70.129,0.509,2.821,9.0
69.717,0.516,2.443,25.0
104.782,0.79,3.127,24.0
104.785,0.805,2.574,27.0
101.155,0.792,1.959,2.0
100.34,0.8,1.424,6.0
70.052,0.565,2.955,22.0
69.815,0.573,2.583,8.0
104.645,0.874,3.326,18.0
104.71,0.89,2.773,33.0
101.052,0.874,2.152,1.0
100.094,0.881,1.611,7.0
70.076,0.623,3.091,13.0
69.882,0.632,2.719,11.0
69.688,0.641,2.348,9.0
104.688,0.979,2.973,41.0
104.736,0.995,2.43,12.0
104.787,1.012,1.885,23.0
70.324,0.686,3.236,9.0
97.89,0.971,3.995,14.0
104.61,1.054,3.726,12.0
98.779,1.012,2.994,22.0
98.724,1.027,2.478,23.0
98.69,1.042,1.964,30.0
70.387,0.751,3.373,5.0
70.108,0.759,2.994,7.0
98.136,1.079,3.68,18.0
98.687,1.102,3.177,18.0
98.643,1.118,2.662,25.0
98.596,1.133,2.146,31.0
70.456,0.817,3.509,5.0
98.598,1.16,4.395,23.0
98.64,1.177,3.882,20.0
69.817,0.845,2.376,15.0
98.622,1.21,2.841,27.0
98.548,1.226,2.325,33.0
80.958,1.017,4.181,15.0
98.833,1.258,4.587,13.0
98.384,1.27,4.052,20.0
69.761,0.912,2.502,16.0
98.433,1.305,3.016,19.0
98.522,1.323,2.505,30.0
81.354,1.102,4.349,14.0
78.708,1.08,3.796,9.0
98.2,1.365,4.222,29.0
69.875,0.984,2.631,11.0
69.896,0.997,2.266,22.0
98.536,1.423,2.681,28.0
73.016,1.064,4.034,2.0
98.055,1.446,4.904,14.0
78.75,1.176,3.526,21.0
69.918,1.056,2.756,5.0
70.06,1.072,2.395,15.0
98.586,1.527,2.856,16.0
78.498,1.226,4.477,8.0
85.627,1.352,4.433,5.0
115.679,1.849,5.382,9.0
120.492,1.948,4.96,19.0
120.281,1.967,4.321,16.0
120.127,1.987,3.684,13.0
74.514,1.243,4.378,8.0
73.107,1.233,3.91,1.0
85.507,1.459,4.125,12.0
78.722,1.358,3.376,19.0
70.161,1.224,2.641,5.0
91.957,1.622,2.978,21.0
74.379,1.322,4.497,8.0
81.007,1.456,4.472,8.0
91.475,1.663,4.569,15.0
91.507,1.681,4.079,29.0
91.604,1.701,3.602,14.0
91.791,1.722,3.127,30.0
78.239,1.48,4.864,8.0
80.94,1.547,4.603,7.0
91.435,1.765,4.718,12.0
85.456,1.667,3.951,24.0
78.796,1.552,3.228,21.0
91.662,1.825,3.273,29.0
81.422,1.633,5.195,9.0
74.806,1.516,4.378,9.0
82.113,1.68,4.371,19.0
85.338,1.764,4.085,30.0
85.336,1.781,3.635,30.0
85.331,1.798,3.185,24.0
85.266,1.812,5.58,4.0
70.764,1.518,4.256,7.0
82.235,1.781,4.512,10.0
85.306,1.865,4.22,37.0
85.314,1.883,3.771,37.0
78.891,1.757,3.07,18.0
41.387,0.929,2.774,21.0
74.241,1.681,4.583,3.0
82.991,1.897,4.684,7.0
85.291,1.968,4.353,18.0
85.343,1.987,3.904,31.0
85.317,2.004,3.452,28.0
41.058,0.971,2.815,16.0
72.127,1.721,4.563,13.0
78.72,1.896,4.562,5.0
83.302,2.024,4.379,10.0
115.757,2.837,5.472,11.0
115.68,2.86,4.857,8.0
41.251,1.027,2.892,8.0
70.673,1.776,4.579,10.0
72.839,1.846,4.333,10.0
78.804,2.014,4.262,18.0
78.819,2.032,3.844,29.0
78.827,2.05,3.427,32.0
40.931,1.072,2.931,28.0
65.299,1.725,4.329,3.0
71.727,1.91,4.373,30.0
78.791,2.115,4.377,25.0
78.806,2.133,3.96,32.0
78.81,2.15,3.542,31.0
40.859,1.123,2.986,49.0
65.304,1.809,4.424,18.0
70.811,1.977,4.42,9.0
73.078,2.057,4.164,4.0
79.317,2.25,4.098,14.0
79.282,2.267,3.675,13.0
40.98,1.18,3.054,16.0
65.379,1.898,4.523,3.0
65.476,1.915,4.179,6.0
72.074,2.125,4.21,24.0
72.804,2.163,3.865,11.0
82.305,2.464,3.931,13.0
40.905,1.233,3.106,9.0
78.118,2.373,5.513,13.0
65.474,2.003,4.27,21.0
71.25,2.196,4.26,8.0
72.353,2.246,3.939,3.0
72.614,2.271,3.566,9.0
40.851,1.287,3.157,27.0
45.138,1.432,3.246,1.0
79.616,2.543,5.299,32.0
65.595,2.11,4.007,7.0
72.195,2.338,4.024,20.0
65.468,2.135,3.3,17.0
40.766,1.339,3.203,40.0
45.19,1.495,3.308,14.0
66.562,2.217,4.516,29.0
65.608,2.2,4.093,22.0
72.521,2.448,4.135,35.0
72.253,2.455,3.733,28.0
40.789,1.396,3.257,39.0
40.879,1.409,3.044,27.0
45.165,1.567,3.121,7.0
66.323,2.316,4.221,27.0
66.425,2.335,3.871,22.0
72.2,2.554,3.82,25.0
40.604,1.447,3.293,41.0
40.666,1.458,3.078,34.0
40.757,1.471,2.866,36.0
44.903,1.631,2.912,16.0
65.84,2.406,3.915,34.0
0.0,0.0,0.0,0.0
40.836,1.513,3.361,25.0
40.511,1.509,3.115,46.0
40.76,1.528,2.914,41.0
45.036,1.699,2.973,12.0
65.608,2.49,3.978,15.0
64.642,2.468,3.571,18.0
40.517,1.558,3.382,37.0
40.447,1.565,3.157,43.0
40.673,1.582,2.954,45.0
41.203,1.612,2.766,44.0
41.166,1.621,2.542,4.0
65.805,2.606,3.709,41.0
40.512,1.616,3.426,43.0
40.439,1.622,3.201,44.0
40.758,1.645,3.006,38.0
59.5,2.415,4.06,20.0
41.145,1.679,2.585,44.0
65.75,2.699,3.777,18.0
40.713,1.683,3.487,27.0
40.403,1.679,3.242,41.0
40.502,1.693,3.03,45.0
40.889,1.718,2.833,47.0
41.029,1.733,2.621,35.0
44.785,1.902,2.619,28.0
40.575,1.736,3.518,40.0
40.325,1.735,3.277,42.0
40.471,1.75,3.069,39.0
40.822,1.775,2.87,39.0
41.251,1.803,2.677,36.0
42.051,1.848,2.501,31.0
40.482,1.791,3.55,45.0
40.638,1.807,3.342,32.0
40.477,1.809,3.109,39.0
40.679,1.828,2.899,45.0
41.048,1.854,2.703,31.0
41.322,1.876,2.497,16.0
40.316,1.843,3.574,42.0
40.558,1.864,3.375,24.0
40.524,1.871,3.151,36.0
40.609,1.885,2.932,40.0
40.877,1.907,2.729,43.0
41.003,1.922,2.515,31.0
40.221,1.899,3.603,45.0
40.261,1.91,3.386,42.0
40.344,1.923,3.173,34.0
40.644,1.947,2.971,37.0
40.771,1.963,2.759,51.0
41.001,1.983,2.551,39.0
40.315,1.964,3.647,45.0
40.38,1.976,3.432,34.0
40.248,1.979,3.2,40.0
40.544,2.003,2.999,43.0
40.773,2.024,2.793,41.0
41.018,2.045,2.586,40.0
40.465,2.032,3.694,43.0
40.462,2.04,3.472,44.0
40.359,2.044,3.242,38.0
40.563,2.064,3.033,38.0
40.785,2.085,2.827,39.0
41.037,2.107,2.62,40.0
40.36,2.087,3.717,42.0
41.104,2.135,3.559,36.0
40.541,2.115,3.288,44.0
40.493,2.121,3.059,40.0
40.854,2.15,2.862,47.0
41.016,2.168,2.65,37.0
41.133,2.189,3.819,41.0
40.754,2.178,3.56,49.0
40.646,2.182,3.327,33.0
40.513,2.184,3.09,38.0
40.978,2.219,2.901,41.0
40.987,2.228,2.677,42.0
41.137,2.252,3.849,28.0
41.023,2.255,3.612,39.0
40.429,2.231,3.337,39.0
40.527,2.245,3.119,37.0
41.357,2.301,2.955,30.0
40.91,2.286,2.699,42.0
41.343,2.326,3.896,20.0
41.422,2.34,3.675,38.0
40.458,2.294,3.366,34.0
40.577,2.31,3.148,33.0
41.315,2.361,2.978,43.0
41.106,2.359,2.738,39.0
41.32,2.387,3.919,18.0
41.421,2.402,3.7,42.0
40.579,2.362,3.401,45.0
40.575,2.371,3.172,45.0
41.405,2.428,3.009,40.0
41.652,2.453,2.798,37.0
44.92,2.664,4.287,15.0
41.583,2.475,3.738,16.0
40.959,2.446,3.455,23.0
41.528,2.489,3.27,16.0
41.375,2.489,3.03,41.0
41.683,2.517,2.823,41.0
44.924,2.732,4.311,27.0
45.411,2.771,4.106,12.0
41.73,2.555,3.542,35.0
41.533,2.552,3.291,38.0
41.361,2.551,3.049,38.0
41.87,2.591,2.856,33.0
45.672,2.846,4.405,20.0
45.729,2.859,4.157,8.0
41.867,2.626,3.573,32.0
44.201,2.782,3.523,4.0
41.9,2.646,3.108,27.0
52.275,3.313,3.589,15.0
52.311,3.339,5.069,10.0
42.448,2.717,3.877,17.0
41.903,2.691,3.594,34.0
44.162,2.846,3.539,4.0
51.668,3.34,3.854,25.0
52.274,3.391,3.61,9.0
42.275,2.761,4.114,3.0
42.057,2.755,3.858,36.0
41.834,2.749,3.604,44.0
42.049,2.772,3.385,17.0
52.155,3.449,3.91,25.0
52.283,3.469,3.629,6.0
41.951,2.802,4.097,30.0
42.096,2.82,3.876,31.0
41.864,2.813,3.622,44.0
41.864,2.822,3.384,43.0
41.926,2.834,3.156,40.0
42.108,2.856,2.936,17.0
42.026,2.869,4.117,29.0
45.057,3.085,4.162,3.0
41.635,2.859,3.614,33.0
41.686,2.871,3.382,33.0
41.834,2.89,3.161,38.0
276.763,19.175,19.378,151.0
41.845,2.918,4.11,17.0
41.5,2.902,3.844,16.0
41.487,2.909,3.612,30.0
41.554,2.922,3.381,40.0
41.734,2.943,3.163,30.0
41.771,2.954,2.934,38.0
41.917,2.984,4.127,14.0
41.418,2.957,3.846,16.0
41.311,2.957,3.605,33.0
41.557,2.983,3.39,31.0
41.667,2.999,3.166,33.0
41.724,3.012,2.938,29.0
41.168,2.991,4.061,31.0
41.349,3.012,3.847,38.0
41.445,3.026,3.623,37.0
41.504,3.039,3.392,30.0
41.631,3.056,3.17,44.0
41.761,3.073,2.947,29.0
41.201,3.052,4.07,29.0
41.361,3.072,3.853,29.0
41.235,3.07,3.61,34.0
41.507,3.098,3.397,45.0
41.576,3.111,3.17,36.0
41.732,3.131,2.949,42.0
41.231,3.113,4.077,12.0
41.22,3.12,3.844,41.0
41.233,3.129,3.613,46.0
41.466,3.154,3.397,29.0
41.693,3.179,3.182,30.0
41.731,3.189,2.951,45.0
41.246,3.173,4.08,31.0
41.135,3.171,3.837,26.0
41.386,3.198,3.628,41.0
41.604,3.222,3.409,20.0
41.739,3.24,3.186,39.0
41.76,3.25,2.954,44.0
41.268,3.232,4.082,32.0
41.219,3.235,3.845,36.0
41.25,3.245,3.616,39.0
41.523,3.273,3.402,35.0
41.655,3.291,3.179,39.0
41.751,3.306,2.952,42.0
45.234,3.605,4.473,9.0
41.705,3.33,3.889,26.0
41.19,3.295,3.609,36.0
41.36,3.316,3.386,16.0
41.458,3.331,3.161,31.0
41.79,3.365,2.952,41.0
45.352,3.675,4.481,27.0
42.276,3.432,3.939,31.0
41.322,3.361,3.616,38.0
41.269,3.364,3.375,39.0
41.425,3.384,3.155,45.0
41.744,3.417,2.944,37.0
41.322,3.403,4.078,40.0
41.452,3.42,3.857,16.0
41.375,3.421,3.615,29.0
41.309,3.422,3.373,37.0
41.445,3.44,3.15,28.0
45.679,3.799,3.215,4.0
41.307,3.456,4.07,31.0
41.36,3.467,3.841,20.0
41.342,3.472,3.606,35.0
41.438,3.486,3.376,39.0
41.468,3.496,3.144,38.0
41.815,3.532,2.935,32.0
41.311,3.511,4.063,31.0
41.518,3.534,3.847,24.0
41.563,3.544,3.616,33.0
41.538,3.549,3.375,18.0
41.434,3.546,3.132,42.0
41.815,3.586,2.925,18.0
41.307,3.563,4.052,38.0
41.681,3.601,3.852,22.0
41.359,3.579,3.588,16.0
41.599,3.606,3.369,16.0
41.496,3.603,3.126,34.0
41.618,3.621,2.9,41.0
41.318,3.615,4.042,43.0
41.522,3.639,3.825,31.0
41.241,3.62,3.565,31.0
41.657,3.662,3.361,31.0
41.489,3.654,3.113,40.0
41.664,3.676,2.891,39.0
41.321,3.666,4.029,35.0
41.357,3.675,3.797,30.0
41.262,3.672,3.554,30.0
41.555,3.704,3.339,30.0
41.54,3.709,3.102,38.0
41.576,3.718,2.87,44.0
41.259,3.711,4.007,41.0
41.28,3.718,3.774,26.0
41.44,3.738,3.554,16.0
41.413,3.741,3.312,39.0
41.559,3.76,3.088,39.0
41.607,3.77,2.856,35.0
41.522,3.784,4.016,17.0
41.452,3.782,3.773,16.0
41.445,3.787,3.537,36.0
41.454,3.793,3.298,37.0
41.57,3.809,3.071,40.0
44.778,4.11,3.055,23.0
48.816,4.505,4.701,4.0
41.25,3.812,3.737,41.0
41.716,3.86,3.541,28.0
41.483,3.843,3.281,39.0
41.625,3.862,3.056,39.0
44.544,4.139,3.018,17.0
41.773,3.902,4.002,29.0
45.52,4.258,4.101,3.0
41.803,3.915,3.528,31.0
41.613,3.902,3.271,42.0
41.701,3.916,3.041,27.0
44.402,4.175,2.986,19.0
41.766,3.948,3.98,22.0
48.437,4.584,4.339,4.0
41.856,3.966,3.51,41.0
41.465,3.934,3.237,39.0
42.029,3.992,3.042,23.0
43.746,4.161,2.918,18.0
41.802,3.996,3.96,26.0
42.068,4.026,3.745,24.0
41.941,4.018,3.494,36.0
41.544,3.985,3.22,24.0
42.047,4.038,3.02,18.0
43.489,4.181,2.876,18.0
41.794,4.039,3.935,13.0
43.871,4.244,3.879,4.0
42.067,4.074,3.48,33.0
42.146,4.086,3.241,17.0
42.038,4.08,2.994,9.0
43.367,4.214,2.841,26.0
44.373,4.333,4.15,9.0
43.857,4.287,3.851,32.0
42.017,4.111,3.449,33.0
42.602,4.172,3.25,17.0
42.105,4.128,2.972,8.0
42.926,4.213,2.785,12.0
41.722,4.115,3.875,14.0
43.845,4.328,3.821,27.0
42.035,4.153,3.423,15.0
42.663,4.219,3.226,19.0
0.0,0.0,0.0,0.0
42.885,4.25,2.754,12.0
44.206,4.402,4.075,4.0
43.871,4.372,3.793,18.0
42.059,4.195,3.395,11.0
42.681,4.261,3.197,17.0
43.581,4.355,3.016,20.0
42.858,4.287,2.722,6.0
44.149,4.436,4.038,24.0
43.875,4.412,3.761,21.0
44.194,4.448,3.536,7.0
42.877,4.319,3.181,22.0
43.021,4.337,2.945,26.0
73.475,7.414,4.612,14.0
44.053,4.465,3.996,40.0
44.097,4.473,3.747,19.0
44.266,4.494,3.507,12.0
43.686,4.438,3.207,20.0
43.087,4.381,2.917,29.0
58.288,5.932,3.613,6.0
44.042,4.502,3.961,31.0
44.173,4.518,3.718,26.0
44.191,4.523,3.466,27.0
43.495,4.455,3.158,20.0
43.865,4.496,2.935,21.0
58.271,5.978,3.566,6.0
43.963,4.529,3.917,29.0
44.313,4.568,3.694,18.0
44.232,4.562,3.433,28.0
42.877,4.426,3.078,30.0
42.905,4.432,2.834,31.0
58.274,6.024,3.516,11.0
43.876,4.554,3.873,39.0
44.071,4.577,3.636,37.0
44.239,4.597,3.396,31.0
42.883,4.458,3.042,23.0
0.0,0.0,0.0,0.0
87.665,9.127,5.216,17.0
44.166,4.616,3.86,25.0
43.952,4.596,3.588,40.0
44.213,4.626,3.355,18.0
0.0,0.0,0.0,0.0
44.622,4.674,2.871,4.0
87.308,9.151,5.118,20.0
44.382,4.67,3.838,19.0
43.905,4.622,3.544,32.0
44.498,4.686,3.337,29.0
43.881,4.624,3.034,20.0
42.815,4.514,2.715,30.0
42.705,4.505,2.463,8.0
44.086,4.668,3.771,30.0
43.947,4.655,3.506,38.0
44.522,4.718,3.296,27.0
43.872,4.651,2.992,21.0
42.756,4.535,2.671,16.0
84.156,8.931,4.776,21.0
44.366,4.725,3.753,31.0
44.049,4.693,3.472,34.0
44.485,4.741,3.251,31.0
0.0,0.0,0.0,0.0
42.783,4.563,2.631,3.0
84.145,8.98,4.694,23.0
44.237,4.737,3.698,35.0
44.246,4.739,3.445,13.0
44.406,4.758,3.202,40.0
43.036,4.612,2.851,31.0
42.797,4.589,2.59,14.0
84.12,9.024,4.609,21.0
44.047,4.74,3.639,33.0
44.439,4.784,3.414,19.0
43.831,4.719,3.116,19.0
43.018,4.633,2.807,43.0
42.763,4.607,2.545,24.0
54.687,5.894,2.941,9.0
44.133,4.771,3.6,42.0
44.362,4.797,3.363,10.0
43.595,4.715,3.055,19.0
43.102,4.663,2.768,33.0
42.764,4.627,2.501,39.0
54.674,5.918,2.884,5.0
44.339,4.814,3.57,32.0
44.319,4.812,3.313,22.0
43.191,4.691,2.98,39.0
42.912,4.661,2.71,32.0
42.823,4.653,2.458,33.0
84.12,9.142,4.348,13.0
44.3,4.828,3.519,38.0
44.377,4.837,3.27,37.0
43.143,4.703,2.93,29.0
42.629,4.647,2.646,28.0
42.857,4.673,2.414,22.0
84.048,9.168,4.252,13.0
44.234,4.838,3.466,44.0
44.513,4.868,3.231,19.0
0.0,0.0,0.0,0.0
42.51,4.65,2.592,41.0
42.884,4.692,2.368,11.0
84.061,9.199,4.16,18.0
44.333,4.863,3.424,18.0
44.47,4.878,3.178,19.0
44.771,4.911,2.941,29.0
42.543,4.667,2.546,29.0
84.041,9.221,4.547,15.0
84.043,9.222,4.066,20.0
44.532,4.898,3.388,13.0
43.832,4.821,3.082,19.0
44.951,4.943,2.902,8.0
42.538,4.678,2.497,6.0
84.043,9.243,4.452,15.0
84.05,9.245,3.97,22.0
44.586,4.915,3.341,17.0
44.085,4.859,3.05,22.0
42.505,4.684,2.695,18.0
54.665,6.024,3.146,14.0
84.057,9.263,4.356,25.0
84.05,9.264,3.873,24.0
44.736,4.94,3.301,19.0
44.397,4.902,3.019,30.0
42.483,4.69,2.644,38.0
54.699,6.038,3.085,11.0
84.053,9.278,4.257,32.0
84.063,9.279,3.775,27.0
44.82,4.957,3.253,7.0
44.505,4.921,2.974,25.0
42.505,4.699,2.595,38.0
84.051,9.29,4.64,23.0
84.074,9.292,4.158,29.0
84.046,9.289,3.674,27.0
44.79,4.959,3.197,18.0
44.521,4.927,2.921,24.0
42.606,4.714,2.55,16.0
54.781,6.06,2.959,12.0
84.068,9.3,4.057,25.0
84.067,9.298,3.575,16.0
44.502,4.93,3.123,31.0
44.588,4.938,2.872,5.0
54.728,6.059,3.21,10.0
84.021,9.3,4.436,19.0
84.046,9.301,3.955,25.0
83.85,9.278,3.463,5.0
44.385,4.918,3.061,34.0
42.533,4.711,2.687,19.0
54.745,6.062,3.144,15.0
84.042,9.303,4.334,32.0
84.045,9.301,3.851,26.0
83.115,9.196,3.331,2.0
44.378,4.916,3.005,34.0
42.508,4.707,2.633,33.0
84.029,9.302,4.722,21.0
84.053,9.301,4.231,33.0
84.051,9.298,3.748,32.0
83.222,9.204,3.233,2.0
44.455,4.922,2.955,30.0
42.542,4.708,2.582,31.0
84.038,9.296,4.618,16.0
84.057,9.295,4.126,27.0
84.055,9.291,3.643,25.0
83.101,9.183,3.125,3.0
44.651,4.939,2.912,23.0
42.578,4.707,2.531,9.0
54.787,6.054,2.941,8.0
84.042,9.283,4.021,21.0
84.07,9.282,3.539,11.0
83.184,9.181,3.024,2.0
42.507,4.695,2.719,15.0
54.711,6.039,3.184,12.0
84.014,9.269,4.405,23.0
84.047,9.269,3.914,24.0
83.845,9.242,3.424,3.0
83.31,9.18,2.923,3.0
42.501,4.685,2.664,35.0
54.711,6.028,3.114,12.0
84.032,9.254,4.299,28.0
84.039,9.249,3.807,30.0
83.423,9.177,3.3,2.0
83.353,9.166,2.818,3.0
42.552,4.681,2.613,42.0
42.758,4.7,2.379,5.0
84.061,9.235,4.193,24.0
84.027,9.226,3.701,22.0
83.645,9.179,3.202,3.0
83.585,9.168,2.721,4.0
42.572,4.67,2.56,30.0
84.047,9.215,4.569,14.0
84.054,9.209,4.086,20.0
84.007,9.198,3.593,13.0
83.768,9.166,3.101,4.0
83.731,9.158,2.619,4.0
42.834,4.685,2.52,11.0
84.022,9.183,4.461,12.0
84.009,9.175,3.976,19.0
84.018,9.17,3.486,10.0
83.943,9.155,3.0,4.0
83.882,9.143,2.517,6.0
42.853,4.671,2.466,23.0
84.055,9.154,4.355,13.0
84.076,9.149,3.871,14.0
84.064,9.141,3.38,6.0
84.049,9.133,2.897,6.0
84.001,9.122,2.413,6.0
42.84,4.651,2.41,32.0
84.187,9.132,4.253,15.0
84.18,9.123,3.769,17.0
84.168,9.115,3.276,13.0
84.179,9.11,2.794,10.0
84.241,9.11,2.312,7.0
84.251,9.107,4.633,10.0
84.265,9.1,4.149,19.0
84.229,9.088,3.663,23.0
84.192,9.077,3.169,25.0
84.263,9.077,2.689,21.0
84.25,9.069,2.205,22.0
84.16,9.054,4.52,21.0
84.141,9.043,4.035,52.0
84.15,9.035,3.552,57.0
84.136,9.025,3.06,52.0
84.149,9.02,2.577,55.0
84.175,9.015,2.096,43.0
84.127,9.002,4.41,46.0
84.142,8.995,3.927,64.0
84.14,8.986,3.443,67.0
84.136,8.977,2.951,68.0
84.147,8.969,2.469,66.0
84.133,8.961,1.986,56.0
84.161,8.955,4.304,37.0
84.185,8.947,3.821,42.0
84.168,8.936,3.336,39.0
84.185,8.929,2.845,38.0
84.188,8.921,2.363,39.0
84.189,8.913,1.88,42.0
86.904,9.19,4.332,25.0
86.911,9.18,3.834,25.0
85.342,9.004,3.274,11.0
85.292,8.99,2.775,10.0
85.384,8.99,2.287,11.0
85.391,8.982,1.799,11.0
87.209,9.161,4.236,23.0
87.207,9.15,3.735,22.0
85.693,8.981,3.179,12.0
85.646,8.966,2.677,10.0
85.7,8.962,2.188,11.0
85.682,8.951,1.698,11.0
87.496,9.127,4.14,15.0
87.531,9.119,3.639,17.0
85.982,8.947,3.082,6.0
85.999,8.938,2.581,13.0
86.017,8.93,2.088,11.0
86.037,8.922,1.597,11.0
87.85,9.095,4.047,21.0
87.854,9.083,3.542,11.0
86.214,8.902,2.981,4.0
86.342,8.904,2.483,11.0
86.398,8.899,1.99,11.0
86.4,8.89,1.495,11.0
88.21,9.059,3.952,19.0
88.217,9.048,3.446,2.0
86.685,8.878,2.889,10.0
86.758,8.874,2.386,11.0
86.718,8.859,1.889,10.0
86.779,8.855,1.393,12.0
88.512,9.012,3.854,18.0
87.076,8.853,3.293,1.0
87.056,8.84,2.794,6.0
87.158,8.838,2.289,11.0
87.143,8.824,1.79,10.0
87.171,8.816,1.292,11.0
88.555,8.935,3.747,33.0
87.581,8.823,3.203,1.0
87.515,8.804,2.7,3.0
87.599,8.8,2.193,7.0
87.597,8.788,1.692,8.0
87.595,8.777,1.192,12.0
88.542,8.849,3.639,33.0
87.835,8.764,3.106,3.0
87.942,8.762,2.607,11.0
87.989,8.754,2.096,11.0
88.027,8.746,1.594,12.0
88.075,8.738,1.093,11.0
88.524,8.759,3.531,16.0
88.376,8.731,3.018,3.0
88.454,8.724,2.515,6.0
88.489,8.714,2.001,7.0
88.527,8.704,1.497,9.0
88.541,8.693,0.991,12.0
88.813,8.695,3.435,10.0
88.845,8.683,2.928,13.0
88.931,8.676,2.422,12.0
88.927,8.663,1.905,12.0
88.986,8.655,1.398,13.0
89.048,8.647,0.892,12.0
90.775,8.789,3.403,2.0
89.363,8.637,2.839,13.0
89.456,8.631,2.332,12.0
89.453,8.616,1.811,12.0
89.479,8.604,1.302,11.0
89.571,8.599,0.792,12.0
89.808,8.594,3.262,3.0
89.911,8.587,2.752,12.0
89.992,8.58,2.24,11.0
90.004,8.566,1.718,11.0
90.091,8.559,1.207,11.0
90.074,8.544,0.693,11.0
90.389,8.545,3.18,2.0
90.508,8.54,2.666,12.0
90.579,8.53,2.151,11.0
90.602,8.517,1.627,10.0
90.657,8.506,1.111,12.0
90.685,8.494,0.594,10.0
91.002,8.493,3.097,2.0
91.031,8.478,2.578,8.0
91.1,8.468,2.061,9.0
91.158,8.457,1.532,12.0
91.232,8.448,1.015,10.0
91.296,8.438,0.495,11.0
91.643,8.439,3.015,11.0
91.676,8.424,2.494,12.0
91.758,8.414,1.973,10.0
91.827,8.403,1.443,10.0
91.824,8.387,0.92,10.0
91.908,8.378,0.398,9.0
92.276,8.378,2.935,3.0
92.391,8.37,2.413,5.0
92.463,8.359,1.887,5.0
92.492,8.344,1.353,9.0
92.488,8.326,0.826,10.0
45.711,4.107,0.148,12.0
93.016,8.323,2.858,7.0
93.087,8.31,2.33,10.0
93.147,8.297,1.802,12.0
93.136,8.278,1.262,13.0
93.18,8.264,0.732,12.0
45.808,4.054,0.1,9.0
93.139,8.208,2.763,56.0
93.13,8.187,2.232,69.0
93.121,8.168,1.703,75.0
93.124,8.149,1.164,38.0
45.837,4.002,0.312,17.0
45.636,3.975,0.051,14.0
45.9,3.98,1.314,12.0
45.844,3.966,1.051,19.0
45.805,3.953,0.79,24.0
45.778,3.941,0.525,24.0
45.75,3.93,0.265,16.0
45.459,3.896,0.005,20.0
45.814,3.908,1.265,27.0
45.783,3.895,1.004,32.0
45.764,3.884,0.743,38.0
45.756,3.873,0.479,27.0
45.72,3.861,0.219,21.0
45.316,3.818,-0.039,24.0
45.785,3.838,1.218,40.0
45.772,3.827,0.958,37.0
45.76,3.816,0.698,36.0
45.76,3.806,0.434,31.0
45.718,3.793,0.174,26.0
45.174,3.738,-0.083,24.0
45.807,3.771,1.174,44.0
45.792,3.759,0.914,45.0
45.791,3.749,0.654,45.0
45.773,3.737,0.39,37.0
45.734,3.725,0.13,27.0
45.059,3.66,-0.126,24.0
45.867,3.706,1.133,40.0
45.874,3.696,0.872,40.0
45.864,3.684,0.612,41.0
45.853,3.673,0.348,39.0
45.727,3.652,0.088,27.0
44.771,3.566,-0.166,19.0
98.594,7.811,2.343,14.0
98.664,7.793,1.786,9.0
98.714,7.776,1.228,10.0
98.779,7.758,0.661,9.0
45.705,3.579,0.047,22.0
44.522,3.477,-0.205,19.0
99.502,7.725,2.276,13.0
99.637,7.712,1.716,7.0
99.645,7.689,1.152,9.0
99.596,7.662,0.578,6.0
45.901,3.52,0.007,19.0
44.477,3.401,-0.244,12.0
100.498,7.638,2.212,9.0
100.564,7.619,1.645,9.0
100.647,7.601,1.078,9.0
77.925,5.867,0.386,8.0
45.784,3.436,-0.031,19.0
41.789,3.126,-0.264,15.0
101.631,7.556,2.151,4.0
101.629,7.531,1.577,5.0
101.787,7.518,1.006,5.0
52.236,3.845,0.216,14.0
45.676,3.351,-0.068,23.0
42.134,3.081,-0.301,10.0
47.466,3.449,0.966,10.0
52.339,3.79,0.77,11.0
52.261,3.771,0.474,21.0
52.073,3.744,0.173,17.0
45.644,3.271,-0.104,19.0
42.095,3.006,-0.334,3.0
47.621,3.378,0.932,17.0
47.623,3.366,0.663,48.0
47.699,3.359,0.395,37.0
51.948,3.645,0.132,21.0
45.619,3.189,-0.14,19.0
42.616,2.968,-0.371,7.0
47.894,3.313,0.901,16.0
47.921,3.303,0.631,18.0
47.962,3.293,0.362,15.0
51.866,3.547,0.094,20.0
45.429,3.095,-0.173,19.0
43.244,2.936,-0.408,5.0
48.203,3.249,0.871,7.0
48.186,3.235,0.6,10.0
48.274,3.228,0.33,9.0
51.735,3.446,0.057,16.0
45.156,2.996,-0.203,19.0
41.202,2.722,-0.417,0.0
48.827,3.203,0.849,4.0
48.581,3.173,0.571,8.0
48.633,3.164,0.299,4.0
51.614,3.345,0.022,19.0
45.203,2.917,-0.234,19.0
41.56,2.671,-0.448,0.0
49.182,3.137,0.823,4.0
48.969,3.11,0.544,6.0
52.483,3.319,0.289,2.0
51.58,3.248,-0.01,19.0
45.29,2.84,-0.263,13.0
40.16,2.507,-0.458,0.0
50.207,3.11,0.808,10.0
49.563,3.057,0.52,4.0
52.426,3.219,0.256,3.0
51.492,3.147,-0.042,22.0
45.796,2.786,-0.294,19.0
38.071,2.306,-0.457,0.0
50.588,3.039,0.784,7.0
50.165,3.0,0.497,4.0
59.206,3.524,0.255,2.0
51.397,3.045,-0.071,22.0
46.484,2.741,-0.325,15.0
37.959,2.228,-0.478,0.0
115.826,6.744,1.732,8.0
50.651,2.934,0.473,7.0
59.366,3.421,0.222,15.0
51.327,2.944,-0.099,21.0
47.363,2.703,-0.357,6.0
37.464,2.127,-0.492,0.0
59.405,3.343,0.856,20.0
59.357,3.323,0.524,21.0
59.272,3.302,0.191,18.0
51.223,2.839,-0.125,25.0
47.935,2.643,-0.385,0.0
36.202,1.986,-0.493,0.0
59.361,3.227,0.826,27.0
59.341,3.209,0.494,31.0
59.236,3.185,0.162,17.0
51.378,2.748,-0.15,21.0
46.538,2.475,-0.396,1.0
36.059,1.908,-0.508,0.0
59.425,3.114,0.799,30.0
59.402,3.095,0.467,32.0
59.285,3.071,0.136,22.0
51.247,2.64,-0.173,9.0
42.802,2.192,-0.383,0.0
36.121,1.839,-0.525,0.0
120.117,6.06,1.565,11.0
120.043,6.019,0.895,16.0
59.356,2.957,0.111,16.0
51.576,2.555,-0.195,4.0
43.663,2.15,-0.408,1.0
35.161,1.721,-0.525,0.0
120.059,5.816,1.517,14.0
120.01,5.778,0.847,18.0
65.174,3.118,0.097,7.0
51.945,2.47,-0.216,10.0
43.652,2.062,-0.425,1.0
0.0,0.0,0.0,0.0
66.173,3.073,0.812,17.0
66.137,3.051,0.443,13.0
65.059,2.981,0.074,7.0
52.921,2.409,-0.238,12.0
43.703,1.975,-0.44,0.0
34.655,1.556,-0.541,0.0
66.049,2.934,0.789,19.0
66.026,2.911,0.422,24.0
64.892,2.842,0.054,8.0
53.659,2.334,-0.258,3.0
42.094,1.817,-0.436,0.0
34.295,1.47,-0.546,0.0
66.072,2.801,0.77,7.0
66.054,2.779,0.404,25.0
58.947,2.462,0.033,14.0
55.091,2.283,-0.279,5.0
0.0,0.0,0.0,0.0
34.087,1.392,-0.551,0.0
119.977,4.841,1.369,19.0
66.114,2.646,0.388,9.0
58.943,2.339,0.019,4.0
56.068,2.207,-0.298,0.0
0.0,0.0,0.0,0.0
33.399,1.294,-0.547,0.0
119.977,4.59,1.343,15.0
71.952,2.731,0.407,11.0
58.926,2.217,0.007,8.0
52.797,1.969,-0.29,1.0
40.531,1.499,-0.447,0.0
33.47,1.227,-0.554,0.0
72.384,2.621,0.798,29.0
71.918,2.58,0.395,16.0
59.853,2.128,-0.002,5.0
54.244,1.911,-0.307,1.0
40.431,1.412,-0.452,0.0
33.754,1.168,-0.564,0.0
72.353,2.47,0.787,32.0
72.012,2.435,0.385,16.0
62.887,2.106,-0.01,5.0
0.0,0.0,0.0,0.0
0.0,0.0,0.0,0.0
33.241,1.08,-0.559,0.0
72.478,2.322,0.781,28.0
72.032,2.284,0.379,15.0
63.488,1.993,-0.016,9.0
49.068,1.524,-0.288,0.0
0.0,0.0,0.0,0.0
33.562,1.02,-0.567,0.0
74.969,2.245,0.803,8.0
71.98,2.131,0.374,9.0
63.257,1.852,-0.019,5.0
0.0,0.0,0.0,0.0
39.62,1.134,-0.452,0.0
33.296,0.941,-0.564,0.0
78.698,2.19,0.841,13.0
72.113,1.983,0.373,11.0
64.993,1.765,-0.021,7.0
0.0,0.0,0.0,0.0
41.199,1.091,-0.47,0.0
32.717,0.856,-0.554,0.0
78.999,2.031,0.844,21.0
78.733,1.999,0.408,9.0
66.775,1.673,-0.02,3.0
0.0,0.0,0.0,0.0
0.0,0.0,0.0,0.0
0.0,0.0,0.0,0.0
85.234,2.011,0.915,31.0
84.797,1.971,0.445,6.0
68.461,1.568,-0.016,2.0
0.0,0.0,0.0,0.0
41.406,0.92,-0.468,0.0
33.196,0.726,-0.558,0.0
85.291,1.831,0.923,35.0
84.814,1.792,0.452,6.0
70.173,1.458,-0.01,4.0
0.0,0.0,0.0,0.0
0.0,0.0,0.0,0.0
0.0,0.0,0.0,0.0
91.935,1.778,1.006,12.0
84.784,1.611,0.463,11.0
72.426,1.351,0.0,5.0
0.0,0.0,0.0,0.0
41.68,0.749,-0.461,0.0
0.0,0.0,0.0,0.0
91.881,1.582,1.02,37.0
78.406,1.322,0.441,6.0
74.565,1.232,0.012,2.0
0.0,0.0,0.0,0.0
41.709,0.661,-0.453,0.0
34.255,0.53,-0.559,0.0
98.726,1.491,1.116,11.0
92.082,1.359,0.537,8.0
0.0,0.0,0.0,0.0
0.0,0.0,0.0,0.0
43.89,0.602,-0.467,0.0
34.234,0.458,-0.551,0.0
98.542,1.28,1.137,34.0
85.402,1.079,0.519,5.0
79.173,0.973,0.049,3.0
41.171,0.491,-0.203,1.0
41.027,0.475,-0.426,0.0
0.0,0.0,0.0,0.0
98.583,1.069,1.164,29.0
98.229,1.031,0.625,11.0
79.085,0.803,0.071,0.0
54.497,0.534,-0.252,0.0
42.799,0.404,-0.431,0.0
0.0,0.0,0.0,0.0
100.219,0.874,1.215,8.0
98.164,0.822,0.655,9.0
84.994,0.682,0.104,1.0
55.15,0.423,-0.237,0.0
42.886,0.314,-0.418,1.0
0.0,0.0,0.0,0.0
101.202,0.669,1.262,4.0
104.738,0.657,0.736,11.0
87.642,0.519,0.139,5.0
0.0,0.0,0.0,0.0
42.886,0.224,-0.402,1.0
35.789,0.174,-0.53,0.0
111.132,0.5,1.429,22.0
110.818,0.462,0.822,7.0
0.0,0.0,0.0,0.0
0.0,0.0,0.0,0.0
44.672,0.139,-0.4,0.0
0.0,0.0,0.0,0.0
111.143,0.267,1.475,24.0
110.793,0.228,0.869,11.0
0.0,0.0,0.0,0.0
0.0,0.0,0.0,0.0
45.55,0.045,-0.388,3.0
37.282,0.023,-0.519,0.0
117.349,0.035,1.612,13.0
111.207,-0.005,0.925,8.0
0.0,0.0,0.0,0.0
0.0,0.0,0.0,0.0
45.467,-0.05,-0.365,1.0
0.0,0.0,0.0,0.0
113.051,-0.202,1.609,15.0
114.457,-0.244,1.009,150.0
101.962,-0.253,0.347,1.0
0.0,0.0,0.0,0.0
47.645,-0.151,-0.358,0.0
37.797,-0.133,-0.488,0.0
113.972,-0.438,1.682,5.0
119.669,-0.502,1.119,19.0
106.406,-0.485,0.42,1.0
0.0,0.0,0.0,0.0
0.0,0.0,0.0,0.0
39.935,-0.223,-0.493,0.0
0.0,0.0,0.0,0.0
119.725,-0.75,1.188,16.0
111.116,-0.734,0.503,5.0
0.0,0.0,0.0,0.0
51.13,-0.373,-0.325,0.0
40.136,-0.307,-0.471,0.0
119.753,-0.954,1.907,81.0
119.693,-0.994,1.261,20.0
0.0,0.0,0.0,0.0
0.0,0.0,0.0,0.0
0.0,0.0,0.0,0.0
0.0,0.0,0.0,0.0
119.737,-1.196,1.983,150.0
119.749,-1.239,1.338,24.0
119.865,-1.281,0.694,6.0
0.0,0.0,0.0,0.0
0.0,0.0,0.0,0.0
42.985,-0.503,-0.449,1.0
204.156,-2.456,3.519,24.0
139.443,-1.725,1.653,3.0
139.133,-1.769,0.9,10.0
0.0,0.0,0.0,0.0
0.0,0.0,0.0,0.0
0.0,0.0,0.0,0.0
204.175,-2.867,3.663,9.0
138.88,-1.996,1.745,17.0
138.855,-2.044,0.998,23.0
0.0,0.0,0.0,0.0
0.0,0.0,0.0,0.0
46.268,-0.728,-0.417,0.0
194.097,-3.113,3.626,22.0
0.0,0.0,0.0,0.0
139.094,-2.325,1.105,24.0
0.0,0.0,0.0,0.0
0.0,0.0,0.0,0.0
45.869,-0.813,-0.378,1.0
193.349,-3.484,3.762,23.0
138.863,-2.55,1.957,5.0
139.004,-2.599,1.214,26.0
101.616,-1.934,0.332,1.0
0.0,0.0,0.0,0.0
0.0,0.0,0.0,0.0
193.825,-3.873,3.928,18.0
138.933,-2.824,2.071,7.0
138.896,-2.871,1.327,21.0
0.0,0.0,0.0,0.0
0.0,0.0,0.0,0.0
0.0,0.0,0.0,0.0
193.711,-4.247,4.089,5.0
