X,Y,Z,Reflectivity
0.0,0.0,0.0,0.0
112.939,-1.93,3.39,7.0
205.548,-3.452,4.989,6.0
193.982,-3.203,3.595,9.0
0.0,0.0,0.0,0.0
138.817,-2.216,0.968,20.0
0.0,0.0,0.0,0.0
112.617,-1.736,3.23,17.0
206.158,-3.122,4.732,15.0
204.195,-3.034,3.513,10.0
139.367,-2.031,1.583,4.0
127.469,-1.824,0.718,8.0
0.0,0.0,0.0,0.0
11.925,-0.528,-0.856,0.0
11.201,-0.497,-0.863,0.0
10.681,-0.474,-0.879,0.0
10.179,-0.453,-0.892,0.0
9.753,-0.434,-0.906,0.0
9.266,-0.413,-0.91,0.0
12.204,-0.542,-0.856,0.0
11.41,-0.507,-0.86,0.0
10.886,-0.484,-0.878,0.0
10.343,-0.461,-0.89,0.0
9.852,-0.439,-0.899,0.0
9.434,-0.421,-0.911,0.0
12.456,-0.554,-0.853,0.0
11.682,-0.52,-0.861,0.0
11.013,-0.49,-0.87,0.0
10.521,-0.469,-0.887,0.0
10.044,-0.448,-0.9,0.0
9.604,-0.429,-0.911,0.0
12.751,-0.567,-0.852,0.0
11.91,-0.53,-0.858,0.0
11.194,-0.498,-0.865,0.0
10.62,-0.473,-0.878,0.0
10.194,-0.455,-0.896,0.0
9.723,-0.434,-0.906,0.0
13.095,-0.582,-0.852,0.0
12.188,-0.542,-0.857,0.0
11.414,-0.508,-0.863,0.0
10.864,-0.484,-0.879,0.0
10.337,-0.46,-0.891,0.0
9.845,-0.439,-0.9,0.0
13.362,-0.593,-0.847,0.0
12.436,-0.552,-0.853,0.0
11.646,-0.517,-0.86,0.0
11.027,-0.49,-0.873,0.0
10.491,-0.466,-0.886,0.0
10.013,-0.445,-0.898,0.0
13.643,-0.604,-0.841,0.0
12.803,-0.567,-0.856,0.0
11.938,-0.529,-0.861,0.0
11.226,-0.497,-0.869,0.0
10.629,-0.471,-0.879,0.0
10.177,-0.451,-0.895,0.0
13.971,-0.616,-0.837,0.0
13.114,-0.579,-0.854,0.0
12.204,-0.538,-0.859,0.0
11.403,-0.503,-0.863,0.0
10.9,-0.481,-0.882,0.0
10.35,-0.457,-0.892,0.0
14.285,-0.628,-0.831,0.0
13.369,-0.587,-0.847,0.0
12.447,-0.547,-0.854,0.0
11.653,-0.512,-0.861,0.0
11.032,-0.484,-0.873,0.0
10.506,-0.461,-0.886,0.0
14.585,-0.638,-0.822,0.0
13.705,-0.599,-0.844,0.0
12.783,-0.558,-0.854,0.0
11.947,-0.522,-0.862,0.0
11.223,-0.49,-0.868,0.0
10.682,-0.466,-0.882,0.0
15.011,-0.652,-0.82,0.0
13.996,-0.608,-0.837,0.0
13.065,-0.567,-0.85,0.0
12.228,-0.53,-0.86,0.0
11.463,-0.497,-0.866,0.0
10.905,-0.472,-0.881,0.0
15.274,-0.659,-0.807,0.0
14.32,-0.617,-0.831,0.0
13.323,-0.574,-0.842,0.0
12.451,-0.536,-0.853,0.0
11.683,-0.502,-0.862,0.0
11.055,-0.475,-0.873,0.0
15.75,-0.674,-0.804,0.0
14.672,-0.627,-0.825,0.0
13.701,-0.585,-0.842,0.0
12.809,-0.547,-0.855,0.0
11.984,-0.511,-0.862,0.0
11.278,-0.48,-0.871,0.0
16.334,-0.693,-0.804,0.0
15.052,-0.638,-0.819,0.0
14.048,-0.594,-0.838,0.0
13.141,-0.555,-0.853,0.0
12.235,-0.516,-0.858,0.0
11.474,-0.484,-0.865,0.0
16.727,-0.702,-0.793,0.0
15.291,-0.641,-0.805,0.0
14.369,-0.602,-0.831,0.0
13.444,-0.562,-0.849,0.0
12.553,-0.524,-0.858,0.0
11.745,-0.49,-0.864,0.0
17.201,-0.714,-0.785,0.0
15.912,-0.66,-0.808,0.0
14.71,-0.609,-0.824,0.0
13.756,-0.568,-0.843,0.0
12.915,-0.533,-0.859,0.0
12.016,-0.495,-0.862,0.0
41.248,-0.511,4.547,38.0
0.0,0.0,0.0,0.0
41.82,-0.506,4.163,16.0
42.164,-0.503,3.968,41.0
41.849,-0.493,3.715,42.0
41.725,-0.486,3.482,41.0
41.283,-0.483,4.613,38.0
41.497,-0.479,4.415,39.0
41.717,-0.475,4.215,27.0
41.799,-0.469,3.995,33.0
41.794,-0.463,3.772,42.0
41.662,-0.455,3.537,42.0
41.195,-0.452,4.664,41.0
41.429,-0.448,4.468,39.0
41.574,-0.443,4.26,34.0
41.71,-0.438,4.046,40.0
41.609,-0.431,3.814,38.0
41.773,-0.426,3.606,31.0
41.078,-0.42,4.709,40.0
41.211,-0.415,4.502,43.0
41.439,-0.411,4.304,39.0
41.621,-0.406,4.095,37.0
41.494,-0.398,3.861,42.0
41.857,-0.394,3.671,36.0
41.079,-0.389,4.767,37.0
41.143,-0.382,4.552,45.0
41.258,-0.377,4.342,48.0
41.666,-0.374,4.157,39.0
41.636,-0.366,3.931,43.0
41.606,-0.359,3.705,40.0
41.112,-0.356,4.826,42.0
41.147,-0.349,4.608,37.0
41.3,-0.344,4.403,45.0
41.371,-0.337,4.183,40.0
41.625,-0.332,3.985,46.0
41.521,-0.324,3.752,42.0
40.978,-0.321,4.865,36.0
41.212,-0.316,4.67,39.0
41.309,-0.309,4.457,43.0
41.286,-0.302,4.228,45.0
41.748,-0.298,4.051,39.0
41.47,-0.289,3.801,38.0
40.992,-0.286,4.919,33.0
41.244,-0.281,4.726,36.0
41.392,-0.275,4.518,38.0
41.378,-0.268,4.289,35.0
41.586,-0.262,4.086,42.0
41.605,-0.255,3.864,42.0
41.295,-0.253,5.006,35.0
41.291,-0.245,4.782,31.0
41.491,-0.239,4.58,17.0
41.186,-0.23,4.319,46.0
41.295,-0.223,4.107,39.0
41.745,-0.218,3.927,41.0
41.211,-0.215,5.047,34.0
41.075,-0.207,4.806,24.0
0.0,0.0,0.0,0.0
41.146,-0.193,4.363,45.0
41.145,-0.185,4.14,45.0
41.729,-0.18,3.974,45.0
41.069,-0.177,5.077,43.0
41.082,-0.17,4.854,37.0
41.22,-0.163,4.646,19.0
41.088,-0.155,4.403,36.0
41.219,-0.148,4.194,43.0
41.524,-0.141,4.001,42.0
41.325,-0.139,5.155,36.0
43.089,-0.137,5.14,2.0
41.34,-0.124,4.705,20.0
41.221,-0.116,4.463,27.0
41.246,-0.109,4.242,39.0
41.626,-0.102,4.055,33.0
41.128,-0.099,5.175,44.0
43.305,-0.096,5.212,3.0
41.504,-0.085,4.768,35.0
41.1,-0.076,4.494,37.0
41.59,-0.069,4.321,30.0
41.429,-0.061,4.08,41.0
41.23,-0.059,5.232,16.0
41.022,-0.051,4.98,40.0
41.192,-0.043,4.776,42.0
41.206,-0.035,4.548,16.0
41.668,-0.028,4.372,35.0
41.341,-0.02,4.112,40.0
41.233,-0.018,5.274,31.0
41.05,-0.01,5.025,30.0
41.058,-0.002,4.8,16.0
41.419,0.005,4.612,21.0
41.683,0.013,4.414,17.0
41.327,0.021,4.151,42.0
41.328,0.024,5.326,36.0
41.088,0.031,5.069,33.0
40.938,0.038,4.825,39.0
41.374,0.047,4.646,16.0
41.176,0.055,4.398,38.0
41.374,0.063,4.194,41.0
138.921,-2.488,0.79,4.0
0.0,0.0,0.0,0.0
0.0,0.0,0.0,0.0
0.0,0.0,0.0,0.0
33.568,-0.648,-0.568,0.0
27.823,-0.547,-0.627,0.0
0.0,0.0,0.0,0.0
0.0,0.0,0.0,0.0
50.977,-1.051,-0.318,0.0
0.0,0.0,0.0,0.0
31.666,-0.675,-0.557,0.0
27.266,-0.591,-0.633,0.0
0.0,0.0,0.0,0.0
0.0,0.0,0.0,0.0
0.0,0.0,0.0,0.0
0.0,0.0,0.0,0.0
0.0,0.0,0.0,0.0
26.884,-0.636,-0.641,0.0
0.0,0.0,0.0,0.0
0.0,0.0,0.0,0.0
47.876,-1.18,-0.36,0.0
37.667,-0.941,-0.498,0.0
0.0,0.0,0.0,0.0
21.868,-0.562,-0.534,161.0
0.0,0.0,0.0,0.0
0.0,0.0,0.0,0.0
47.933,-1.278,-0.388,1.0
38.018,-1.027,-0.524,0.0
21.909,-0.599,-0.425,16.0
21.867,-0.606,-0.547,212.0
0.0,0.0,0.0,0.0
59.648,-1.69,-0.18,0.0
44.472,-1.276,-0.383,1.0
0.0,0.0,0.0,0.0
30.303,-0.892,-0.604,0.0
21.89,-0.652,-0.559,17.0
0.0,0.0,0.0,0.0
0.0,0.0,0.0,0.0
44.271,-1.361,-0.404,0.0
35.175,-1.094,-0.521,0.0
0.0,0.0,0.0,0.0
25.276,-0.804,-0.658,0.0
0.0,0.0,0.0,0.0
0.0,0.0,0.0,0.0
44.123,-1.446,-0.423,0.0
34.897,-1.156,-0.533,0.0
28.927,-0.969,-0.604,0.0
25.055,-0.849,-0.663,0.0
0.0,0.0,0.0,0.0
0.0,0.0,0.0,0.0
41.547,-1.447,-0.416,0.0
34.772,-1.223,-0.546,0.0
28.635,-1.018,-0.609,0.0
0.0,0.0,0.0,0.0
0.0,0.0,0.0,0.0
0.0,0.0,0.0,0.0
0.0,0.0,0.0,0.0
33.861,-1.261,-0.545,0.0
0.0,0.0,0.0,0.0
24.452,-0.928,-0.666,0.0
76.661,-2.926,0.029,0.0
0.0,0.0,0.0,0.0
0.0,0.0,0.0,0.0
0.0,0.0,0.0,0.0
0.0,0.0,0.0,0.0
24.463,-0.978,-0.674,0.0
76.599,-3.08,0.004,0.0
0.0,0.0,0.0,0.0
0.0,0.0,0.0,0.0
0.0,0.0,0.0,0.0
28.452,-1.186,-0.634,0.0
24.066,-1.012,-0.671,0.0
0.0,0.0,0.0,0.0
0.0,0.0,0.0,0.0
0.0,0.0,0.0,0.0
33.272,-1.442,-0.565,0.0
27.749,-1.213,-0.626,0.0
24.007,-1.058,-0.675,0.0
0.0,0.0,0.0,0.0
0.0,0.0,0.0,0.0
20.022,-0.901,-0.231,6.0
20.031,-0.908,-0.345,1.0
28.322,-1.295,-0.645,0.0
23.922,-1.103,-0.678,0.0
20.019,-0.926,-0.013,1.0
19.999,-0.933,-0.124,18.0
19.995,-0.94,-0.235,27.0
20.022,-0.948,-0.348,24.0
20.057,-0.958,-0.46,22.0
20.077,-0.966,-0.572,3.0
19.987,-0.965,-0.016,18.0
19.99,-0.973,-0.127,29.0
19.999,-0.981,-0.238,31.0
20.011,-0.988,-0.351,28.0
20.038,-0.997,-0.463,30.0
20.069,-1.006,-0.575,25.0
67.519,-5.446,0.136,6.0
48.891,-3.96,-0.167,22.0
35.67,-2.901,-0.316,9.0
29.976,-2.448,-0.432,23.0
26.314,-2.158,-0.522,4.0
25.643,-2.112,-0.649,1.0
67.627,-5.572,0.169,12.0
47.731,-3.948,-0.139,9.0
35.69,-2.964,-0.298,4.0
29.805,-2.485,-0.414,13.0
26.383,-2.208,-0.51,2.0
24.073,-2.024,-0.597,2.0
67.686,-5.692,0.205,6.0
0.0,0.0,0.0,0.0
41.755,-3.538,-0.327,1.0
29.846,-2.539,-0.399,1.0
26.48,-2.261,-0.498,22.0
23.322,-1.999,-0.565,2.0
67.4,-5.78,0.241,4.0
0.0,0.0,0.0,0.0
41.795,-3.611,-0.304,5.0
29.878,-2.591,-0.382,151.0
26.426,-2.3,-0.482,25.0
23.54,-2.057,-0.557,5.0
80.417,-7.03,0.335,4.0
50.312,-4.414,-0.063,24.0
0.0,0.0,0.0,0.0
29.86,-2.639,-0.364,7.0
0.0,0.0,0.0,0.0
23.476,-2.09,-0.541,19.0
80.605,-7.177,0.385,6.0
50.701,-4.53,-0.032,24.0
41.524,-3.723,-0.251,16.0
29.861,-2.686,-0.346,2.0
27.678,-2.499,-0.47,27.0
22.916,-2.076,-0.513,20.0
82.112,-7.442,0.445,2.0
51.226,-4.658,0.0,25.0
41.532,-3.789,-0.224,16.0
29.887,-2.736,-0.326,1.0
28.401,-2.609,-0.464,30.0
23.068,-2.126,-0.502,11.0
85.196,-7.854,0.519,10.0
51.617,-4.773,0.035,14.0
43.344,-4.021,-0.204,18.0
37.278,-3.47,-0.381,2.0
29.304,-2.736,-0.458,15.0
23.417,-2.194,-0.493,14.0
85.009,-7.966,0.578,12.0
51.823,-4.871,0.072,6.0
43.975,-4.146,-0.176,19.0
36.27,-3.43,-0.345,13.0
29.49,-2.798,-0.44,12.0
23.564,-2.243,-0.479,13.0
85.803,-8.169,0.646,14.0
55.227,-5.274,0.117,4.0
44.593,-4.271,-0.145,19.0
37.031,-3.558,-0.324,16.0
29.93,-2.884,-0.424,8.0
23.568,-2.278,-0.461,16.0
85.799,-8.295,0.712,5.0
55.283,-5.36,0.16,2.0
45.723,-4.446,-0.114,20.0
37.649,-3.671,-0.301,14.0
30.178,-2.952,-0.404,21.0
23.568,-2.312,-0.443,9.0
89.14,-8.745,0.809,1.0
67.644,-6.655,0.249,1.0
46.591,-4.597,-0.079,21.0
38.464,-3.805,-0.277,14.0
30.539,-3.03,-0.384,20.0
23.563,-2.344,-0.424,3.0
105.127,-10.462,1.04,4.0
79.909,-7.973,0.36,8.0
47.497,-4.752,-0.042,22.0
38.85,-3.897,-0.248,14.0
30.972,-3.115,-0.364,9.0
23.578,-2.378,-0.404,1.0
111.463,-11.244,1.195,8.0
81.376,-8.229,0.435,9.0
48.087,-4.876,-0.001,22.0
41.526,-4.221,-0.229,5.0
35.268,-3.595,-0.384,2.0
23.559,-2.408,-0.384,0.0
104.699,-10.7,1.213,13.0
83.82,-8.587,0.52,6.0
48.542,-4.986,0.04,14.0
33.125,-3.411,-0.154,8.0
32.87,-3.393,-0.329,46.0
29.174,-3.02,-0.449,8.0
104.77,-10.844,1.308,5.0
33.124,-3.436,0.235,0.0
33.141,-3.447,0.057,56.0
33.104,-3.451,-0.123,68.0
33.085,-3.457,-0.301,72.0
28.59,-2.995,-0.414,32.0
111.131,-0.092,1.726,14.0
117.248,-0.078,1.137,7.0
96.856,-0.049,0.374,1.0
0.0,0.0,0.0,0.0
45.654,-0.009,-0.36,1.0
0.0,0.0,0.0,0.0
111.1,0.011,1.507,18.0
110.78,0.027,0.857,9.0
92.417,0.036,0.177,1.0
0.0,0.0,0.0,0.0
42.855,0.029,-0.421,1.0
35.023,0.029,-0.548,0.0
111.13,0.11,1.287,20.0
103.507,0.117,0.597,2.0
0.0,0.0,0.0,0.0
49.723,0.07,-0.297,0.0
0.0,0.0,0.0,0.0
0.0,0.0,0.0,0.0
111.103,0.205,1.067,13.0
92.784,0.184,0.351,4.0
0.0,0.0,0.0,0.0
0.0,0.0,0.0,0.0
36.621,0.087,-0.505,0.0
0.0,0.0,0.0,0.0
110.777,0.294,0.844,7.0
0.0,0.0,0.0,0.0
0.0,0.0,0.0,0.0
42.769,0.13,-0.426,1.0
34.189,0.109,-0.54,0.0
28.884,0.096,-0.624,0.0
94.735,0.326,0.531,4.0
0.0,0.0,0.0,0.0
49.939,0.184,-0.301,0.0
39.689,0.152,-0.475,0.0
31.938,0.126,-0.568,0.0
26.968,0.11,-0.637,0.0
89.373,0.373,0.323,1.0
0.0,0.0,0.0,0.0
45.735,0.202,-0.367,1.0
0.0,0.0,0.0,0.0
30.414,0.142,-0.602,0.0
26.147,0.125,-0.67,0.0
88.032,0.43,0.14,2.0
54.825,0.274,-0.232,0.0
42.723,0.219,-0.43,1.0
0.0,0.0,0.0,0.0
0.0,0.0,0.0,0.0
24.532,0.134,-0.679,0.0
0.0,0.0,0.0,0.0
0.0,0.0,0.0,0.0
39.435,0.228,-0.478,0.0
31.376,0.185,-0.566,0.0
26.582,0.16,-0.635,0.0
23.313,0.142,-0.693,0.0
0.0,0.0,0.0,0.0
45.956,0.29,-0.383,0.0
35.493,0.227,-0.503,0.0
29.856,0.194,-0.6,0.0
25.048,0.166,-0.649,0.0
22.295,0.15,-0.708,0.0
0.0,0.0,0.0,0.0
42.685,0.294,-0.442,1.0
33.525,0.234,-0.543,0.0
28.095,0.199,-0.622,0.0
24.231,0.174,-0.677,0.0
21.161,0.154,-0.715,0.0
48.498,0.357,-0.32,1.0
0.0,0.0,0.0,0.0
30.971,0.233,-0.565,0.0
26.524,0.202,-0.641,0.0
23.038,0.178,-0.692,0.0
20.226,0.158,-0.726,0.0
0.0,0.0,0.0,0.0
0.0,0.0,0.0,0.0
29.191,0.235,-0.593,0.0
25.2,0.205,-0.661,0.0
22.066,0.182,-0.708,0.0
19.585,0.163,-0.743,0.0
0.0,0.0,0.0,0.0
33.476,0.283,-0.554,0.0
27.527,0.235,-0.616,0.0
23.73,0.204,-0.672,0.0
20.958,0.182,-0.716,0.0
18.818,0.165,-0.753,0.0
0.0,0.0,0.0,0.0
0.0,0.0,0.0,0.0
26.402,0.237,-0.645,0.0
22.676,0.205,-0.689,0.0
20.213,0.184,-0.732,0.0
18.099,0.166,-0.762,0.0
34.6,0.319,-0.513,0.0
29.175,0.271,-0.604,0.0
24.742,0.232,-0.656,0.0
21.79,0.205,-0.707,0.0
19.355,0.184,-0.742,0.0
17.558,0.168,-0.775,0.0
8.679,-0.277,-0.918,0.0
8.314,-0.267,-0.926,0.0
7.969,-0.257,-0.933,0.0
7.636,-0.248,-0.938,0.0
7.362,-0.241,-0.946,0.0
7.07,-0.233,-0.949,0.0
8.648,-0.286,-0.916,0.0
8.269,-0.275,-0.923,0.0
7.892,-0.264,-0.925,0.0
7.602,-0.256,-0.935,0.0
7.308,-0.248,-0.941,0.0
7.043,-0.241,-0.947,0.0
8.705,-0.298,-0.923,0.0
8.294,-0.286,-0.926,0.0
7.92,-0.275,-0.93,0.0
7.634,-0.267,-0.94,0.0
7.249,-0.255,-0.934,0.0
7.052,-0.249,-0.949,0.0
8.681,-0.308,-0.921,0.0
8.278,-0.295,-0.925,0.0
7.953,-0.285,-0.934,0.0
7.61,-0.275,-0.938,0.0
7.338,-0.266,-0.946,0.0
7.06,-0.258,-0.95,0.0
8.707,-0.319,-0.925,0.0
8.302,-0.306,-0.928,0.0
7.957,-0.295,-0.935,0.0
0.0,0.0,0.0,0.0
7.306,-0.274,-0.942,0.0
7.048,-0.266,-0.948,0.0
8.622,-0.326,-0.915,0.0
8.274,-0.314,-0.925,0.0
7.922,-0.303,-0.93,0.0
7.632,-0.293,-0.94,0.0
7.314,-0.283,-0.942,0.0
7.052,-0.274,-0.949,0.0
8.677,-0.338,-0.921,0.0
8.271,-0.324,-0.924,0.0
7.879,-0.31,-0.925,0.0
7.616,-0.302,-0.938,0.0
7.335,-0.292,-0.944,0.0
7.004,-0.281,-0.941,0.0
8.686,-0.348,-0.921,0.0
8.296,-0.335,-0.926,0.0
7.9,-0.32,-0.926,0.0
7.644,-0.312,-0.94,0.0
7.302,-0.299,-0.939,0.0
7.012,-0.289,-0.942,0.0
8.66,-0.357,-0.917,0.0
8.268,-0.343,-0.922,0.0
7.927,-0.33,-0.928,0.0
0.0,0.0,0.0,0.0
7.335,-0.309,-0.942,0.0
7.067,-0.299,-0.948,0.0
8.659,-0.367,-0.915,0.0
8.269,-0.352,-0.92,0.0
7.978,-0.342,-0.933,0.0
0.0,0.0,0.0,0.0
7.346,-0.318,-0.942,0.0
7.035,-0.306,-0.942,0.0
8.683,-0.378,-0.916,0.0
8.301,-0.363,-0.922,0.0
7.968,-0.35,-0.929,0.0
0.0,0.0,0.0,0.0
7.36,-0.326,-0.942,0.0
7.107,-0.317,-0.95,0.0
8.753,-0.39,-0.921,0.0
8.372,-0.375,-0.927,0.0
8.009,-0.361,-0.932,0.0
0.0,0.0,0.0,0.0
7.384,-0.336,-0.943,0.0
7.134,-0.326,-0.951,0.0
8.786,-0.401,-0.921,0.0
8.309,-0.381,-0.918,0.0
8.036,-0.371,-0.932,0.0
0.0,0.0,0.0,0.0
7.388,-0.344,-0.941,0.0
7.144,-0.334,-0.95,0.0
8.751,-0.409,-0.915,0.0
8.375,-0.393,-0.922,0.0
8.045,-0.38,-0.93,0.0
0.0,0.0,0.0,0.0
7.45,-0.355,-0.946,0.0
7.143,-0.342,-0.947,0.0
8.837,-0.423,-0.92,0.0
8.393,-0.403,-0.92,0.0
8.103,-0.391,-0.934,0.0
0.0,0.0,0.0,0.0
7.479,-0.364,-0.946,0.0
7.156,-0.35,-0.945,0.0
8.865,-0.433,-0.919,0.0
8.474,-0.416,-0.925,0.0
8.08,-0.398,-0.927,0.0
0.0,0.0,0.0,0.0
7.485,-0.372,-0.943,0.0
7.168,-0.358,-0.943,0.0
100.704,7.535,1.703,9.0
100.517,7.545,1.135,9.0
77.94,5.87,0.442,9.0
45.94,3.471,-0.001,20.0
44.492,3.373,-0.251,18.0
40.568,3.086,-0.457,5.0
99.675,7.634,1.625,8.0
99.429,7.639,1.063,9.0
98.863,7.618,0.501,10.0
45.545,3.521,-0.029,19.0
44.1,3.42,-0.276,9.0
40.291,3.135,-0.479,4.0
98.644,7.726,1.546,8.0
45.964,3.61,0.462,7.0
45.88,3.614,0.203,25.0
45.383,3.586,-0.059,19.0
40.825,3.236,-0.283,15.0
39.192,3.116,-0.492,5.0
45.863,3.669,0.688,42.0
45.825,3.677,0.43,41.0
45.773,3.684,0.171,23.0
45.23,3.651,-0.089,24.0
40.621,3.288,-0.309,15.0
38.426,3.12,-0.509,1.0
45.787,3.741,0.655,42.0
45.776,3.75,0.397,36.0
45.719,3.756,0.139,22.0
45.056,3.712,-0.121,31.0
40.49,3.345,-0.337,15.0
37.759,3.129,-0.527,0.0
45.767,3.814,0.622,37.0
45.762,3.824,0.364,24.0
45.676,3.827,0.105,19.0
44.928,3.775,-0.154,19.0
40.154,3.383,-0.364,11.0
36.402,3.075,-0.535,0.0
45.788,3.89,0.587,32.0
45.764,3.898,0.329,19.0
45.646,3.899,0.07,19.0
44.388,3.801,-0.186,19.0
39.961,3.431,-0.393,6.0
33.951,2.922,-0.526,0.0
45.858,3.969,0.553,16.0
45.851,3.979,0.293,17.0
45.657,3.972,0.034,16.0
43.726,3.813,-0.218,19.0
39.814,3.48,-0.423,6.0
33.28,2.917,-0.542,1.0
93.205,8.213,1.048,13.0
93.096,8.222,0.521,11.0
45.578,4.035,-0.002,19.0
0.0,0.0,0.0,0.0
39.695,3.531,-0.455,8.0
32.571,2.904,-0.558,1.0
92.485,8.289,0.963,11.0
45.686,4.104,0.217,4.0
45.576,4.103,-0.04,21.0
41.043,3.704,-0.273,16.0
39.608,3.582,-0.488,6.0
31.896,2.892,-0.573,0.0
91.694,8.356,0.876,11.0
91.586,8.364,0.356,11.0
45.377,4.152,-0.08,19.0
40.449,3.709,-0.304,16.0
39.53,3.634,-0.522,2.0
31.14,2.869,-0.588,1.0
90.96,8.421,0.788,12.0
90.62,8.407,0.272,11.0
45.153,4.197,-0.12,19.0
40.065,3.732,-0.337,16.0
35.434,3.308,-0.499,1.0
30.148,2.82,-0.596,0.0
90.241,8.481,0.7,12.0
88.622,8.347,0.184,13.0
44.378,4.188,-0.159,20.0
39.65,3.749,-0.371,15.0
34.849,3.302,-0.524,1.0
29.338,2.786,-0.608,0.0
89.575,8.544,0.61,12.0
73.373,7.012,0.083,5.0
43.528,4.167,-0.197,18.0
39.379,3.777,-0.406,10.0
34.523,3.318,-0.552,1.0
28.6,2.754,-0.619,0.0
88.937,8.602,0.521,13.0
73.337,7.107,0.013,3.0
42.525,4.128,-0.234,17.0
39.307,3.823,-0.443,8.0
34.309,3.343,-0.582,0.0
27.779,2.712,-0.63,0.0
88.332,8.661,0.429,11.0
45.738,4.492,-0.037,4.0
40.686,4.003,-0.264,15.0
39.25,3.868,-0.482,8.0
31.45,3.105,-0.565,0.0
27.071,2.678,-0.64,0.0
94.648,0.328,0.379,4.0
0.0,0.0,0.0,0.0
0.0,0.0,0.0,0.0
43.064,0.131,-0.499,0.0
33.966,0.099,-0.569,1.0
28.939,0.08,-0.635,0.0
104.169,0.279,0.625,10.0
0.0,0.0,0.0,0.0
43.436,0.105,-0.188,1.0
45.316,0.104,-0.435,1.0
35.675,0.077,-0.526,0.0
30.427,0.062,-0.606,0.0
111.051,0.215,0.89,10.0
93.837,0.17,0.266,1.0
0.0,0.0,0.0,0.0
49.734,0.078,-0.377,0.0
0.0,0.0,0.0,0.0
33.283,0.044,-0.596,0.0
111.211,0.136,1.116,19.0
103.598,0.115,0.504,5.0
0.0,0.0,0.0,0.0
0.0,0.0,0.0,0.0
44.938,0.034,-0.481,0.0
35.486,0.023,-0.563,0.0
111.113,0.062,1.338,14.0
110.793,0.05,0.762,12.0
0.0,0.0,0.0,0.0
0.0,0.0,0.0,0.0
45.441,0.005,-0.394,2.0
37.636,0.001,-0.521,0.0
117.31,-0.009,1.652,10.0
117.323,-0.021,1.047,11.0
98.006,-0.028,0.37,1.0
0.0,0.0,0.0,0.0
0.0,0.0,0.0,0.0
0.0,0.0,0.0,0.0
112.449,-0.076,1.814,27.0
117.398,-0.091,1.288,16.0
110.802,-0.096,0.643,11.0
0.0,0.0,0.0,0.0
0.0,0.0,0.0,0.0
45.306,-0.052,-0.441,1.0
112.651,-0.14,2.05,15.0
112.349,-0.15,1.465,23.0
111.183,-0.158,0.878,8.0
0.0,0.0,0.0,0.0
0.0,0.0,0.0,0.0
0.0,0.0,0.0,0.0
114.006,-0.203,2.314,8.0
112.528,-0.21,1.705,25.0
119.728,-0.233,1.197,16.0
110.641,-0.224,0.525,2.0
0.0,0.0,0.0,0.0
0.0,0.0,0.0,0.0
193.937,-0.443,4.342,9.0
112.891,-0.266,1.947,7.0
119.673,-0.291,1.446,12.0
114.438,-0.287,0.783,11.0
0.0,0.0,0.0,0.0
0.0,0.0,0.0,0.0
119.824,-0.329,2.936,45.0
114.183,-0.321,2.208,10.0
112.682,-0.324,1.599,18.0
119.692,-0.353,1.07,16.0
102.885,-0.309,0.39,2.0
74.908,-0.23,-0.101,0.0
119.865,-0.38,3.188,10.0
194.11,-0.626,4.161,9.0
113.239,-0.372,1.845,6.0
119.733,-0.401,1.322,16.0
111.138,-0.378,0.656,8.0
0.0,0.0,0.0,0.0
206.523,-0.734,5.927,7.0
119.786,-0.432,2.819,15.0
114.434,-0.418,2.105,8.0
119.715,-0.444,1.575,6.0
119.728,-0.45,0.96,11.0
103.879,-0.396,0.299,1.0
206.573,-0.806,6.365,20.0
119.814,-0.473,3.076,55.0
119.819,-0.479,2.458,17.0
113.355,-0.457,1.731,6.0
119.666,-0.488,1.211,16.0
111.005,-0.458,0.553,2.0
206.729,-0.872,6.81,21.0
206.172,-0.877,5.729,6.0
119.714,-0.513,2.71,8.0
114.433,-0.495,1.991,7.0
119.695,-0.522,1.465,12.0
119.699,-0.526,0.85,6.0
190.625,-0.855,6.682,17.0
206.3,-0.932,6.165,9.0
119.786,-0.545,2.964,20.0
119.765,-0.548,2.334,13.0
113.618,-0.523,1.631,5.0
119.699,-0.554,1.101,17.0
190.568,-0.9,7.082,42.0
206.965,-0.981,6.622,6.0
119.791,-0.571,3.216,18.0
119.797,-0.574,2.589,28.0
114.386,-0.55,1.883,6.0
119.71,-0.578,1.353,16.0
189.873,-0.933,7.456,94.0
206.927,-1.021,7.061,9.0
207.722,-1.028,6.015,7.0
119.813,-0.594,2.841,91.0
119.824,-0.596,2.224,70.0
119.787,-0.597,1.605,3.0
189.809,-0.963,7.853,116.0
190.539,-0.969,6.9,33.0
0.0,0.0,0.0,0.0
119.805,-0.611,3.091,56.0
119.827,-0.612,2.476,46.0
114.334,-0.584,1.775,5.0
95.451,-0.496,4.15,30.0
190.607,-0.991,7.303,28.0
0.0,0.0,0.0,0.0
119.799,-0.623,3.342,9.0
119.808,-0.623,2.726,150.0
119.841,-0.623,2.111,43.0
95.949,-0.506,4.373,11.0
189.803,-1.001,7.673,67.0
190.602,-1.004,6.721,19.0
206.439,-1.086,6.192,8.0
119.805,-0.629,2.977,58.0
119.828,-0.628,2.361,150.0
80.939,-0.43,3.858,11.0
95.392,-0.506,4.054,31.0
190.559,-1.01,7.118,43.0
215.738,-1.14,6.926,16.0
119.804,-0.631,3.227,22.0
119.826,-0.629,2.611,101.0
81.228,-0.433,4.043,9.0
95.8,-0.508,4.273,18.0
189.877,-1.005,7.49,51.0
190.574,-1.004,6.514,8.0
0.0,0.0,0.0,0.0
119.825,-0.626,2.862,150.0
77.751,-0.412,4.032,19.0
80.92,-0.427,3.779,15.0
95.468,-0.501,3.964,17.0
190.6,-0.995,6.91,33.0
216.006,-1.121,6.718,7.0
119.813,-0.618,3.107,50.0
77.933,-0.408,4.203,8.0
81.162,-0.422,3.957,6.0
95.516,-0.493,4.164,23.0
190.583,-0.978,7.306,27.0
207.038,-1.054,6.867,5.0
207.848,-1.051,5.821,13.0
60.763,-0.311,3.404,5.0
77.728,-0.395,3.951,9.0
81.007,-0.409,3.698,10.0
189.81,-0.95,7.666,150.0
190.618,-0.945,6.713,24.0
206.573,-1.015,6.208,5.0
60.612,-0.302,3.52,7.0
77.684,-0.383,4.107,12.0
80.93,-0.396,3.86,8.0
95.386,-0.462,4.047,26.0
190.616,-0.912,7.101,43.0
206.898,-0.98,6.638,10.0
60.611,-0.291,3.643,18.0
78.366,-0.372,4.304,10.0
81.266,-0.382,4.041,6.0
95.737,-0.444,4.256,13.0
189.836,-0.87,7.458,128.0
190.627,-0.862,6.501,7.0
60.129,-0.276,3.736,21.0
60.627,-0.274,3.453,13.0
77.626,-0.346,4.017,25.0
96.183,-0.423,4.47,12.0
95.647,-0.415,3.95,13.0
190.592,-0.815,6.886,32.0
60.194,-0.261,3.862,8.0
60.614,-0.259,3.574,6.0
78.226,-0.329,4.206,7.0
80.741,-0.333,3.913,3.0
103.147,-0.419,4.465,12.0
117.375,-0.468,4.476,7.0
48.199,-0.195,3.189,27.0
60.639,-0.241,3.696,9.0
60.809,-0.237,3.39,10.0
77.697,-0.297,3.921,19.0
81.156,-0.303,3.675,7.0
117.338,-0.43,4.706,22.0
48.477,-0.18,3.305,31.0
60.239,-0.219,3.793,23.0
60.663,-0.215,3.503,26.0
77.814,-0.27,4.081,12.0
80.826,-0.274,3.819,5.0
95.523,-0.315,4.018,10.0
48.337,3.526,3.279,12.0
41.993,3.058,2.606,8.0
80.195,5.829,4.514,12.0
90.793,6.586,4.579,11.0
71.333,5.165,3.186,13.0
102.055,7.377,3.972,45.0
41.813,3.019,2.772,41.0
41.689,3.004,2.523,5.0
80.506,5.789,4.409,14.0
71.737,5.148,3.508,14.0
90.384,6.474,3.898,15.0
93.681,6.697,3.503,8.0
41.939,2.994,2.716,30.0
41.664,2.968,2.457,34.0
71.512,5.083,3.805,10.0
71.748,5.089,3.397,21.0
71.204,5.04,2.961,12.0
48.295,3.412,1.731,9.0
41.993,2.962,2.654,30.0
41.725,2.936,2.397,28.0
52.412,3.68,2.709,16.0
52.323,3.666,2.397,19.0
52.281,3.655,2.094,22.0
48.371,3.375,1.66,11.0
41.74,2.907,2.575,38.0
41.771,2.902,2.335,42.0
52.296,3.625,2.623,20.0
52.254,3.614,2.315,26.0
52.238,3.605,2.014,37.0
48.428,3.334,1.589,10.0
41.619,2.86,2.503,45.0
52.287,3.584,2.844,14.0
52.234,3.571,2.54,25.0
52.222,3.562,2.233,44.0
52.214,3.553,1.932,26.0
48.562,3.297,1.519,11.0
41.739,2.827,2.447,31.0
52.247,3.529,2.762,25.0
52.226,3.519,2.46,40.0
52.22,3.51,2.154,50.0
49.797,3.338,1.767,11.0
48.726,3.259,1.45,10.0
41.816,2.789,2.388,35.0
52.247,3.476,2.683,37.0
52.238,3.466,2.381,39.0
52.233,3.456,2.075,42.0
49.953,3.297,1.698,9.0
48.93,3.221,1.382,14.0
52.249,3.43,2.904,22.0
52.266,3.421,2.605,39.0
52.28,3.413,2.305,29.0
52.342,3.407,2.001,26.0
50.076,3.251,1.627,7.0
49.106,3.18,1.314,17.0
52.255,3.373,2.827,8.0
52.313,3.367,2.529,30.0
52.393,3.362,2.232,8.0
110.959,7.101,4.08,31.0
50.251,3.206,1.559,4.0
49.152,3.128,1.244,13.0
52.297,3.317,2.753,17.0
52.444,3.316,2.459,2.0
111.091,7.004,4.572,7.0
111.069,6.982,3.923,11.0
50.722,3.178,1.5,13.0
49.27,3.079,1.175,8.0
90.062,5.607,4.609,13.0
111.026,6.89,5.044,17.0
111.021,6.869,4.407,56.0
111.047,6.848,3.759,58.0
50.742,3.119,1.427,22.0
49.451,3.03,1.107,4.0
53.043,3.238,2.636,2.0
115.465,7.024,5.077,21.0
115.454,7.0,4.414,35.0
115.452,6.976,3.74,38.0
50.705,3.054,1.352,13.0
49.843,2.992,1.044,4.0
115.441,6.903,5.574,11.0
115.416,6.878,4.911,30.0
115.442,6.855,4.249,35.0
115.444,6.832,3.577,26.0
50.737,2.992,1.282,2.0
50.336,2.958,0.983,14.0
53.152,3.11,2.491,2.0
118.665,6.918,4.88,9.0
118.778,6.899,4.204,13.0
118.944,6.883,3.517,14.0
116.282,6.704,2.772,6.0
50.308,2.89,0.911,16.0
52.759,3.017,2.397,27.0
119.701,6.818,4.753,26.0
119.684,6.792,4.068,22.0
119.7,6.767,3.372,12.0
59.462,3.348,1.334,18.0
50.601,2.839,0.847,10.0
33.279,-3.43,2.964,53.0
33.266,-3.422,2.781,52.0
33.261,-3.415,2.599,51.0
33.245,-3.407,2.413,49.0
33.268,-3.403,2.233,51.0
0.0,0.0,0.0,0.0
33.27,-3.403,2.99,51.0
33.267,-3.395,2.808,52.0
33.256,-3.387,2.625,51.0
33.235,-3.378,2.439,49.0
33.257,-3.374,2.259,51.0
69.34,-7.022,4.333,21.0
33.267,-3.374,3.017,52.0
33.261,-3.366,2.834,52.0
33.245,-3.358,2.65,50.0
33.24,-3.35,2.465,49.0
33.249,-3.344,2.284,51.0
69.443,-6.972,4.391,34.0
33.268,-3.345,3.042,53.0
33.25,-3.336,2.858,50.0
33.24,-3.328,2.675,52.0
33.217,-3.318,2.487,50.0
33.242,-3.314,2.308,52.0
69.459,-6.911,4.443,23.0
33.252,-3.313,3.065,53.0
33.242,-3.305,2.881,51.0
33.24,-3.297,2.698,52.0
33.215,-3.287,2.511,52.0
33.233,-3.282,2.33,51.0
69.587,-6.858,4.499,18.0
33.258,-3.283,3.088,54.0
33.236,-3.273,2.903,51.0
33.236,-3.265,2.721,52.0
33.211,-3.255,2.533,52.0
33.236,-3.25,2.352,52.0
33.236,-3.243,2.17,28.0
33.254,-3.25,3.11,54.0
33.231,-3.24,2.924,51.0
33.222,-3.231,2.741,51.0
33.195,-3.221,2.553,53.0
33.226,-3.216,2.372,52.0
33.238,-3.21,2.191,41.0
33.247,-3.216,3.13,54.0
33.227,-3.206,2.945,52.0
33.213,-3.197,2.76,50.0
33.198,-3.187,2.573,52.0
33.208,-3.181,2.391,51.0
33.226,-3.175,2.21,47.0
33.244,-3.181,3.15,51.0
33.216,-3.17,2.963,51.0
33.203,-3.161,2.779,50.0
33.197,-3.152,2.592,51.0
33.207,-3.145,2.41,51.0
33.225,-3.139,2.228,48.0
47.504,-4.495,4.527,10.0
74.534,-7.034,6.69,19.0
76.248,-7.178,6.422,5.0
73.772,-6.926,5.799,9.0
69.912,-6.547,5.11,34.0
71.032,-6.635,4.801,10.0
47.448,-4.438,4.546,15.0
74.518,-6.951,6.727,14.0
74.273,-6.909,6.294,20.0
71.127,-6.599,5.626,4.0
70.238,-6.499,5.168,13.0
70.54,-6.51,4.802,26.0
73.909,-6.83,7.117,7.0
79.944,-7.367,7.255,3.0
73.608,-6.764,6.272,28.0
71.046,-6.51,5.653,14.0
70.426,-6.437,5.214,25.0
70.9,-6.462,4.858,39.0
73.686,-6.724,7.129,20.0
76.881,-6.996,7.01,4.0
71.334,-6.473,6.108,8.0
71.193,-6.441,5.694,11.0
70.422,-6.354,5.243,25.0
70.389,-6.333,4.851,10.0
73.709,-6.64,7.16,13.0
73.436,-6.595,6.726,19.0
74.412,-6.663,6.401,11.0
70.982,-6.337,5.705,11.0
70.586,-6.284,5.281,22.0
70.313,-6.241,4.872,43.0
73.373,-6.521,7.155,30.0
73.633,-6.524,6.77,9.0
73.181,-6.463,6.322,12.0
74.333,-6.546,6.0,16.0
70.73,-6.211,5.316,12.0
70.416,-6.165,4.902,25.0
73.904,-6.478,7.231,7.0
73.618,-6.432,6.792,15.0
71.254,-6.206,6.177,7.0
71.755,-6.23,5.813,20.0
70.948,-6.141,5.354,9.0
70.042,-6.045,4.896,19.0
73.769,-6.374,7.239,17.0
73.295,-6.312,6.783,17.0
71.395,-6.129,6.208,18.0
71.028,-6.078,5.774,19.0
73.157,-6.24,5.539,3.0
70.153,-5.966,4.922,15.0
73.56,-6.261,7.237,15.0
71.163,-6.038,6.603,7.0
71.539,-6.049,6.238,24.0
74.133,-6.249,6.042,9.0
71.041,-5.969,5.394,16.0
74.821,-6.267,5.265,22.0
73.238,-6.139,7.22,19.0
79.248,-6.621,7.369,10.0
74.713,-6.221,6.529,8.0
70.425,-5.844,5.753,31.0
70.939,-5.867,5.399,15.0
70.88,-5.844,5.0,15.0
73.269,-6.046,7.235,10.0
71.413,-5.872,6.651,16.0
72.942,-5.977,6.385,9.0
73.307,-5.987,5.999,9.0
75.404,-6.137,5.749,5.0
76.682,-6.221,5.419,8.0
73.513,-5.968,7.268,12.0
79.445,-6.427,7.408,9.0
70.914,-5.716,6.215,8.0
73.328,-5.89,6.008,21.0
72.722,-5.821,5.552,6.0
70.525,-5.626,4.99,20.0
71.59,-5.715,7.085,50.0
70.935,-5.642,6.62,13.0
70.744,-5.606,6.205,14.0
73.68,-5.818,6.041,23.0
72.687,-5.719,5.553,11.0
70.606,-5.537,4.999,9.0
71.515,-5.61,7.08,28.0
70.847,-5.537,6.615,26.0
68.017,-5.296,5.968,35.0
67.994,-5.274,5.577,79.0
67.993,-5.255,5.195,77.0
67.975,-5.235,4.813,36.0
71.454,-5.505,7.074,7.0
68.019,-5.22,6.35,67.0
73.065,-5.586,6.409,7.0
73.074,-5.566,5.991,14.0
77.903,-5.912,5.95,17.0
71.052,-5.373,5.028,9.0
68.039,-5.147,6.732,10.0
70.953,-5.346,6.62,19.0
70.969,-5.327,6.221,18.0
72.889,-5.45,5.971,24.0
78.394,-5.839,5.982,6.0
75.847,-5.628,5.362,8.0
68.046,-5.05,6.727,29.0
71.165,-5.261,6.633,13.0
0.0,0.0,0.0,0.0
72.977,-5.352,5.971,24.0
74.638,-5.453,5.686,10.0
75.971,-5.529,5.36,9.0
72.404,-5.269,7.149,10.0
73.277,-5.311,6.82,11.0
70.799,-5.11,6.189,8.0
72.33,-5.201,5.906,35.0
74.368,-5.326,5.653,14.0
71.732,-5.116,5.05,9.0
72.662,-5.182,7.161,13.0
78.143,-5.55,7.258,6.0
71.89,-5.085,6.271,20.0
72.926,-5.137,5.941,22.0
72.013,-5.053,5.46,18.0
76.185,-5.325,5.347,9.0
71.152,-4.972,6.997,35.0
70.051,-4.874,6.491,13.0
72.472,-5.021,6.305,19.0
72.19,-4.981,5.864,8.0
71.955,-4.945,5.438,21.0
75.545,-5.17,5.283,5.0
69.806,-4.775,6.846,25.0
72.933,-4.968,6.738,26.0
69.423,-4.709,6.019,12.0
72.599,-4.903,5.877,19.0
72.958,-4.907,5.493,10.0
71.998,-4.822,5.013,10.0
64.021,-4.285,6.259,26.0
69.658,-4.642,6.414,15.0
64.297,-4.266,5.555,39.0
72.877,-4.814,5.876,13.0
72.938,-4.797,5.467,24.0
71.96,-4.713,4.987,10.0
64.034,-4.191,6.238,33.0
64.105,-4.177,5.88,39.0
64.076,-4.156,5.512,39.0
71.004,-4.586,5.698,34.0
72.002,-4.63,5.369,15.0
71.795,-4.596,4.948,10.0
9.734,-0.521,-0.895,0.0
9.294,-0.5,-0.907,0.0
8.816,-0.476,-0.91,0.0
0.0,0.0,0.0,0.0
8.089,-0.441,-0.928,0.0
7.773,-0.426,-0.936,0.0
9.716,-0.533,-0.895,0.0
9.264,-0.51,-0.906,0.0
8.774,-0.485,-0.907,0.0
8.472,-0.471,-0.925,0.0
8.083,-0.451,-0.928,0.0
7.764,-0.435,-0.936,0.0
9.694,-0.544,-0.894,0.0
9.282,-0.523,-0.909,0.0
8.807,-0.498,-0.912,0.0
8.378,-0.476,-0.916,0.0
8.092,-0.462,-0.931,0.0
7.749,-0.444,-0.935,0.0
9.726,-0.558,-0.899,0.0
9.23,-0.532,-0.905,0.0
8.815,-0.51,-0.914,0.0
8.415,-0.489,-0.921,0.0
8.105,-0.473,-0.933,0.0
7.745,-0.454,-0.935,0.0
9.711,-0.569,-0.898,0.0
9.264,-0.545,-0.909,0.0
8.861,-0.524,-0.919,0.0
8.385,-0.498,-0.918,0.0
8.044,-0.479,-0.926,0.0
7.784,-0.466,-0.94,0.0
9.705,-0.581,-0.897,0.0
9.242,-0.556,-0.907,0.0
8.863,-0.535,-0.919,0.0
8.375,-0.508,-0.917,0.0
8.083,-0.492,-0.93,0.0
7.742,-0.473,-0.935,0.0
9.686,-0.592,-0.896,0.0
9.262,-0.568,-0.908,0.0
8.858,-0.545,-0.919,0.0
8.416,-0.52,-0.921,0.0
8.087,-0.502,-0.931,0.0
7.771,-0.484,-0.938,0.0
9.681,-0.603,-0.895,0.0
9.227,-0.577,-0.904,0.0
8.885,-0.558,-0.921,0.0
8.412,-0.53,-0.92,0.0
8.072,-0.511,-0.928,0.0
7.772,-0.494,-0.937,0.0
9.686,-0.615,-0.894,0.0
9.25,-0.59,-0.905,0.0
8.874,-0.568,-0.918,0.0
0.0,0.0,0.0,0.0
8.119,-0.524,-0.932,0.0
7.751,-0.502,-0.934,0.0
9.733,-0.63,-0.897,0.0
9.295,-0.604,-0.908,0.0
8.87,-0.578,-0.917,0.0
0.0,0.0,0.0,0.0
8.117,-0.533,-0.931,0.0
7.795,-0.514,-0.938,0.0
9.749,-0.643,-0.896,0.0
9.204,-0.609,-0.898,0.0
8.897,-0.591,-0.917,0.0
0.0,0.0,0.0,0.0
8.122,-0.543,-0.929,0.0
7.766,-0.521,-0.932,0.0
9.752,-0.654,-0.894,0.0
9.338,-0.629,-0.908,0.0
8.903,-0.601,-0.916,0.0
0.0,0.0,0.0,0.0
8.182,-0.557,-0.934,0.0
7.815,-0.534,-0.936,0.0
9.794,-0.668,-0.896,0.0
9.37,-0.642,-0.909,0.0
8.943,-0.614,-0.917,0.0
0.0,0.0,0.0,0.0
8.167,-0.565,-0.93,0.0
7.864,-0.546,-0.939,0.0
9.806,-0.68,-0.894,0.0
9.39,-0.653,-0.908,0.0
8.909,-0.622,-0.911,0.0
0.0,0.0,0.0,0.0
8.201,-0.577,-0.931,0.0
7.862,-0.555,-0.936,0.0
9.855,-0.695,-0.894,0.0
9.393,-0.664,-0.905,0.0
8.979,-0.637,-0.915,0.0
0.0,0.0,0.0,0.0
8.179,-0.584,-0.925,0.0
7.887,-0.565,-0.936,0.0
9.864,-0.706,-0.891,0.0
9.469,-0.68,-0.908,0.0
9.006,-0.649,-0.913,0.0
0.0,0.0,0.0,0.0
8.256,-0.598,-0.93,0.0
7.88,-0.573,-0.932,0.0
20.822,-1.734,-0.737,0.0
18.897,-1.572,-0.768,0.0
17.107,-1.421,-0.786,0.0
15.754,-1.306,-0.808,0.0
14.735,-1.22,-0.833,0.0
13.711,-1.133,-0.848,0.0
21.244,-1.753,-0.721,0.0
19.194,-1.581,-0.753,0.0
17.615,-1.449,-0.784,0.0
15.926,-1.307,-0.794,0.0
14.998,-1.229,-0.827,0.0
13.934,-1.14,-0.842,0.0
21.831,-1.783,-0.71,0.0
19.788,-1.613,-0.748,0.0
17.942,-1.46,-0.772,0.0
16.582,-1.347,-0.803,0.0
15.257,-1.237,-0.819,0.0
14.248,-1.153,-0.84,0.0
22.711,-1.835,-0.706,0.0
20.345,-1.64,-0.739,0.0
18.156,-1.461,-0.755,0.0
16.864,-1.354,-0.792,0.0
15.621,-1.252,-0.816,0.0
14.474,-1.158,-0.832,0.0
23.561,-1.882,-0.699,0.0
21.209,-1.69,-0.741,0.0
19.069,-1.517,-0.766,0.0
17.299,-1.373,-0.788,0.0
15.88,-1.258,-0.807,0.0
14.791,-1.169,-0.83,0.0
23.929,-1.889,-0.676,0.0
21.847,-1.721,-0.732,0.0
19.264,-1.514,-0.747,0.0
17.709,-1.388,-0.781,0.0
16.537,-1.293,-0.817,0.0
15.109,-1.179,-0.826,0.0
25.006,-1.949,-0.671,0.0
21.844,-1.698,-0.701,0.0
19.69,-1.527,-0.736,0.0
18.012,-1.394,-0.77,0.0
16.604,-1.282,-0.797,0.0
15.351,-1.182,-0.818,0.0
0.0,0.0,0.0,0.0
23.172,-1.777,-0.711,0.0
20.862,-1.596,-0.75,0.0
18.59,-1.419,-0.769,0.0
17.189,-1.309,-0.801,0.0
15.641,-1.188,-0.812,0.0
0.0,0.0,0.0,0.0
23.475,-1.775,-0.688,0.0
20.835,-1.571,-0.721,0.0
18.996,-1.429,-0.759,0.0
17.404,-1.305,-0.787,0.0
16.077,-1.203,-0.812,0.0
0.0,0.0,0.0,0.0
24.404,-1.817,-0.682,0.0
21.804,-1.619,-0.724,0.0
19.623,-1.453,-0.757,0.0
17.822,-1.316,-0.782,0.0
16.445,-1.211,-0.808,0.0
28.936,-2.128,-0.617,0.0
24.839,-1.821,-0.66,0.0
22.386,-1.636,-0.713,0.0
19.716,-1.437,-0.734,2.0
18.117,-1.317,-0.77,0.0
16.677,-1.209,-0.797,0.0
30.612,-2.214,-0.612,0.0
0.0,0.0,0.0,0.0
22.927,-1.648,-0.7,0.0
19.817,-1.42,-0.711,0.0
18.452,-1.318,-0.759,0.0
17.222,-1.227,-0.8,0.0
31.588,-2.246,-0.589,0.0
26.736,-1.894,-0.639,0.0
23.472,-1.658,-0.685,0.0
20.472,-1.441,-0.708,0.0
19.55,-1.372,-0.779,0.0
17.471,-1.222,-0.788,0.0
0.0,0.0,0.0,0.0
28.401,-1.976,-0.642,0.0
24.251,-1.682,-0.676,0.0
21.459,-1.483,-0.714,0.0
19.748,-1.36,-0.761,1.0
17.818,-1.223,-0.781,0.0
20.075,-1.375,-0.322,6.0
20.099,-1.372,-0.428,3.0
20.117,-1.368,-0.535,0.0
22.264,-1.509,-0.712,0.0
19.847,-1.341,-0.739,2.0
18.31,-1.232,-0.779,0.0
20.049,-1.347,-0.296,28.0
20.06,-1.342,-0.402,19.0
20.108,-1.341,-0.509,22.0
20.089,-1.334,-0.617,18.0
20.091,-1.33,-0.723,7.0
0.0,0.0,0.0,0.0
0.0,0.0,0.0,0.0
0.0,0.0,0.0,0.0
0.0,0.0,0.0,0.0
0.0,0.0,0.0,0.0
33.316,-1.259,-0.594,0.0
0.0,0.0,0.0,0.0
0.0,0.0,0.0,0.0
0.0,0.0,0.0,0.0
0.0,0.0,0.0,0.0
41.262,-1.495,-0.482,0.0
0.0,0.0,0.0,0.0
28.137,-1.001,-0.63,0.0
138.503,-4.895,0.734,3.0
0.0,0.0,0.0,0.0
0.0,0.0,0.0,0.0
41.564,-1.426,-0.452,1.0
34.057,-1.157,-0.553,0.0
29.382,-0.988,-0.635,0.0
138.589,-4.63,0.841,10.0
0.0,0.0,0.0,0.0
0.0,0.0,0.0,0.0
44.094,-1.427,-0.446,1.0
0.0,0.0,0.0,0.0
29.623,-0.938,-0.618,0.0
138.69,-4.362,0.945,10.0
0.0,0.0,0.0,0.0
0.0,0.0,0.0,0.0
44.583,-1.355,-0.419,1.0
38.108,-1.145,-0.563,0.0
30.459,-0.905,-0.614,0.0
138.401,-4.079,1.041,23.0
0.0,0.0,0.0,0.0
59.684,-1.716,-0.193,0.0
48.082,-1.366,-0.419,1.0
37.739,-1.059,-0.532,0.0
21.913,-0.607,-0.427,2.0
138.791,-3.811,1.138,22.0
0.0,0.0,0.0,0.0
0.0,0.0,0.0,0.0
0.0,0.0,0.0,0.0
38.049,-0.991,-0.511,0.0
31.637,-0.813,-0.596,0.0
138.842,-3.536,1.227,26.0
0.0,0.0,0.0,0.0
0.0,0.0,0.0,0.0
48.264,-1.177,-0.359,0.0
0.0,0.0,0.0,0.0
0.0,0.0,0.0,0.0
138.909,-3.257,1.311,19.0
0.0,0.0,0.0,0.0
0.0,0.0,0.0,0.0
0.0,0.0,0.0,0.0
0.0,0.0,0.0,0.0
0.0,0.0,0.0,0.0
139.028,-2.976,1.392,16.0
138.908,-2.924,0.64,3.0
81.474,-1.685,-0.064,1.0
0.0,0.0,0.0,0.0
0.0,0.0,0.0,0.0
33.739,-0.661,-0.577,0.0
138.964,-2.687,1.466,8.0
138.794,-2.634,0.713,5.0
0.0,0.0,0.0,0.0
0.0,0.0,0.0,0.0
42.134,-0.754,-0.471,0.0
35.067,-0.615,-0.582,1.0
139.256,-2.401,1.54,4.0
139.056,-2.348,0.784,9.0
0.0,0.0,0.0,0.0
0.0,0.0,0.0,0.0
42.809,-0.676,-0.458,0.0
0.0,0.0,0.0,0.0
138.883,-2.104,1.6,16.0
138.842,-2.053,0.847,17.0
0.0,0.0,0.0,0.0
0.0,0.0,0.0,0.0
0.0,0.0,0.0,0.0
34.954,-0.467,-0.548,0.0
0.0,0.0,0.0,0.0
139.192,-1.767,0.908,12.0
0.0,0.0,0.0,0.0
0.0,0.0,0.0,0.0
45.378,-0.526,-0.447,0.0
35.775,-0.402,-0.547,0.0
119.746,-1.308,1.479,150.0
119.771,-1.264,0.828,148.0
0.0,0.0,0.0,0.0
0.0,0.0,0.0,0.0
0.0,0.0,0.0,0.0
0.0,0.0,0.0,0.0
119.7,-1.055,1.521,26.0
114.387,-0.967,0.831,10.0
0.0,0.0,0.0,0.0
0.0,0.0,0.0,0.0
0.0,0.0,0.0,0.0
0.0,0.0,0.0,0.0
119.709,-0.799,1.559,12.0
114.305,-0.72,0.866,7.0
0.0,0.0,0.0,0.0
0.0,0.0,0.0,0.0
0.0,0.0,0.0,0.0
37.279,-0.181,-0.534,0.0
119.666,-0.542,1.593,11.0
119.756,-0.5,0.941,7.0
0.0,0.0,0.0,0.0
0.0,0.0,0.0,0.0
45.229,-0.14,-0.389,1.0
0.0,0.0,0.0,0.0
112.446,-0.268,1.524,24.0
117.28,-0.238,0.949,7.0
99.069,-0.165,0.261,2.0
0.0,0.0,0.0,0.0
45.334,-0.042,-0.38,1.0
37.402,-0.022,-0.518,0.0
117.307,-0.028,1.615,18.0
111.191,0.013,0.923,7.0
95.472,0.045,0.27,2.0
0.0,0.0,0.0,0.0
45.669,0.054,-0.375,0.0
37.996,0.059,-0.519,0.0
119.887,0.228,1.671,14.0
111.071,0.252,0.94,17.0
94.664,0.248,0.283,1.0
0.0,0.0,0.0,0.0
49.847,0.166,-0.402,0.0
0.0,0.0,0.0,0.0
111.117,0.451,1.564,26.0
110.971,0.489,0.953,19.0
88.169,0.421,0.274,2.0
0.0,0.0,0.0,0.0
0.0,0.0,0.0,0.0
0.0,0.0,0.0,0.0
0.0,0.0,0.0,0.0
104.857,0.687,0.91,25.0
85.48,0.591,0.272,5.0
0.0,0.0,0.0,0.0
48.672,0.37,-0.384,0.0
0.0,0.0,0.0,0.0
104.726,0.875,1.49,27.0
98.6,0.86,0.861,16.0
85.405,0.773,0.276,4.0
0.0,0.0,0.0,0.0
46.599,0.455,-0.366,0.0
0.0,0.0,0.0,0.0
98.568,1.037,1.404,31.0
98.466,1.069,0.861,18.0
85.264,0.956,0.276,6.0
0.0,0.0,0.0,0.0
0.0,0.0,0.0,0.0
0.0,0.0,0.0,0.0
98.498,1.249,1.401,30.0
98.52,1.284,0.859,19.0
81.038,1.083,0.26,5.0
0.0,0.0,0.0,0.0
46.92,0.66,-0.37,0.0
37.653,0.542,-0.505,0.0
92.017,1.363,1.304,20.0
91.942,1.393,0.796,28.0
81.065,1.256,0.255,5.0
0.0,0.0,0.0,0.0
47.372,0.767,-0.378,0.0
0.0,0.0,0.0,0.0
91.85,1.557,1.293,13.0
91.838,1.588,0.786,26.0
84.403,1.489,0.256,4.0
0.0,0.0,0.0,0.0
47.758,0.875,-0.386,0.0
0.0,0.0,0.0,0.0
87.45,1.668,1.22,36.0
85.474,1.66,0.72,20.0
77.908,1.54,0.225,7.0
0.0,0.0,0.0,0.0
48.412,0.99,-0.399,0.0
0.0,0.0,0.0,0.0
85.268,1.809,1.175,35.0
85.234,1.836,0.703,24.0
71.994,1.576,0.195,15.0
0.0,0.0,0.0,0.0
48.708,1.099,-0.411,1.0
0.0,0.0,0.0,0.0
85.275,1.989,1.158,35.0
85.164,2.014,0.685,19.0
71.797,1.723,0.179,14.0
65.976,1.605,-0.206,0.0
0.0,0.0,0.0,0.0
0.0,0.0,0.0,0.0
78.938,2.007,1.053,28.0
78.883,2.033,0.615,25.0
71.485,1.865,0.16,13.0
64.714,1.711,-0.219,2.0
0.0,0.0,0.0,0.0
0.0,0.0,0.0,0.0
76.875,2.118,1.004,6.0
78.848,2.198,0.592,14.0
71.124,2.006,0.139,9.0
62.921,1.794,-0.232,1.0
45.666,1.317,-0.422,0.0
35.679,1.041,-0.528,0.0
78.968,2.339,1.006,6.0
78.916,2.364,0.567,10.0
70.915,2.148,0.115,7.0
61.574,1.885,-0.247,1.0
45.497,1.408,-0.436,0.0
35.076,1.096,-0.531,0.0
72.448,2.298,0.898,29.0
72.315,2.316,0.494,32.0
65.425,2.116,0.083,9.0
57.028,1.864,-0.25,0.0
45.437,1.499,-0.452,0.0
35.302,1.176,-0.548,0.0
72.355,2.444,0.869,34.0
72.268,2.464,0.465,21.0
65.16,2.243,0.056,12.0
58.102,2.018,-0.278,2.0
0.0,0.0,0.0,0.0
35.088,1.241,-0.559,0.0
72.392,2.594,0.838,21.0
72.162,2.608,0.434,15.0
65.051,2.372,0.028,8.0
52.854,1.943,-0.276,0.0
44.692,1.657,-0.483,0.0
34.623,1.294,-0.567,1.0
119.98,4.54,1.336,18.0
71.911,2.744,0.399,8.0
64.854,2.494,-0.001,7.0
55.987,2.171,-0.319,0.0
40.706,1.591,-0.459,0.0
33.566,1.322,-0.566,0.0
119.972,4.783,1.276,12.0
66.075,2.655,0.334,18.0
58.835,2.382,-0.031,17.0
55.001,2.243,-0.342,1.0
40.179,1.651,-0.474,0.0
33.079,1.37,-0.575,0.0
63.288,2.649,0.64,7.0
65.991,2.783,0.298,19.0
58.638,2.491,-0.062,12.0
49.042,2.098,-0.331,0.0
0.0,0.0,0.0,0.0
32.558,1.413,-0.584,0.0
66.071,2.898,0.631,17.0
65.949,2.913,0.26,14.0
58.486,2.6,-0.095,6.0
0.0,0.0,0.0,0.0
0.0,0.0,0.0,0.0
31.089,1.411,-0.576,0.0
66.206,3.034,0.592,15.0
65.786,3.035,0.22,9.0
52.702,2.447,-0.118,16.0
47.594,2.224,-0.378,0.0
37.893,1.782,-0.514,0.0
30.942,1.464,-0.593,0.0
120.053,5.738,0.999,15.0
65.658,3.157,0.178,12.0
52.035,2.516,-0.15,24.0
0.0,0.0,0.0,0.0
0.0,0.0,0.0,0.0
30.281,1.491,-0.6,0.0
120.033,5.967,0.92,15.0
59.358,2.967,0.121,16.0
51.413,2.585,-0.183,9.0
42.614,2.154,-0.395,0.0
35.652,1.813,-0.53,0.0
0.0,0.0,0.0,0.0
59.4,3.065,0.414,26.0
59.087,3.066,0.079,18.0
0.0,0.0,0.0,0.0
42.503,2.229,-0.424,1.0
35.079,1.85,-0.547,0.0
29.285,1.552,-0.621,0.0
59.316,3.172,0.37,23.0
52.383,2.816,0.032,14.0
48.462,2.618,-0.242,3.0
42.383,2.302,-0.454,1.0
0.0,0.0,0.0,0.0
28.741,1.577,-0.632,0.0
59.334,3.283,0.325,20.0
52.026,2.893,-0.007,23.0
47.642,2.662,-0.274,4.0
40.39,2.268,-0.464,0.0
0.0,0.0,0.0,0.0
27.595,1.565,-0.628,0.0
59.292,3.39,0.278,8.0
51.597,2.964,-0.048,23.0
46.619,2.691,-0.306,12.0
38.15,2.212,-0.469,0.0
31.872,1.857,-0.572,0.0
27.146,1.589,-0.64,0.0
52.462,3.095,0.203,2.0
51.356,3.043,-0.09,24.0
45.908,2.733,-0.34,8.0
37.812,2.261,-0.497,1.0
31.148,1.871,-0.585,0.0
26.625,1.606,-0.65,0.0
52.367,3.183,0.158,22.0
51.103,3.119,-0.133,21.0
45.318,2.778,-0.374,10.0
37.643,2.317,-0.527,1.0
30.726,1.899,-0.604,0.0
26.178,1.625,-0.662,0.0
52.077,3.256,0.111,15.0
45.789,2.875,-0.16,20.0
44.644,2.814,-0.408,6.0
35.311,2.235,-0.526,1.0
29.837,1.896,-0.613,0.0
25.464,1.625,-0.667,0.0
51.807,3.329,0.064,14.0
45.461,2.932,-0.2,20.0
44.044,2.852,-0.443,1.0
34.047,2.213,-0.538,0.0
28.684,1.872,-0.616,0.0
24.902,1.631,-0.676,0.0
51.639,3.406,0.015,18.0
44.783,2.964,-0.239,19.0
41.331,2.746,-0.455,2.0
33.13,2.209,-0.555,0.0
0.0,0.0,0.0,0.0
24.381,1.638,-0.685,0.0
51.471,3.481,-0.034,11.0
44.091,2.991,-0.278,12.0
38.713,2.636,-0.464,0.0
31.993,2.186,-0.568,0.0
27.213,1.866,-0.637,0.0
23.828,1.64,-0.693,0.0
45.992,3.185,-0.076,27.0
42.689,2.966,-0.312,3.0
38.022,2.651,-0.493,0.0
31.214,2.183,-0.585,0.0
26.647,1.87,-0.651,0.0
23.274,1.639,-0.7,0.0
45.557,3.228,-0.121,20.0
41.916,2.979,-0.349,2.0
36.486,2.602,-0.511,1.0
30.184,2.159,-0.597,0.0
25.806,1.852,-0.657,0.0
22.742,1.638,-0.708,0.0
45.185,3.273,-0.167,20.0
41.36,3.005,-0.387,4.0
35.076,2.556,-0.528,1.0
29.179,2.133,-0.607,0.0
25.13,1.842,-0.666,0.0
22.2,1.633,-0.714,0.0
44.734,3.308,-0.213,19.0
40.902,3.034,-0.427,9.0
0.0,0.0,0.0,0.0
28.284,2.11,-0.619,0.0
24.786,1.855,-0.684,0.0
21.723,1.63,-0.722,0.0
44.402,3.35,-0.259,5.0
40.499,3.064,-0.466,3.0
32.366,2.456,-0.557,0.0
27.551,2.096,-0.633,0.0
23.789,1.815,-0.682,0.0
20.997,1.607,-0.722,0.0
40.955,3.15,-0.284,13.0
40.297,3.107,-0.509,0.0
31.261,2.417,-0.573,0.0
26.924,2.087,-0.649,0.0
23.29,1.81,-0.694,0.0
20.566,1.603,-0.73,0.0
40.657,3.185,-0.328,8.0
35.847,2.815,-0.493,0.0
30.166,2.375,-0.587,0.0
26.059,2.057,-0.658,0.0
22.703,1.797,-0.702,0.0
20.205,1.604,-0.74,0.0
40.395,3.221,-0.373,5.0
34.845,2.785,-0.52,1.0
29.306,2.348,-0.604,0.0
25.243,2.028,-0.666,0.0
22.163,1.785,-0.712,0.0
19.668,1.588,-0.744,0.0
40.21,3.26,-0.418,6.0
33.535,2.726,-0.54,1.0
28.431,2.316,-0.619,0.0
24.494,2.0,-0.676,0.0
21.619,1.77,-0.72,0.0
19.338,1.587,-0.754,0.0
40.046,3.3,-0.464,6.0
32.348,2.672,-0.559,0.0
27.382,2.267,-0.629,0.0
23.956,1.987,-0.689,0.0
21.066,1.752,-0.727,0.0
18.76,1.564,-0.754,0.0
39.995,3.346,-0.511,1.0
31.286,2.623,-0.578,0.0
26.61,2.236,-0.643,0.0
23.11,1.946,-0.693,0.0
20.523,1.732,-0.732,0.0
18.372,1.554,-0.761,0.0
36.768,3.122,-0.515,1.0
29.97,2.55,-0.59,0.0
25.828,2.202,-0.656,0.0
22.268,1.902,-0.695,0.0
19.991,1.712,-0.738,0.0
18.061,1.55,-0.77,0.0
33.835,2.913,-0.516,0.0
28.918,2.495,-0.605,0.0
25.054,2.166,-0.668,0.0
22.03,1.908,-0.715,0.0
19.582,1.7,-0.747,0.0
17.772,1.545,-0.78,0.0
32.81,2.863,-0.541,0.0
27.662,2.418,-0.614,0.0
24.177,2.117,-0.674,0.0
21.415,1.879,-0.722,0.0
19.199,1.688,-0.757,0.0
17.322,1.526,-0.782,0.0
31.67,2.798,-0.562,0.0
27.042,2.394,-0.634,0.0
23.452,2.08,-0.684,0.0
20.774,1.846,-0.727,0.0
18.595,1.655,-0.757,0.0
17.022,1.518,-0.791,0.0
30.551,2.733,-0.581,0.0
26.196,2.347,-0.648,0.0
22.806,2.047,-0.694,0.0
20.301,1.825,-0.736,0.0
18.238,1.643,-0.766,0.0
16.624,1.5,-0.793,0.0
29.254,2.647,-0.594,0.0
25.487,2.31,-0.663,0.0
22.272,2.022,-0.707,0.0
19.663,1.788,-0.739,0.0
17.866,1.627,-0.774,0.0
16.312,1.488,-0.8,0.0
28.213,2.581,-0.61,0.0
24.477,2.242,-0.669,0.0
21.638,1.985,-0.715,0.0
19.292,1.773,-0.75,0.0
17.44,1.605,-0.778,0.0
15.939,1.47,-0.802,0.0
27.273,2.52,-0.625,0.0
24.009,2.222,-0.687,0.0
21.133,1.959,-0.726,0.0
18.837,1.748,-0.757,0.0
17.08,1.588,-0.784,0.0
15.587,1.452,-0.805,0.0
26.521,2.475,-0.642,0.0
22.952,2.145,-0.687,0.0
20.42,1.911,-0.729,0.0
18.426,1.727,-0.765,0.0
16.745,1.572,-0.791,0.0
15.329,1.441,-0.812,0.0
25.538,2.405,-0.653,0.0
22.47,2.119,-0.703,0.0
19.894,1.879,-0.736,0.0
17.916,1.694,-0.767,0.0
16.351,1.548,-0.794,0.0
14.985,1.421,-0.814,0.0
24.748,2.351,-0.665,0.0
21.746,2.068,-0.709,0.0
19.526,1.86,-0.748,0.0
17.497,1.668,-0.773,0.0
15.937,1.522,-0.795,0.0
14.815,1.417,-0.825,0.0
23.897,2.289,-0.674,0.0
21.166,2.029,-0.718,0.0
18.963,1.82,-0.752,0.0
17.168,1.65,-0.781,0.0
15.685,1.51,-0.804,0.0
14.468,1.394,-0.825,0.0
23.317,2.25,-0.689,0.0
20.62,1.992,-0.727,0.0
18.436,1.783,-0.756,0.0
16.785,1.625,-0.786,0.0
15.415,1.494,-0.811,0.0
14.223,1.381,-0.83,0.0
22.515,2.188,-0.696,0.0
20.12,1.958,-0.737,0.0
18.009,1.754,-0.763,0.0
16.414,1.601,-0.791,0.0
15.144,1.479,-0.817,0.0
13.949,1.364,-0.833,0.0
21.858,2.138,-0.705,0.0
19.489,1.909,-0.74,0.0
17.642,1.73,-0.772,0.0
16.126,1.583,-0.799,0.0
14.856,1.46,-0.822,0.0
13.735,1.351,-0.839,0.0
21.252,2.092,-0.714,0.0
19.043,1.876,-0.749,0.0
17.278,1.704,-0.779,0.0
15.746,1.555,-0.802,0.0
14.53,1.436,-0.824,0.0
13.48,1.334,-0.842,0.0
20.695,2.049,-0.723,0.0
18.475,1.83,-0.752,0.0
16.912,1.677,-0.785,0.0
15.394,1.528,-0.805,0.0
14.312,1.422,-0.831,0.0
13.276,1.32,-0.847,0.0
20.141,2.004,-0.731,0.0
18.105,1.803,-0.761,0.0
16.51,1.645,-0.789,0.0
15.156,1.512,-0.813,0.0
13.964,1.394,-0.829,0.0
12.986,1.298,-0.846,0.0
19.596,1.959,-0.738,0.0
17.736,1.774,-0.769,0.0
16.197,1.622,-0.796,0.0
14.804,1.483,-0.814,0.0
13.802,1.384,-0.838,0.0
12.763,1.281,-0.849,0.0
19.182,1.926,-0.748,0.0
17.383,1.746,-0.777,0.0
15.84,1.592,-0.8,0.0
14.59,1.468,-0.822,0.0
13.42,1.351,-0.833,0.0
12.458,1.255,-0.845,0.0
18.588,1.873,-0.749,0.0
16.947,1.709,-0.781,0.0
15.525,1.566,-0.804,0.0
14.295,1.443,-0.824,0.0
13.385,1.353,-0.849,0.0
12.349,1.249,-0.855,0.0
18.095,1.829,-0.754,0.0
16.633,1.682,-0.788,0.0
15.25,1.544,-0.811,0.0
14.078,1.426,-0.831,0.0
13.131,1.331,-0.85,0.0
12.166,1.234,-0.858,0.0
17.756,1.8,-0.763,0.0
16.257,1.649,-0.792,0.0
14.943,1.517,-0.814,0.0
13.82,1.404,-0.834,0.0
12.849,1.306,-0.849,0.0
11.871,1.207,-0.853,0.0
17.399,1.768,-0.771,0.0
15.963,1.623,-0.799,0.0
14.689,1.494,-0.82,0.0
13.528,1.377,-0.834,0.0
12.388,1.262,-0.835,0.0
11.738,1.196,-0.859,0.0
17.025,1.733,-0.777,0.0
15.599,1.589,-0.801,0.0
14.42,1.47,-0.824,0.0
13.351,1.361,-0.841,0.0
12.363,1.261,-0.85,0.0
11.569,1.181,-0.862,0.0
16.748,1.708,-0.786,0.0
15.312,1.562,-0.807,0.0
14.148,1.444,-0.827,0.0
13.106,1.338,-0.843,0.0
12.223,1.249,-0.856,0.0
11.332,1.158,-0.859,0.0
16.378,1.672,-0.79,0.0
15.079,1.54,-0.814,0.0
13.903,1.42,-0.83,0.0
12.897,1.318,-0.846,0.0
11.954,1.222,-0.853,0.0
11.207,1.146,-0.865,0.0
16.003,1.635,-0.792,0.0
14.729,1.505,-0.814,0.0
13.721,1.402,-0.837,0.0
12.674,1.296,-0.848,0.0
11.827,1.21,-0.859,0.0
11.023,1.128,-0.864,0.0
15.768,1.611,-0.801,0.0
14.52,1.484,-0.821,0.0
13.461,1.376,-0.839,0.0
12.489,1.277,-0.851,0.0
11.68,1.195,-0.864,0.0
10.901,1.115,-0.869,0.0
15.441,1.577,-0.804,0.0
14.251,1.456,-0.824,0.0
13.313,1.36,-0.846,0.0
12.282,1.255,-0.853,0.0
11.411,1.167,-0.858,0.0
10.766,1.101,-0.872,0.0
15.127,1.544,-0.806,0.0
14.024,1.432,-0.828,0.0
13.085,1.336,-0.848,0.0
12.036,1.229,-0.851,0.0
11.301,1.154,-0.864,0.0
10.646,1.088,-0.875,0.0
14.917,1.521,-0.814,0.0
13.744,1.402,-0.829,0.0
12.674,1.293,-0.837,0.0
11.852,1.209,-0.852,0.0
11.087,1.131,-0.861,0.0
10.474,1.069,-0.874,0.0
14.626,1.489,-0.816,0.0
13.518,1.376,-0.831,0.0
12.569,1.28,-0.845,0.0
11.703,1.192,-0.856,0.0
10.971,1.117,-0.865,0.0
10.375,1.057,-0.879,0.0
14.406,1.464,-0.821,0.0
13.37,1.359,-0.839,0.0
12.369,1.257,-0.847,0.0
11.544,1.173,-0.858,0.0
10.861,1.104,-0.87,0.0
10.285,1.045,-0.883,0.0
14.129,1.432,-0.822,0.0
13.236,1.342,-0.846,0.0
12.227,1.239,-0.852,0.0
11.376,1.153,-0.859,0.0
10.737,1.088,-0.873,0.0
10.214,1.036,-0.889,0.0
13.942,1.41,-0.827,0.0
12.884,1.302,-0.838,0.0
11.979,1.211,-0.848,0.0
11.214,1.133,-0.86,0.0
10.593,1.071,-0.873,0.0
10.052,1.016,-0.887,0.0
13.745,1.385,-0.831,0.0
12.84,1.294,-0.85,0.0
11.828,1.192,-0.851,0.0
11.098,1.118,-0.864,0.0
10.476,1.055,-0.876,0.0
10.006,1.008,-0.894,0.0
13.545,1.36,-0.834,0.0
12.495,1.254,-0.841,0.0
11.711,1.175,-0.856,0.0
10.94,1.098,-0.864,0.0
10.395,1.043,-0.88,0.0
9.862,0.989,-0.892,0.0
13.351,1.335,-0.837,0.0
12.361,1.236,-0.846,0.0
11.568,1.156,-0.858,0.0
10.813,1.08,-0.865,0.0
10.305,1.03,-0.884,0.0
9.769,0.976,-0.895,0.0
13.112,1.306,-0.836,0.0
12.244,1.219,-0.851,0.0
11.352,1.13,-0.854,0.0
10.694,1.064,-0.867,0.0
10.185,1.013,-0.885,0.0
9.712,0.966,-0.9,0.0
13.018,1.29,-0.844,0.0
11.983,1.187,-0.845,0.0
11.258,1.115,-0.859,0.0
10.603,1.049,-0.871,0.0
10.104,1.0,-0.888,0.0
9.553,0.945,-0.895,0.0
12.591,1.241,-0.829,0.0
11.875,1.17,-0.85,0.0
11.16,1.099,-0.863,0.0
10.522,1.036,-0.875,0.0
9.969,0.981,-0.887,0.0
9.593,0.944,-0.908,0.0
12.683,1.243,-0.848,0.0
11.77,1.153,-0.854,0.0
11.022,1.079,-0.863,0.0
10.398,1.017,-0.875,0.0
9.903,0.969,-0.891,0.0
9.437,0.923,-0.903,0.0
12.447,1.212,-0.844,0.0
11.618,1.131,-0.854,0.0
10.889,1.059,-0.863,0.0
10.349,1.006,-0.881,0.0
9.815,0.954,-0.892,0.0
9.305,0.904,-0.899,0.0
12.283,1.189,-0.844,0.0
11.453,1.107,-0.853,0.0
10.788,1.043,-0.865,0.0
10.287,0.993,-0.885,0.0
9.768,0.943,-0.897,0.0
9.205,0.888,-0.898,0.0
12.197,1.172,-0.85,0.0
11.381,1.093,-0.858,0.0
10.739,1.03,-0.871,0.0
10.195,0.978,-0.887,0.0
9.663,0.926,-0.896,0.0
9.193,0.881,-0.905,0.0
11.959,1.141,-0.844,0.0
11.253,1.072,-0.858,0.0
10.622,1.012,-0.871,0.0
10.05,0.956,-0.883,0.0
9.564,0.91,-0.895,0.0
9.129,0.868,-0.907,0.0
11.911,1.127,-0.851,0.0
11.144,1.054,-0.86,0.0
10.546,0.996,-0.874,0.0
9.971,0.941,-0.884,0.0
9.539,0.9,-0.901,0.0
9.091,0.857,-0.911,0.0
11.82,1.109,-0.854,0.0
11.02,1.033,-0.859,0.0
10.483,0.982,-0.877,0.0
9.893,0.926,-0.886,0.0
9.513,0.89,-0.906,0.0
9.005,0.842,-0.91,0.0
11.681,1.087,-0.853,0.0
10.928,1.016,-0.861,0.0
10.35,0.961,-0.874,0.0
9.844,0.913,-0.889,0.0
9.358,0.868,-0.899,0.0
8.937,0.828,-0.91,0.0
11.568,1.067,-0.854,0.0
10.85,0.999,-0.863,0.0
10.304,0.948,-0.878,0.0
9.825,0.903,-0.895,0.0
9.327,0.856,-0.903,0.0
8.884,0.815,-0.911,0.0
11.423,1.043,-0.851,0.0
10.78,0.983,-0.865,0.0
10.222,0.931,-0.879,0.0
9.747,0.887,-0.895,0.0
9.327,0.848,-0.91,0.0
8.835,0.803,-0.912,0.0
11.361,1.027,-0.855,0.0
10.694,0.966,-0.865,0.0
