X,Y,Z,Reflectivity
13.811,-1.242,-0.832,0.0
12.965,-1.17,-0.853,0.0
12.045,-1.09,-0.861,0.0
11.335,-1.03,-0.873,0.0
10.71,-0.976,-0.885,0.0
14.939,-1.36,-0.814,0.0
13.776,-1.258,-0.827,0.0
12.942,-1.186,-0.849,0.0
12.04,-1.107,-0.858,0.0
11.366,-1.048,-0.873,0.0
10.766,-0.996,-0.887,0.0
15.054,-1.391,-0.817,0.0
13.849,-1.284,-0.828,0.0
12.965,-1.206,-0.847,0.0
12.146,-1.133,-0.862,0.0
11.379,-1.065,-0.871,0.0
10.834,-1.017,-0.889,0.0
15.096,-1.416,-0.814,0.0
13.986,-1.316,-0.832,0.0
12.983,-1.225,-0.844,0.0
12.235,-1.158,-0.865,0.0
11.422,-1.084,-0.87,0.0
10.891,-1.037,-0.89,0.0
15.259,-1.452,-0.818,0.0
13.95,-1.331,-0.825,0.0
13.023,-1.246,-0.842,0.0
12.204,-1.171,-0.858,0.0
11.505,-1.107,-0.873,0.0
10.88,-1.05,-0.886,0.0
15.335,-1.479,-0.817,1.0
14.079,-1.361,-0.828,0.0
13.085,-1.268,-0.841,0.0
12.294,-1.195,-0.86,0.0
11.538,-1.125,-0.871,0.0
10.937,-1.069,-0.886,0.0
15.367,-1.501,-0.813,1.0
14.301,-1.4,-0.835,0.0
13.134,-1.29,-0.839,0.0
12.353,-1.216,-0.859,0.0
11.612,-1.147,-0.871,0.0
10.974,-1.087,-0.884,0.0
15.508,-1.534,-0.813,0.0
14.236,-1.412,-0.825,0.0
13.297,-1.322,-0.844,0.0
12.488,-1.245,-0.862,0.0
11.674,-1.167,-0.871,0.0
11.046,-1.107,-0.885,0.0
15.539,-1.556,-0.808,0.0
14.339,-1.439,-0.824,0.0
13.399,-1.348,-0.844,0.0
12.496,-1.261,-0.857,0.0
11.749,-1.188,-0.871,0.0
11.109,-1.127,-0.884,0.0
15.198,-1.54,-0.782,0.0
14.45,-1.467,-0.823,0.0
13.488,-1.373,-0.843,0.0
12.522,-1.278,-0.852,0.0
11.814,-1.209,-0.869,0.0
11.173,-1.146,-0.884,0.0
14.779,-1.514,-0.753,0.0
14.529,-1.492,-0.82,0.0
13.537,-1.393,-0.838,0.0
12.61,-1.301,-0.851,0.0
11.877,-1.229,-0.867,0.0
11.27,-1.169,-0.885,0.0
14.45,-1.497,-0.728,1.0
14.358,-1.49,-0.802,0.0
13.748,-1.43,-0.843,0.0
12.723,-1.327,-0.851,0.0
11.93,-1.247,-0.864,0.0
11.307,-1.185,-0.881,0.0
14.153,-1.481,-0.704,1.0
14.102,-1.479,-0.779,0.0
13.804,-1.451,-0.838,0.0
12.836,-1.353,-0.851,0.0
12.035,-1.271,-0.864,0.0
11.397,-1.206,-0.881,0.0
13.991,-1.479,-0.687,1.0
13.808,-1.463,-0.754,0.0
13.707,-1.455,-0.823,0.0
12.987,-1.382,-0.852,0.0
12.101,-1.291,-0.861,0.0
11.435,-1.222,-0.876,0.0
13.993,-1.494,-0.678,1.0
13.529,-1.447,-0.729,0.0
13.472,-1.444,-0.8,0.0
13.152,-1.413,-0.854,0.0
12.2,-1.313,-0.859,0.0
11.544,-1.245,-0.876,0.0
14.171,-1.527,-0.677,1.0
13.305,-1.436,-0.708,1.0
13.237,-1.432,-0.776,0.0
13.191,-1.43,-0.847,1.0
12.326,-1.339,-0.859,0.0
11.654,-1.268,-0.876,0.0
14.322,-1.557,-0.674,4.0
13.237,-1.442,-0.695,1.0
13.006,-1.419,-0.753,0.0
13.058,-1.428,-0.829,0.0
12.544,-1.374,-0.865,0.0
11.75,-1.29,-0.874,0.0
14.346,-1.573,-0.664,10.0
13.3,-1.461,-0.688,1.0
12.769,-1.405,-0.73,0.0
12.721,-1.403,-0.797,0.0
12.56,-1.387,-0.856,0.0
11.791,-1.305,-0.868,0.0
14.405,-1.592,-0.655,14.0
13.437,-1.488,-0.684,1.0
12.626,-1.4,-0.711,1.0
12.516,-1.391,-0.774,0.0
12.464,-1.387,-0.839,0.0
11.917,-1.329,-0.867,0.0
14.427,-1.607,-0.644,14.0
13.642,-1.522,-0.683,1.0
12.617,-1.41,-0.7,1.0
12.364,-1.384,-0.755,0.0
12.318,-1.381,-0.819,0.0
12.128,-1.362,-0.872,0.0
14.501,-1.627,-0.635,13.0
13.851,-1.557,-0.682,3.0
12.71,-1.431,-0.694,1.0
12.208,-1.376,-0.735,0.0
12.175,-1.375,-0.799,0.0
12.176,-1.377,-0.865,0.0
14.597,-1.649,-0.627,13.0
13.863,-1.568,-0.67,9.0
12.879,-1.459,-0.692,1.0
12.113,-1.375,-0.718,0.0
12.046,-1.369,-0.78,0.0
12.023,-1.369,-0.843,0.0
15.076,-1.714,-0.634,16.0
13.851,-1.577,-0.657,13.0
13.059,-1.489,-0.69,1.0
12.164,-1.389,-0.71,1.0
11.893,-1.36,-0.759,0.0
11.857,-1.358,-0.821,0.0
15.225,-1.742,-0.626,19.0
13.862,-1.588,-0.645,13.0
13.296,-1.525,-0.69,1.0
12.255,-1.408,-0.704,1.0
11.737,-1.35,-0.738,0.0
11.713,-1.349,-0.8,0.0
15.383,-1.77,-0.618,18.0
14.004,-1.613,-0.638,12.0
13.417,-1.547,-0.684,5.0
12.346,-1.426,-0.697,2.0
11.697,-1.353,-0.724,0.0
11.611,-1.345,-0.782,0.0
15.541,-1.798,-0.609,17.0
14.103,-1.633,-0.629,10.0
13.453,-1.56,-0.673,10.0
12.458,-1.446,-0.691,1.0
11.747,-1.365,-0.715,0.0
11.489,-1.337,-0.762,0.0
15.74,-1.83,-0.602,16.0
14.423,-1.678,-0.629,11.0
13.492,-1.572,-0.661,11.0
12.712,-1.483,-0.693,1.0
11.86,-1.385,-0.71,0.0
11.378,-1.33,-0.743,0.0
16.011,-1.87,-0.596,16.0
14.665,-1.714,-0.624,12.0
13.567,-1.588,-0.651,10.0
12.966,-1.519,-0.693,3.0
12.027,-1.41,-0.708,0.0
11.36,-1.334,-0.73,0.0
16.202,-1.9,-0.586,16.0
14.915,-1.751,-0.62,12.0
13.639,-1.602,-0.64,10.0
13.01,-1.53,-0.682,8.0
12.202,-1.436,-0.706,0.0
11.427,-1.347,-0.722,0.0
16.413,-1.932,-0.577,17.0
15.219,-1.793,-0.617,16.0
13.869,-1.635,-0.636,10.0
13.086,-1.544,-0.672,11.0
12.354,-1.459,-0.701,3.0
11.524,-1.363,-0.716,0.0
16.695,-1.972,-0.569,16.0
15.319,-1.811,-0.604,17.0
14.286,-1.69,-0.64,12.0
13.183,-1.561,-0.663,11.0
12.443,-1.474,-0.693,4.0
11.686,-1.386,-0.713,0.0
17.082,-2.024,-0.564,15.0
15.497,-1.837,-0.594,15.0
14.435,-1.712,-0.631,13.0
13.26,-1.574,-0.652,9.0
12.58,-1.495,-0.686,6.0
11.854,-1.41,-0.71,0.0
17.556,-2.085,-0.56,16.0
15.864,-1.886,-0.591,15.0
14.698,-1.748,-0.626,13.0
13.355,-1.589,-0.642,10.0
12.846,-1.53,-0.687,10.0
12.051,-1.436,-0.709,0.0
18.021,-2.145,-0.555,18.0
16.064,-1.913,-0.58,14.0
14.964,-1.783,-0.621,19.0
13.55,-1.616,-0.636,10.0
12.913,-1.541,-0.676,11.0
12.238,-1.461,-0.706,1.0
18.293,-2.182,-0.542,19.0
16.38,-1.955,-0.573,14.0
15.149,-1.809,-0.611,22.0
13.739,-1.641,-0.63,10.0
13.007,-1.554,-0.666,10.0
12.345,-1.476,-0.698,5.0
18.465,-2.206,-0.526,18.0
16.773,-2.004,-0.568,14.0
15.304,-1.829,-0.6,18.0
13.925,-1.665,-0.622,10.0
13.147,-1.573,-0.658,11.0
12.465,-1.492,-0.691,7.0
18.775,-2.245,-0.514,19.0
17.219,-2.06,-0.563,14.0
15.555,-1.861,-0.592,15.0
14.451,-1.73,-0.629,13.0
13.433,-1.609,-0.656,10.0
12.63,-1.513,-0.685,10.0
19.26,-2.305,-0.505,28.0
17.648,-2.113,-0.557,16.0
15.828,-1.895,-0.584,13.0
14.794,-1.772,-0.626,16.0
13.756,-1.648,-0.656,10.0
12.812,-1.535,-0.68,11.0
19.52,-2.337,-0.489,30.0
18.013,-2.157,-0.547,17.0
16.178,-1.937,-0.578,14.0
14.999,-1.796,-0.618,20.0
13.939,-1.67,-0.649,11.0
12.932,-1.55,-0.671,11.0
20.046,-2.4,-0.479,21.0
18.319,-2.193,-0.535,17.0
16.577,-1.985,-0.573,14.0
15.207,-1.821,-0.608,21.0
13.833,-1.657,-0.627,10.0
13.059,-1.564,-0.662,11.0
20.769,-2.486,-0.471,21.0
18.607,-2.227,-0.522,18.0
16.993,-2.033,-0.567,14.0
15.406,-1.843,-0.598,16.0
14.37,-1.72,-0.635,13.0
13.271,-1.588,-0.657,11.0
21.305,-2.548,-0.458,22.0
19.024,-2.275,-0.51,20.0
17.498,-2.092,-0.563,15.0
15.657,-1.872,-0.589,13.0
14.631,-1.749,-0.628,14.0
13.655,-1.632,-0.66,11.0
21.884,-2.614,-0.444,20.0
19.417,-2.319,-0.498,22.0
17.897,-2.137,-0.554,16.0
16.018,-1.912,-0.583,13.0
14.947,-1.784,-0.624,19.0
13.868,-1.655,-0.653,11.0
22.527,-2.687,-0.431,21.0
19.929,-2.376,-0.487,19.0
18.245,-2.174,-0.543,16.0
16.39,-1.953,-0.577,14.0
15.157,-1.805,-0.615,23.0
14.087,-1.678,-0.647,11.0
23.033,-2.741,-0.413,22.0
20.506,-2.44,-0.477,19.0
18.556,-2.207,-0.53,17.0
16.786,-1.996,-0.571,14.0
15.354,-1.825,-0.604,17.0
14.33,-1.703,-0.64,12.0
23.817,-2.828,-0.398,23.0
21.144,-2.509,-0.466,20.0
18.925,-2.245,-0.518,16.0
17.303,-2.052,-0.568,14.0
15.69,-1.86,-0.599,14.0
14.567,-1.726,-0.633,13.0
24.643,-2.918,-0.382,22.0
21.738,-2.573,-0.453,19.0
19.366,-2.291,-0.507,16.0
17.782,-2.102,-0.562,16.0
16.074,-1.899,-0.594,15.0
14.958,-1.767,-0.633,14.0
25.423,-3.001,-0.364,15.0
22.407,-2.644,-0.44,18.0
19.976,-2.355,-0.499,17.0
18.131,-2.136,-0.551,17.0
16.394,-1.931,-0.586,15.0
15.214,-1.791,-0.625,15.0
0.0,0.0,0.0,0.0
22.997,-2.703,-0.424,19.0
20.394,-2.396,-0.485,18.0
18.445,-2.165,-0.538,16.0
16.732,-1.963,-0.578,14.0
15.4,-1.805,-0.614,15.0
29.243,-3.427,-0.349,21.0
23.671,-2.771,-0.408,22.0
20.945,-2.45,-0.473,18.0
18.845,-2.203,-0.528,17.0
17.2,-2.009,-0.574,15.0
15.704,-1.833,-0.607,15.0
30.68,-3.58,-0.329,27.0
24.454,-2.851,-0.393,18.0
21.68,-2.525,-0.464,19.0
19.318,-2.248,-0.518,23.0
17.608,-2.047,-0.566,16.0
16.132,-1.874,-0.605,16.0
35.374,-4.108,-0.337,3.0
25.333,-2.939,-0.376,18.0
22.261,-2.58,-0.45,21.0
19.773,-2.289,-0.507,19.0
18.029,-2.085,-0.558,17.0
16.406,-1.896,-0.596,16.0
35.603,-4.113,-0.298,23.0
0.0,0.0,0.0,0.0
22.897,-2.639,-0.435,21.0
20.234,-2.33,-0.495,16.0
18.435,-2.121,-0.549,17.0
16.729,-1.923,-0.588,14.0
36.627,-4.208,-0.263,13.0
29.104,-3.34,-0.364,21.0
23.626,-2.708,-0.421,24.0
20.865,-2.389,-0.486,18.0
18.929,-2.165,-0.542,19.0
17.304,-1.977,-0.587,17.0
37.78,-4.314,-0.227,24.0
30.326,-3.459,-0.344,25.0
24.608,-2.803,-0.41,20.0
21.748,-2.474,-0.48,21.0
19.17,-2.178,-0.526,24.0
17.703,-2.009,-0.58,17.0
38.733,-4.395,-0.188,15.0
0.0,0.0,0.0,0.0
25.45,-2.88,-0.395,16.0
22.331,-2.523,-0.468,20.0
19.411,-2.191,-0.51,22.0
18.101,-2.04,-0.572,19.0
0.0,0.0,0.0,0.0
35.546,-4.0,-0.321,18.0
0.0,0.0,0.0,0.0
22.935,-2.573,-0.454,20.0
20.339,-2.279,-0.511,22.0
18.476,-2.067,-0.563,18.0
42.472,-4.751,-0.108,17.0
36.141,-4.036,-0.285,13.0
28.881,-3.221,-0.382,27.0
23.797,-2.65,-0.444,23.0
20.972,-2.332,-0.503,24.0
18.765,-2.083,-0.55,18.0
45.47,-5.047,-0.065,22.0
37.488,-4.154,-0.253,18.0
29.916,-3.309,-0.361,20.0
24.54,-2.71,-0.43,20.0
21.749,-2.398,-0.497,22.0
19.23,-2.117,-0.542,19.0
46.877,-5.161,-0.014,22.0
38.53,-4.234,-0.217,14.0
0.0,0.0,0.0,0.0
0.0,0.0,0.0,0.0
22.354,-2.444,-0.486,21.0
19.694,-2.149,-0.534,19.0
48.298,-5.271,0.038,23.0
0.0,0.0,0.0,0.0
32.789,-3.565,-0.324,15.0
26.562,-2.883,-0.407,18.0
22.92,-2.483,-0.473,22.0
20.361,-2.202,-0.529,18.0
33.123,-3.582,0.062,50.0
33.118,-3.574,-0.114,44.0
33.103,-3.566,-0.291,35.0
28.402,-3.053,-0.404,17.0
23.445,-2.516,-0.459,24.0
21.006,-2.25,-0.523,20.0
33.105,-3.546,0.098,85.0
33.096,-3.538,-0.078,83.0
33.092,-3.53,-0.256,80.0
29.682,-3.16,-0.391,27.0
23.563,-2.504,-0.436,0.0
21.524,-2.283,-0.514,19.0
33.104,-3.51,0.132,92.0
33.091,-3.501,-0.044,82.0
33.088,-3.493,-0.22,81.0
30.635,-3.228,-0.371,17.0
23.572,-2.478,-0.412,0.0
22.192,-2.328,-0.506,21.0
33.138,-3.477,0.167,72.0
33.117,-3.466,-0.009,66.0
33.108,-3.458,-0.187,68.0
31.958,-3.331,-0.354,27.0
23.561,-2.45,-0.387,0.0
22.618,-2.347,-0.493,18.0
83.736,-8.689,0.508,4.0
48.547,-5.025,0.034,7.0
41.869,-4.324,-0.194,11.0
33.014,-3.402,-0.333,18.0
28.574,-2.938,-0.441,3.0
23.336,-2.394,-0.485,22.0
87.031,-8.927,0.615,7.0
51.281,-5.247,0.087,5.0
43.76,-4.467,-0.159,18.0
36.224,-3.689,-0.329,13.0
29.881,-3.035,-0.432,21.0
23.557,-2.387,-0.467,32.0
87.751,-8.893,0.706,12.0
70.544,-7.131,0.189,2.0
45.289,-4.566,-0.121,19.0
37.623,-3.783,-0.306,15.0
30.138,-3.023,-0.406,26.0
23.577,-2.359,-0.444,8.0
87.905,-8.796,0.792,3.0
79.832,-7.967,0.291,7.0
46.942,-4.672,-0.08,21.0
38.671,-3.839,-0.278,14.0
30.577,-3.027,-0.384,20.0
23.568,-2.327,-0.422,1.0
110.972,-10.959,1.103,11.0
79.992,-7.877,0.366,9.0
48.282,-4.741,-0.038,22.0
0.0,0.0,0.0,0.0
35.194,-3.438,-0.409,6.0
23.602,-2.299,-0.401,0.0
111.335,-10.846,1.208,16.0
84.982,-8.254,0.465,8.0
0.0,0.0,0.0,0.0
42.257,-4.081,-0.226,17.0
35.419,-3.411,-0.38,20.0
29.303,-2.814,-0.472,8.0
111.879,-10.745,1.313,7.0
85.44,-8.182,0.543,12.0
51.733,-4.939,0.051,7.0
43.824,-4.171,-0.196,19.0
36.46,-3.46,-0.36,12.0
29.375,-2.78,-0.447,15.0
119.115,-11.271,1.501,7.0
85.315,-8.048,0.615,10.0
55.363,-5.206,0.102,4.0
45.628,-4.277,-0.165,20.0
37.705,-3.524,-0.34,14.0
29.71,-2.768,-0.427,18.0
119.098,-11.095,1.601,16.0
87.155,-8.093,0.703,5.0
71.895,-6.655,0.192,3.0
47.042,-4.341,-0.132,21.0
0.0,0.0,0.0,0.0
29.857,-2.737,-0.405,19.0
135.57,-12.428,1.933,47.0
111.387,-10.178,0.988,7.0
71.927,-6.55,0.25,5.0
48.766,-4.426,-0.097,23.0
0.0,0.0,0.0,0.0
29.87,-2.693,-0.382,4.0
135.654,-12.228,2.043,83.0
111.259,-9.994,1.074,7.0
80.587,-7.214,0.343,6.0
50.786,-4.531,-0.062,25.0
41.44,-3.684,-0.274,16.0
29.884,-2.648,-0.359,1.0
135.679,-12.02,2.146,150.0
114.637,-10.12,1.194,9.0
85.085,-7.484,0.426,12.0
51.614,-4.524,-0.024,17.0
0.0,0.0,0.0,0.0
29.886,-2.601,-0.337,0.0
119.258,-10.377,1.973,56.0
114.822,-9.955,1.278,8.0
83.551,-7.216,0.479,5.0
56.42,-4.854,0.013,5.0
44.566,-3.821,-0.23,19.0
35.653,-3.045,-0.377,36.0
119.307,-10.187,2.057,150.0
119.097,-10.13,1.409,13.0
86.508,-7.331,0.556,5.0
56.604,-4.778,0.052,3.0
45.529,-3.829,-0.204,11.0
35.663,-2.988,-0.353,39.0
126.489,-10.593,2.266,150.0
119.199,-9.943,1.489,19.0
87.233,-7.247,0.619,8.0
67.559,-5.591,0.106,8.0
47.753,-3.936,-0.183,10.0
35.673,-2.929,-0.33,3.0
126.502,-10.383,2.348,150.0
119.234,-9.745,1.566,17.0
108.501,-8.831,0.837,2.0
67.56,-5.477,0.149,12.0
49.561,-4.001,-0.159,23.0
40.628,-3.267,-0.351,9.0
126.496,-10.165,2.425,46.0
119.221,-9.54,1.639,14.0
108.583,-8.653,0.903,2.0
67.852,-5.384,0.189,25.0
50.846,-4.018,-0.133,16.0
40.008,-3.148,-0.322,16.0
67.888,-5.338,1.34,63.0
67.873,-5.314,0.972,89.0
67.861,-5.29,0.603,102.0
67.86,-5.266,0.228,65.0
51.984,-4.016,-0.107,2.0
40.106,-3.086,-0.3,16.0
67.895,-5.219,1.378,19.0
119.248,-9.125,1.773,16.0
113.775,-8.668,1.073,5.0
82.75,-6.276,0.322,10.0
62.495,-4.718,-0.096,0.0
40.613,-3.052,-0.283,1.0
72.428,-5.439,1.507,20.0
119.365,-8.921,1.835,37.0
20.037,-1.49,0.199,10.0
20.022,-1.482,0.087,2.0
48.902,-3.604,-0.051,4.0
45.123,-3.31,-0.292,33.0
20.04,-1.468,0.426,7.0
20.007,-1.459,0.317,10.0
20.022,-1.453,0.208,41.0
20.013,-1.445,0.097,8.0
59.258,-4.258,-0.034,0.0
44.713,-3.198,-0.269,0.0
20.013,-1.429,0.435,11.0
20.015,-1.422,0.326,11.0
20.03,-1.416,0.217,12.0
102.716,-7.228,0.543,5.0
59.145,-4.141,-0.009,1.0
20.044,-1.396,-0.112,5.0
20.035,-1.394,0.444,9.0
119.408,-8.265,1.995,48.0
119.32,-8.215,1.342,17.0
20.015,-1.37,0.113,6.0
20.004,-1.363,0.004,9.0
20.001,-1.355,-0.104,22.0
20.045,-1.356,0.452,0.0
19.986,-1.345,0.341,7.0
19.972,-1.337,0.232,19.0
19.972,-1.33,0.121,19.0
19.979,-1.323,0.011,18.0
19.984,-1.316,-0.097,31.0
19.945,-1.312,0.456,14.0
19.934,-1.304,0.347,17.0
19.956,-1.298,0.238,27.0
19.981,-1.292,0.127,25.0
19.986,-1.285,0.018,26.0
19.991,-1.279,-0.091,31.0
19.932,-1.273,0.462,19.0
19.928,-1.265,0.353,20.0
19.974,-1.26,0.244,27.0
19.983,-1.254,0.133,28.0
20.005,-1.248,0.023,24.0
20.019,-1.242,-0.085,25.0
19.938,-1.234,0.467,23.0
19.929,-1.227,0.358,25.0
19.942,-1.22,0.249,23.0
19.984,-1.215,0.138,150.0
19.987,-1.208,0.028,151.0
19.978,-1.2,-0.08,150.0
19.946,-1.196,0.472,22.0
19.931,-1.188,0.363,20.0
19.946,-1.181,0.253,19.0
20.031,-1.179,0.143,11.0
20.032,-1.172,0.033,1.0
20.002,-1.163,-0.076,0.0
19.95,-1.157,0.476,26.0
19.939,-1.149,0.367,19.0
19.962,-1.143,0.257,27.0
19.973,-1.136,0.146,18.0
19.992,-1.13,0.036,18.0
20.05,-1.126,-0.073,0.0
19.966,-1.118,0.48,24.0
19.955,-1.11,0.37,19.0
19.973,-1.104,0.261,19.0
19.984,-1.097,0.149,23.0
19.979,-1.089,0.039,26.0
19.996,-1.083,-0.07,23.0
19.971,-1.078,0.483,23.0
19.96,-1.07,0.372,17.0
19.999,-1.065,0.263,28.0
19.961,-1.055,0.151,16.0
19.978,-1.049,0.041,30.0
19.975,-1.041,-0.068,26.0
19.978,-1.038,0.485,15.0
20.007,-1.032,0.375,11.0
20.09,-1.029,0.266,19.0
20.075,-1.021,0.153,16.0
19.997,-1.01,0.042,16.0
19.966,-1.001,-0.067,25.0
20.14,-1.006,0.489,23.0
20.144,-0.999,0.378,25.0
20.149,-0.992,0.267,18.0
138.183,-6.75,1.06,17.0
20.079,-0.973,0.043,0.0
19.999,-0.962,-0.067,20.0
20.12,-0.964,0.489,19.0
20.145,-0.958,0.379,15.0
194.513,-9.182,2.585,11.0
138.213,-6.472,1.06,17.0
0.0,0.0,0.0,0.0
0.0,0.0,0.0,0.0
20.145,-0.924,0.489,2.0
193.854,-8.824,3.641,10.0
194.482,-8.778,2.577,15.0
138.061,-6.179,1.052,19.0
0.0,0.0,0.0,0.0
0.0,0.0,0.0,0.0
193.348,-8.474,4.687,21.0
192.844,-8.382,3.608,24.0
138.076,-5.949,1.819,10.0
138.036,-5.896,1.041,21.0
0.0,0.0,0.0,0.0
0.0,0.0,0.0,0.0
192.833,-8.056,4.655,21.0
192.728,-7.978,3.584,23.0
0.0,0.0,0.0,0.0
138.413,-5.627,1.027,21.0
0.0,0.0,0.0,0.0
0.0,0.0,0.0,0.0
192.574,-7.647,4.622,23.0
193.502,-7.611,3.571,17.0
0.0,0.0,0.0,0.0
138.464,-5.341,1.005,16.0
0.0,0.0,0.0,0.0
0.0,0.0,0.0,0.0
192.856,-7.256,4.593,22.0
193.436,-7.206,3.533,13.0
0.0,0.0,0.0,0.0
138.491,-5.055,0.978,15.0
0.0,0.0,0.0,0.0
0.0,0.0,0.0,0.0
193.445,-6.876,4.565,20.0
193.216,-6.796,3.486,7.0
0.0,0.0,0.0,0.0
138.55,-4.771,0.946,16.0
0.0,0.0,0.0,0.0
0.0,0.0,0.0,0.0
193.926,-6.494,4.527,22.0
193.196,-6.396,3.435,27.0
0.0,0.0,0.0,0.0
138.561,-4.484,0.907,9.0
0.0,0.0,0.0,0.0
0.0,0.0,0.0,0.0
194.308,-6.104,4.479,19.0
193.852,-6.016,3.388,12.0
0.0,0.0,0.0,0.0
138.311,-4.193,0.864,10.0
0.0,0.0,0.0,0.0
54.878,-1.623,-0.268,0.0
194.778,-5.714,4.425,12.0
193.925,-5.619,3.324,13.0
0.0,0.0,0.0,0.0
138.532,-3.913,0.817,12.0
0.0,0.0,0.0,0.0
54.916,-1.511,-0.288,1.0
206.843,-5.642,4.622,5.0
193.434,-5.204,3.243,6.0
139.001,-3.689,1.555,3.0
138.786,-3.634,0.765,9.0
0.0,0.0,0.0,0.0
0.0,0.0,0.0,0.0
0.0,0.0,0.0,0.0
193.304,-4.802,3.161,14.0
138.902,-3.399,1.495,9.0
138.882,-3.35,0.706,3.0
0.0,0.0,0.0,0.0
54.665,-1.279,-0.332,0.0
0.0,0.0,0.0,0.0
193.173,-4.399,3.072,6.0
138.896,-3.113,1.432,11.0
0.0,0.0,0.0,0.0
0.0,0.0,0.0,0.0
0.0,0.0,0.0,0.0
193.798,-4.085,4.072,21.0
138.962,-2.879,2.142,4.0
138.985,-2.83,1.365,16.0
0.0,0.0,0.0,0.0
0.0,0.0,0.0,0.0
50.476,-0.975,-0.356,0.0
193.659,-3.685,3.969,23.0
138.934,-2.594,2.069,7.0
139.056,-2.546,1.292,22.0
0.0,0.0,0.0,0.0
0.0,0.0,0.0,0.0
49.997,-0.862,-0.38,0.0
194.087,-3.294,3.869,14.0
139.047,-2.309,1.992,9.0
138.881,-2.258,1.211,12.0
0.0,0.0,0.0,0.0
0.0,0.0,0.0,0.0
46.829,-0.711,-0.383,1.0
194.666,-2.9,3.764,8.0
139.001,-2.021,1.907,7.0
138.843,-1.972,1.126,27.0
0.0,0.0,0.0,0.0
0.0,0.0,0.0,0.0
47.245,-0.622,-0.416,1.0
204.311,-2.629,3.822,7.0
139.146,-1.742,1.821,3.0
139.216,-1.693,1.04,18.0
0.0,0.0,0.0,0.0
0.0,0.0,0.0,0.0
45.349,-0.505,-0.429,0.0
119.753,-1.297,2.16,151.0
119.748,-1.255,1.486,150.0
119.768,-1.215,0.814,54.0
79.154,-0.776,0.085,0.0
0.0,0.0,0.0,0.0
0.0,0.0,0.0,0.0
119.748,-1.055,2.075,70.0
119.672,-1.012,1.4,17.0
114.202,-0.928,0.694,6.0
0.0,0.0,0.0,0.0
0.0,0.0,0.0,0.0
0.0,0.0,0.0,0.0
119.839,-0.813,1.988,4.0
119.677,-0.771,1.311,15.0
110.967,-0.676,0.59,5.0
0.0,0.0,0.0,0.0
0.0,0.0,0.0,0.0
39.803,-0.202,-0.464,0.0
113.63,-0.541,1.796,5.0
119.692,-0.529,1.216,16.0
103.281,-0.423,0.468,3.0
0.0,0.0,0.0,0.0
50.239,-0.171,-0.343,0.0
39.798,-0.123,-0.496,0.0
112.869,-0.313,1.692,15.0
114.434,-0.279,1.07,10.0
0.0,0.0,0.0,0.0
0.0,0.0,0.0,0.0
45.605,-0.065,-0.349,0.0
37.637,-0.041,-0.501,0.0
111.119,-0.087,1.571,12.0
111.156,-0.051,0.944,7.0
95.656,-0.011,0.272,5.0
0.0,0.0,0.0,0.0
45.595,0.023,-0.389,1.0
36.341,0.03,-0.515,0.0
111.109,0.13,1.473,20.0
110.819,0.166,0.842,10.0
90.037,0.164,0.176,2.0
0.0,0.0,0.0,0.0
42.902,0.106,-0.405,0.0
0.0,0.0,0.0,0.0
119.755,0.374,1.477,14.0
104.48,0.359,0.698,8.0
87.666,0.33,0.09,1.0
0.0,0.0,0.0,0.0
42.88,0.188,-0.445,1.0
34.278,0.161,-0.549,0.0
101.738,0.513,1.158,1.0
104.501,0.56,0.599,3.0
0.0,0.0,0.0,0.0
0.0,0.0,0.0,0.0
42.758,0.269,-0.485,0.0
33.447,0.221,-0.568,0.0
104.835,0.729,1.091,9.0
97.648,0.71,0.463,3.0
0.0,0.0,0.0,0.0
48.656,0.383,-0.324,0.0
0.0,0.0,0.0,0.0
32.163,0.273,-0.579,0.0
98.633,0.872,0.926,17.0
85.238,0.78,0.317,11.0
0.0,0.0,0.0,0.0
0.0,0.0,0.0,0.0
37.269,0.375,-0.498,0.0
30.921,0.321,-0.589,0.0
98.408,1.056,0.82,14.0
81.364,0.897,0.217,3.0
0.0,0.0,0.0,0.0
44.045,0.512,-0.386,0.0
0.0,0.0,0.0,0.0
29.821,0.365,-0.6,0.0
98.374,1.237,0.714,15.0
77.659,1.0,0.123,1.0
0.0,0.0,0.0,0.0
43.94,0.592,-0.433,2.0
35.387,0.487,-0.55,0.0
29.3,0.412,-0.622,0.0
92.029,1.327,0.565,11.0
75.456,1.11,0.035,2.0
0.0,0.0,0.0,0.0
41.596,0.637,-0.457,0.0
0.0,0.0,0.0,0.0
28.417,0.451,-0.635,0.0
78.378,1.272,0.392,10.0
73.572,1.216,-0.05,2.0
0.0,0.0,0.0,0.0
0.0,0.0,0.0,0.0
0.0,0.0,0.0,0.0
27.541,0.487,-0.648,0.0
77.812,1.402,0.298,6.0
0.0,0.0,0.0,0.0
48.048,0.893,-0.362,0.0
0.0,0.0,0.0,0.0
30.656,0.587,-0.583,0.0
26.38,0.513,-0.652,0.0
72.293,1.43,0.19,5.0
0.0,0.0,0.0,0.0
0.0,0.0,0.0,0.0
35.188,0.725,-0.511,0.0
29.542,0.617,-0.597,0.0
25.866,0.548,-0.67,0.0
71.663,1.542,0.1,6.0
0.0,0.0,0.0,0.0
44.123,0.974,-0.44,0.0
34.266,0.766,-0.54,0.0
28.554,0.646,-0.613,0.0
24.877,0.57,-0.676,0.0
67.411,1.566,0.009,7.0
0.0,0.0,0.0,0.0
40.607,0.965,-0.456,0.0
0.0,0.0,0.0,0.0
27.91,0.678,-0.635,0.0
24.071,0.592,-0.685,0.0
65.902,1.641,-0.074,8.0
0.0,0.0,0.0,0.0
38.022,0.967,-0.476,0.0
31.547,0.811,-0.578,0.0
26.677,0.693,-0.641,0.0
23.4,0.614,-0.696,0.0
64.597,1.716,-0.157,3.0
0.0,0.0,0.0,0.0
0.0,0.0,0.0,0.0
30.478,0.833,-0.599,0.0
26.128,0.721,-0.663,0.0
22.568,0.629,-0.701,0.0
57.151,1.611,-0.215,2.0
0.0,0.0,0.0,0.0
0.0,0.0,0.0,0.0
28.858,0.835,-0.606,0.0
25.025,0.731,-0.668,0.0
21.973,0.647,-0.712,0.0
55.385,1.649,-0.284,0.0
0.0,0.0,0.0,0.0
33.363,1.01,-0.552,0.0
28.499,0.87,-0.637,2.0
24.167,0.744,-0.678,0.0
21.459,0.666,-0.725,0.0
0.0,0.0,0.0,0.0
38.696,1.222,-0.472,0.0
0.0,0.0,0.0,0.0
26.889,0.862,-0.638,0.0
23.574,0.762,-0.695,0.0
20.674,0.673,-0.727,0.0
45.484,1.495,-0.359,0.0
0.0,0.0,0.0,0.0
30.586,1.02,-0.591,0.0
25.997,0.873,-0.654,0.0
22.599,0.764,-0.698,0.0
20.267,0.691,-0.742,0.0
0.0,0.0,0.0,0.0
35.267,1.22,-0.53,0.0
29.154,1.016,-0.605,0.0
25.022,0.878,-0.665,0.0
22.093,0.78,-0.714,0.0
19.834,0.705,-0.755,0.0
41.078,1.472,-0.442,0.0
33.212,1.198,-0.548,0.0
27.813,1.01,-0.618,0.0
24.271,0.887,-0.681,0.0
21.365,0.786,-0.722,0.0
18.882,0.699,-0.746,0.0
0.0,0.0,0.0,0.0
0.0,0.0,0.0,0.0
26.686,1.007,-0.632,0.0
23.42,0.889,-0.691,0.0
20.674,0.789,-0.729,0.0
18.382,0.706,-0.754,0.0
35.834,1.386,-0.492,0.0
30.016,1.167,-0.584,0.0
25.981,1.016,-0.654,0.0
22.617,0.889,-0.701,0.0
20.151,0.797,-0.74,0.0
18.025,0.717,-0.766,0.0
0.0,0.0,0.0,0.0
29.643,1.193,-0.621,0.0
25.261,1.022,-0.674,0.0
21.743,0.885,-0.707,0.0
19.407,0.794,-0.743,0.0
17.65,0.726,-0.777,0.0
33.066,1.368,-0.553,0.0
28.027,1.165,-0.63,0.0
24.056,1.005,-0.679,0.0
21.184,0.89,-0.721,0.0
18.974,0.801,-0.755,0.0
17.153,0.728,-0.781,0.0
30.931,1.32,-0.565,0.0
26.555,1.138,-0.637,0.0
23.348,1.006,-0.694,0.0
20.461,0.886,-0.728,0.0
18.186,0.791,-0.752,0.0
16.759,0.732,-0.789,0.0
29.968,1.316,-0.594,0.0
0.0,0.0,0.0,0.0
22.508,0.997,-0.704,0.0
19.953,0.888,-0.741,0.0
17.915,0.801,-0.768,0.0
16.4,0.737,-0.798,0.0
28.618,1.292,-0.612,0.0
24.783,1.123,-0.672,0.0
21.478,0.978,-0.706,0.0
19.416,0.888,-0.752,0.0
17.386,0.798,-0.773,0.0
15.977,0.737,-0.802,0.0
27.317,1.265,-0.627,0.0
23.791,1.106,-0.682,0.0
21.006,0.981,-0.723,0.0
18.871,0.885,-0.76,0.0
17.054,0.803,-0.785,0.0
15.536,0.734,-0.805,0.0
26.184,1.243,-0.642,0.0
22.907,1.091,-0.693,0.0
20.378,0.975,-0.734,0.0
18.052,0.867,-0.756,0.0
16.632,0.802,-0.793,0.0
15.214,0.736,-0.813,0.0
25.491,1.238,-0.666,0.0
22.184,1.081,-0.707,0.0
19.728,0.965,-0.743,0.0
17.711,0.87,-0.77,0.0
16.161,0.796,-0.796,0.0
14.891,0.737,-0.82,0.0
24.269,1.205,-0.674,0.0
21.378,1.065,-0.716,0.0
19.062,0.953,-0.748,0.0
17.24,0.865,-0.778,0.0
15.686,0.79,-0.798,0.0
14.543,0.735,-0.824,0.0
0.0,0.0,0.0,0.0
20.615,1.048,-0.725,0.0
18.481,0.943,-0.756,0.0
16.818,0.861,-0.786,0.0
15.31,0.786,-0.805,0.0
14.241,0.734,-0.831,0.0
22.478,1.162,-0.697,0.0
19.964,1.035,-0.734,0.0
17.925,0.932,-0.763,0.0
16.367,0.854,-0.793,0.0
15.085,0.79,-0.818,0.0
13.875,0.729,-0.832,0.0
21.736,1.144,-0.71,0.0
19.293,1.019,-0.742,0.0
17.534,0.929,-0.775,0.0
16.038,0.852,-0.803,0.0
14.642,0.78,-0.818,0.0
13.623,0.728,-0.84,0.0
20.926,1.121,-0.719,0.0
18.624,1.0,-0.747,0.0
17.007,0.916,-0.78,0.0
15.465,0.836,-0.8,0.0
14.309,0.775,-0.823,0.0
13.396,0.728,-0.848,0.0
20.273,1.104,-0.73,0.0
18.246,0.996,-0.762,0.0
16.479,0.902,-0.784,0.0
15.178,0.833,-0.811,0.0
13.985,0.77,-0.828,0.0
13.037,0.72,-0.847,0.0
19.607,1.084,-0.739,0.0
17.852,0.989,-0.775,0.0
16.212,0.901,-0.798,0.0
14.761,0.822,-0.813,0.0
13.675,0.764,-0.832,0.0
12.701,0.711,-0.846,0.0
18.957,1.063,-0.746,0.0
17.142,0.963,-0.773,0.0
15.74,0.887,-0.801,0.0
14.494,0.819,-0.823,0.0
13.403,0.759,-0.838,0.0
12.425,0.705,-0.849,0.0
18.419,1.047,-0.755,0.0
16.794,0.956,-0.785,0.0
15.263,0.871,-0.802,0.0
14.112,0.808,-0.825,0.0
13.14,0.754,-0.844,0.0
12.146,0.698,-0.85,0.0
17.947,1.033,-0.766,0.0
16.314,0.941,-0.79,0.0
14.994,0.866,-0.813,0.0
13.771,0.798,-0.828,0.0
12.958,0.752,-0.854,0.0
11.856,0.69,-0.85,0.0
17.384,1.012,-0.771,0.0
15.887,0.927,-0.796,0.0
14.557,0.851,-0.814,0.0
13.599,0.796,-0.84,0.0
12.619,0.741,-0.853,0.0
11.638,0.685,-0.854,0.0
16.887,0.993,-0.777,0.0
15.373,0.906,-0.796,0.0
14.329,0.846,-0.825,0.0
13.268,0.785,-0.842,0.0
12.297,0.729,-0.852,0.0
11.431,0.679,-0.858,0.0
16.565,0.984,-0.79,0.0
15.106,0.899,-0.808,0.0
13.961,0.833,-0.827,0.0
13.032,0.779,-0.849,0.0
11.962,0.716,-0.849,0.0
11.247,0.675,-0.863,0.0
16.113,0.966,-0.795,0.0
14.734,0.885,-0.813,0.0
13.679,0.823,-0.833,0.0
12.602,0.76,-0.842,0.0
11.723,0.708,-0.851,0.0
10.992,0.665,-0.862,0.0
15.578,0.942,-0.795,0.0
14.403,0.872,-0.818,0.0
13.319,0.808,-0.834,0.0
12.29,0.747,-0.842,0.0
11.49,0.699,-0.854,0.0
10.793,0.658,-0.864,0.0
15.288,0.932,-0.805,0.0
14.116,0.861,-0.825,0.0
13.097,0.8,-0.841,0.0
12.058,0.738,-0.846,0.0
11.31,0.693,-0.859,0.0
10.633,0.653,-0.869,0.0
14.892,0.914,-0.809,0.0
13.798,0.848,-0.83,0.0
12.822,0.789,-0.845,0.0
11.832,0.729,-0.85,0.0
11.097,0.685,-0.861,0.0
10.482,0.648,-0.874,0.0
14.582,0.9,-0.816,0.0
13.572,0.839,-0.838,0.0
12.455,0.771,-0.841,0.0
11.583,0.718,-0.851,0.0
10.908,0.677,-0.865,0.0
10.342,0.643,-0.88,0.0
14.27,0.886,-0.822,0.0
13.306,0.827,-0.844,0.0
12.244,0.762,-0.847,0.0
11.408,0.711,-0.857,0.0
10.723,0.669,-0.868,0.0
10.188,0.636,-0.883,0.0
13.979,0.872,-0.828,0.0
12.995,0.811,-0.845,0.0
11.923,0.745,-0.844,0.0
11.163,0.698,-0.856,0.0
10.566,0.662,-0.872,0.0
10.052,0.63,-0.888,0.0
13.659,0.855,-0.831,0.0
12.7,0.796,-0.846,0.0
11.737,0.736,-0.85,0.0
11.013,0.692,-0.863,0.0
10.404,0.654,-0.875,0.0
9.94,0.626,-0.894,0.0
13.392,0.841,-0.837,0.0
12.34,0.776,-0.842,0.0
11.536,0.726,-0.854,0.0
10.84,0.683,-0.867,0.0
10.246,0.646,-0.879,0.0
9.805,0.619,-0.898,0.0
13.13,0.827,-0.841,0.0
12.08,0.761,-0.844,0.0
11.296,0.712,-0.854,0.0
10.675,0.674,-0.87,0.0
10.133,0.64,-0.885,0.0
9.655,0.611,-0.899,0.0
12.793,0.807,-0.84,0.0
11.848,0.748,-0.846,0.0
11.104,0.702,-0.857,0.0
10.515,0.665,-0.874,0.0
10.006,0.633,-0.89,0.0
9.528,0.604,-0.903,0.0
12.589,0.795,-0.846,0.0
11.645,0.736,-0.85,0.0
10.934,0.692,-0.861,0.0
10.317,0.653,-0.874,0.0
9.853,0.624,-0.892,0.0
9.422,0.597,-0.908,0.0
12.25,0.775,-0.842,0.0
11.459,0.725,-0.854,0.0
10.751,0.681,-0.864,0.0
10.175,0.645,-0.878,0.0
9.726,0.616,-0.895,0.0
9.272,0.588,-0.908,0.0
11.996,0.759,-0.843,0.0
11.224,0.71,-0.854,0.0
10.616,0.672,-0.869,0.0
10.095,0.639,-0.886,0.0
9.621,0.61,-0.901,0.0
9.148,0.58,-0.91,0.0
11.788,0.745,-0.847,0.0
11.039,0.698,-0.857,0.0
10.467,0.662,-0.873,0.0
9.966,0.631,-0.89,0.0
9.504,0.602,-0.904,0.0
8.993,0.57,-0.908,0.0
11.585,0.731,-0.849,0.0
10.89,0.687,-0.861,0.0
10.316,0.651,-0.876,0.0
9.827,0.621,-0.892,0.0
9.336,0.59,-0.902,0.0
8.914,0.564,-0.913,0.0
11.405,0.719,-0.853,0.0
10.758,0.678,-0.867,0.0
10.148,0.64,-0.877,0.0
9.685,0.611,-0.894,0.0
9.22,0.581,-0.905,0.0
8.818,0.556,-0.917,0.0
11.208,0.704,-0.855,0.0
10.619,0.667,-0.871,0.0
10.066,0.633,-0.884,0.0
9.565,0.601,-0.897,0.0
9.12,0.573,-0.908,0.0
8.697,0.547,-0.916,0.0
11.046,0.692,-0.858,0.0
10.416,0.652,-0.869,0.0
9.966,0.624,-0.89,0.0
9.48,0.594,-0.902,0.0
9.01,0.565,-0.91,0.0
8.567,0.537,-0.915,0.0
10.874,0.679,-0.86,0.0
10.3,0.643,-0.874,0.0
9.82,0.613,-0.89,0.0
9.272,0.579,-0.895,0.0
8.917,0.557,-0.913,0.0
8.475,0.529,-0.917,0.0
10.761,0.669,-0.866,0.0
10.175,0.632,-0.878,0.0
9.71,0.603,-0.894,0.0
9.257,0.575,-0.907,0.0
8.798,0.547,-0.913,0.0
8.448,0.525,-0.926,0.0
10.577,0.654,-0.866,0.0
10.125,0.626,-0.887,0.0
9.555,0.59,-0.893,0.0
9.139,0.565,-0.908,0.0
8.751,0.541,-0.92,0.0
8.361,0.517,-0.928,0.0
10.483,0.645,-0.872,0.0
9.943,0.611,-0.885,0.0
9.455,0.581,-0.896,0.0
8.996,0.553,-0.906,0.0
8.668,0.532,-0.923,0.0
8.269,0.508,-0.929,0.0
10.336,0.632,-0.874,0.0
9.877,0.603,-0.892,0.0
9.445,0.577,-0.907,0.0
8.949,0.546,-0.913,0.0
8.558,0.522,-0.922,0.0
8.215,0.501,-0.933,0.0
10.24,0.621,-0.879,0.0
9.765,0.592,-0.894,0.0
9.224,0.559,-0.898,0.0
8.825,0.535,-0.911,0.0
8.466,0.513,-0.923,0.0
8.085,0.49,-0.929,0.0
10.111,0.609,-0.88,0.0
9.627,0.579,-0.894,0.0
9.225,0.555,-0.91,0.0
8.75,0.526,-0.915,0.0
8.392,0.504,-0.926,0.0
7.966,0.479,-0.925,0.0
10.033,0.599,-0.886,0.0
9.535,0.569,-0.897,0.0
9.11,0.543,-0.91,0.0
8.651,0.516,-0.915,0.0
8.335,0.497,-0.93,0.0
7.936,0.473,-0.931,0.0
9.911,0.587,-0.887,0.0
9.4,0.556,-0.895,0.0
9.046,0.535,-0.914,0.0
0.0,0.0,0.0,0.0
8.188,0.483,-0.923,0.0
7.86,0.464,-0.932,0.0
9.825,0.576,-0.891,0.0
9.344,0.548,-0.901,0.0
8.927,0.523,-0.912,0.0
0.0,0.0,0.0,0.0
8.158,0.477,-0.929,0.0
7.841,0.458,-0.939,0.0
9.696,0.563,-0.89,0.0
9.263,0.537,-0.904,0.0
8.813,0.511,-0.911,0.0
8.499,0.492,-0.928,0.0
8.102,0.469,-0.932,0.0
7.727,0.447,-0.934,0.0
9.625,0.553,-0.894,0.0
9.187,0.527,-0.907,0.0
8.742,0.501,-0.913,0.0
0.0,0.0,0.0,0.0
8.002,0.458,-0.929,0.0
7.678,0.439,-0.936,0.0
9.527,0.541,-0.895,0.0
9.072,0.514,-0.905,0.0
8.64,0.489,-0.912,0.0
0.0,0.0,0.0,0.0
7.96,0.45,-0.933,0.0
7.626,0.431,-0.938,0.0
9.466,0.531,-0.899,0.0
9.019,0.505,-0.909,0.0
8.559,0.479,-0.912,0.0
8.261,0.462,-0.929,0.0
7.901,0.441,-0.934,0.0
7.531,0.42,-0.934,0.0
9.384,0.52,-0.901,0.0
8.976,0.496,-0.914,0.0
8.58,0.474,-0.923,0.0
8.208,0.453,-0.931,0.0
7.823,0.431,-0.933,0.0
7.54,0.415,-0.943,0.0
9.299,0.508,-0.902,0.0
8.884,0.485,-0.913,0.0
8.461,0.461,-0.918,0.0
8.189,0.445,-0.937,0.0
7.795,0.423,-0.937,0.0
7.474,0.405,-0.942,0.0
9.229,0.497,-0.904,0.0
8.834,0.475,-0.916,0.0
8.392,0.451,-0.918,0.0
8.034,0.431,-0.926,0.0
7.738,0.414,-0.937,0.0
7.412,0.396,-0.941,0.0
9.187,0.487,-0.908,0.0
8.789,0.465,-0.919,0.0
8.363,0.442,-0.923,0.0
8.017,0.423,-0.932,0.0
7.674,0.404,-0.936,0.0
7.364,0.387,-0.941,0.0
9.084,0.475,-0.905,0.0
8.715,0.454,-0.919,0.0
8.32,0.433,-0.925,0.0
7.924,0.412,-0.927,0.0
7.66,0.397,-0.941,0.0
7.358,0.381,-0.946,0.0
9.063,0.466,-0.911,0.0
8.654,0.444,-0.919,0.0
8.307,0.425,-0.93,0.0
0.0,0.0,0.0,0.0
7.611,0.388,-0.941,0.0
7.335,0.373,-0.949,0.0
8.993,0.454,-0.911,0.0
8.557,0.431,-0.916,0.0
0.0,0.0,0.0,0.0
7.819,0.392,-0.927,0.0
7.554,0.378,-0.94,0.0
7.257,0.363,-0.945,0.0
8.908,0.442,-0.909,0.0
8.551,0.423,-0.921,0.0
8.196,0.405,-0.93,0.0
7.842,0.386,-0.936,0.0
7.537,0.37,-0.943,0.0
7.224,0.354,-0.945,0.0
8.836,0.43,-0.908,0.0
8.451,0.41,-0.916,0.0
8.103,0.392,-0.925,0.0
7.785,0.376,-0.934,0.0
7.478,0.361,-0.941,0.0
0.0,0.0,0.0,0.0
8.805,0.42,-0.91,0.0
8.503,0.405,-0.928,0.0
8.107,0.385,-0.931,0.0
7.71,0.365,-0.93,0.0
7.452,0.352,-0.942,0.0
7.164,0.338,-0.947,0.0
8.742,0.409,-0.909,0.0
8.378,0.391,-0.919,0.0
8.076,0.376,-0.932,0.0
7.693,0.357,-0.933,0.0
7.42,0.343,-0.942,0.0
7.113,0.328,-0.945,0.0
8.723,0.399,-0.912,0.0
8.335,0.38,-0.919,0.0
8.017,0.365,-0.93,0.0
7.681,0.349,-0.936,0.0
0.0,0.0,0.0,0.0
0.0,0.0,0.0,0.0
8.736,0.391,-0.918,0.0
8.375,0.374,-0.928,0.0
8.006,0.356,-0.933,0.0
7.611,0.338,-0.931,0.0
7.316,0.324,-0.937,0.0
7.067,0.312,-0.946,0.0
8.678,0.38,-0.916,0.0
8.303,0.362,-0.924,0.0
7.944,0.345,-0.929,0.0
7.587,0.329,-0.932,0.0
7.331,0.317,-0.942,0.0
7.049,0.304,-0.947,0.0
8.656,0.37,-0.918,0.0
8.233,0.35,-0.92,0.0
7.918,0.336,-0.93,0.0
7.608,0.322,-0.938,0.0
7.353,0.31,-0.948,0.0
7.04,0.296,-0.948,0.0
8.616,0.359,-0.917,0.0
8.28,0.344,-0.928,0.0
7.905,0.327,-0.931,0.0
7.557,0.312,-0.934,0.0
0.0,0.0,0.0,0.0
7.036,0.288,-0.95,0.0
8.587,0.348,-0.917,0.0
8.245,0.333,-0.927,0.0
7.858,0.316,-0.929,0.0
7.573,0.304,-0.939,0.0
7.332,0.293,-0.951,0.0
6.982,0.278,-0.945,0.0
8.558,0.338,-0.917,0.0
8.184,0.322,-0.923,0.0
7.834,0.307,-0.928,0.0
7.511,0.293,-0.933,0.0
0.0,0.0,0.0,0.0
6.994,0.271,-0.949,0.0
8.541,0.328,-0.917,0.0
8.189,0.313,-0.926,0.0
7.874,0.3,-0.935,0.0
7.557,0.287,-0.941,0.0
0.0,0.0,0.0,0.0
6.969,0.262,-0.947,0.0
8.521,0.318,-0.917,0.0
8.164,0.303,-0.925,0.0
7.876,0.291,-0.937,0.0
0.0,0.0,0.0,0.0
0.0,0.0,0.0,0.0
0.0,0.0,0.0,0.0
8.51,0.308,-0.917,0.0
8.256,0.297,-0.936,0.0
7.826,0.28,-0.932,0.0
7.462,0.266,-0.932,0.0
0.0,0.0,0.0,0.0
0.0,0.0,0.0,0.0
8.523,0.299,-0.92,0.0
8.22,0.287,-0.933,0.0
7.812,0.271,-0.931,0.0
7.522,0.26,-0.94,0.0
0.0,0.0,0.0,0.0
0.0,0.0,0.0,0.0
8.548,0.29,-0.923,0.0
8.176,0.276,-0.929,0.0
7.861,0.264,-0.938,0.0
7.498,0.25,-0.938,0.0
0.0,0.0,0.0,0.0
0.0,0.0,0.0,0.0
8.513,0.279,-0.92,0.0
8.155,0.265,-0.927,0.0
7.826,0.253,-0.934,0.0
7.507,0.242,-0.939,0.0
0.0,0.0,0.0,0.0
0.0,0.0,0.0,0.0
8.496,0.268,-0.918,0.0
8.172,0.256,-0.929,0.0
7.859,0.245,-0.938,0.0
7.493,0.232,-0.937,0.0
0.0,0.0,0.0,0.0
0.0,0.0,0.0,0.0
8.487,0.258,-0.917,0.0
8.157,0.246,-0.927,0.0
7.808,0.235,-0.931,0.0
7.526,0.225,-0.941,0.0
0.0,0.0,0.0,0.0
6.942,0.205,-0.946,0.0
8.494,0.248,-0.917,0.0
8.221,0.239,-0.933,0.0
7.885,0.227,-0.94,0.0
7.504,0.215,-0.937,0.0
0.0,0.0,0.0,0.0
6.957,0.197,-0.948,0.0
8.533,0.239,-0.92,0.0
8.208,0.229,-0.931,0.0
7.811,0.216,-0.929,0.0
0.0,0.0,0.0,0.0
0.0,0.0,0.0,0.0
0.0,0.0,0.0,0.0
8.514,0.229,-0.916,0.0
8.229,0.22,-0.931,0.0
7.886,0.209,-0.937,0.0
7.545,0.198,-0.939,0.0
0.0,0.0,0.0,0.0
6.957,0.18,-0.945,0.0
8.543,0.219,-0.917,0.0
8.298,0.212,-0.937,0.0
7.818,0.198,-0.927,0.0
7.49,0.188,-0.931,0.0
0.0,0.0,0.0,0.0
7.009,0.173,-0.95,0.0
8.614,0.211,-0.922,0.0
8.276,0.201,-0.932,0.0
7.887,0.19,-0.933,0.0
0.0,0.0,0.0,0.0
0.0,0.0,0.0,0.0
7.044,0.166,-0.952,0.0
8.619,0.201,-0.92,0.0
8.24,0.191,-0.926,0.0
7.903,0.181,-0.932,0.0
0.0,0.0,0.0,0.0
7.294,0.165,-0.942,0.0
7.032,0.157,-0.948,0.0
8.663,0.192,-0.922,0.0
8.269,0.181,-0.926,0.0
7.947,0.173,-0.934,0.0
0.0,0.0,0.0,0.0
7.314,0.156,-0.942,0.0
7.038,0.149,-0.946,0.0
8.662,0.182,-0.918,0.0
8.296,0.172,-0.925,0.0
7.98,0.164,-0.934,0.0
0.0,0.0,0.0,0.0
7.358,0.149,-0.945,0.0
7.051,0.141,-0.945,0.0
8.723,0.173,-0.921,0.0
8.298,0.163,-0.922,0.0
8.011,0.156,-0.934,0.0
0.0,0.0,0.0,0.0
7.345,0.14,-0.939,0.0
7.119,0.134,-0.95,0.0
8.721,0.163,-0.916,0.0
8.391,0.155,-0.928,0.0
8.035,0.147,-0.933,0.0
0.0,0.0,0.0,0.0
7.435,0.133,-0.947,0.0
7.13,0.126,-0.948,0.0
8.766,0.153,-0.916,0.0
8.412,0.145,-0.925,0.0
8.077,0.138,-0.933,0.0
7.732,0.131,-0.937,0.0
7.428,0.124,-0.941,0.0
7.138,0.118,-0.945,0.0
8.859,0.145,-0.92,0.0
8.461,0.136,-0.926,0.0
0.0,0.0,0.0,0.0
7.728,0.121,-0.932,0.0
0.0,0.0,0.0,0.0
0.0,0.0,0.0,0.0
8.85,0.134,-0.914,0.0
8.477,0.127,-0.922,0.0
8.148,0.12,-0.931,0.0
7.8,0.114,-0.935,0.0
7.532,0.108,-0.945,0.0
7.208,0.102,-0.944,0.0
8.924,0.125,-0.915,0.0
8.484,0.117,-0.917,0.0
8.2,0.112,-0.931,0.0
7.78,0.104,-0.927,0.0
7.507,0.099,-0.936,0.0
7.205,0.094,-0.938,0.0
8.912,0.115,-0.908,0.0
8.602,0.109,-0.923,0.0
8.187,0.102,-0.924,0.0
0.0,0.0,0.0,0.0
7.59,0.092,-0.941,0.0
7.269,0.086,-0.941,0.0
8.988,0.106,-0.908,0.0
8.66,0.1,-0.922,0.0
8.268,0.094,-0.926,0.0
0.0,0.0,0.0,0.0
7.624,0.084,-0.939,0.0
7.323,0.079,-0.942,0.0
9.06,0.097,-0.908,0.0
0.0,0.0,0.0,0.0
8.296,0.085,-0.922,0.0
0.0,0.0,0.0,0.0
7.642,0.075,-0.934,0.0
7.362,0.071,-0.941,0.0
9.127,0.087,-0.907,0.0
8.73,0.082,-0.915,0.0
8.393,0.077,-0.926,0.0
8.077,0.073,-0.936,0.0
7.709,0.068,-0.936,0.0
7.379,0.063,-0.936,0.0
9.203,0.078,-0.906,0.0
8.861,0.074,-0.921,0.0
8.465,0.069,-0.926,0.0
0.0,0.0,0.0,0.0
7.741,0.06,-0.932,0.0
7.491,0.056,-0.943,0.0
9.275,0.069,-0.905,0.0
8.911,0.065,-0.918,0.0
8.452,0.06,-0.916,0.0
0.0,0.0,0.0,0.0
0.0,0.0,0.0,0.0
7.56,0.049,-0.945,0.0
9.358,0.06,-0.903,0.0
8.978,0.056,-0.916,0.0
0.0,0.0,0.0,0.0
0.0,0.0,0.0,0.0
7.903,0.044,-0.936,0.0
7.603,0.041,-0.942,0.0
9.41,0.05,-0.899,0.0
9.044,0.047,-0.913,0.0
8.725,0.043,-0.928,0.0
8.315,0.04,-0.931,0.0
7.966,0.037,-0.935,0.0
7.649,0.033,-0.94,0.0
9.523,0.041,-0.899,0.0
9.103,0.038,-0.909,0.0
8.704,0.034,-0.916,0.0
8.304,0.031,-0.92,0.0
8.033,0.029,-0.934,0.0
7.72,0.026,-0.94,0.0
9.673,0.032,-0.903,0.0
9.169,0.029,-0.905,0.0
8.811,0.026,-0.918,0.0
8.418,0.023,-0.923,0.0
8.083,0.021,-0.931,0.0
7.771,0.019,-0.937,0.0
9.734,0.023,-0.897,0.0
9.277,0.02,-0.905,0.0
8.895,0.018,-0.916,0.0
8.522,0.015,-0.925,0.0
8.171,0.013,-0.931,0.0
7.833,0.011,-0.935,0.0
9.857,0.014,-0.897,0.0
9.349,0.012,-0.901,0.0
8.976,0.009,-0.914,0.0
8.59,0.007,-0.922,0.0
8.224,0.006,-0.927,0.0
7.922,0.004,-0.936,0.0
9.921,0.005,-0.891,0.0
9.47,0.003,-0.901,0.0
9.074,0.001,-0.912,0.0
0.0,0.0,0.0,0.0
8.346,-0.001,-0.93,0.0
7.974,-0.002,-0.932,0.0
10.076,-0.003,-0.892,0.0
9.61,-0.005,-0.902,0.0
9.134,-0.006,-0.907,0.0
0.0,0.0,0.0,0.0
8.387,-0.009,-0.924,0.0
8.047,-0.01,-0.93,0.0
10.183,-0.012,-0.888,0.0
9.736,-0.013,-0.901,0.0
9.258,-0.014,-0.907,0.0
8.888,-0.015,-0.919,0.0
8.471,-0.016,-0.922,0.0
8.125,-0.017,-0.928,0.0
10.286,-0.021,-0.884,0.0
9.828,-0.022,-0.897,0.0
9.354,-0.023,-0.904,0.0
8.991,-0.023,-0.918,0.0
8.652,-0.024,-0.93,0.0
8.224,-0.024,-0.928,0.0
10.379,-0.03,-0.877,0.0
9.924,-0.031,-0.892,0.0
9.485,-0.031,-0.903,0.0
9.072,-0.031,-0.913,0.0
8.702,-0.031,-0.923,0.0
8.32,-0.031,-0.927,0.0
10.523,-0.039,-0.875,0.0
10.073,-0.039,-0.891,0.0
9.613,-0.039,-0.902,0.0
9.189,-0.039,-0.912,0.0
8.792,-0.038,-0.92,0.0
8.435,-0.038,-0.928,0.0
10.69,-0.048,-0.873,0.0
10.194,-0.048,-0.887,0.0
9.746,-0.047,-0.9,0.0
9.308,-0.046,-0.91,0.0
8.886,-0.046,-0.916,0.0
8.495,-0.045,-0.922,0.0
10.882,-0.057,-0.873,0.0
10.317,-0.056,-0.882,0.0
9.888,-0.055,-0.898,0.0
9.41,-0.054,-0.906,0.0
9.006,-0.053,-0.915,0.0
8.683,-0.053,-0.929,0.0
11.028,-0.066,-0.868,0.0
10.454,-0.064,-0.878,0.0
9.996,-0.063,-0.893,0.0
9.569,-0.062,-0.907,0.0
9.134,-0.06,-0.914,0.0
8.744,-0.059,-0.922,0.0
11.163,-0.075,-0.861,0.0
10.612,-0.073,-0.875,0.0
10.163,-0.071,-0.892,0.0
9.67,-0.069,-0.901,0.0
9.267,-0.068,-0.913,0.0
8.858,-0.066,-0.92,0.0
11.354,-0.084,-0.858,0.0
10.792,-0.081,-0.873,0.0
10.293,-0.079,-0.887,0.0
9.807,-0.077,-0.898,0.0
9.388,-0.075,-0.91,0.0
8.993,-0.073,-0.919,0.0
11.535,-0.093,-0.854,0.0
10.965,-0.09,-0.869,0.0
10.398,-0.086,-0.879,0.0
9.958,-0.084,-0.896,0.0
9.538,-0.082,-0.909,0.0
9.095,-0.079,-0.915,0.0
11.762,-0.102,-0.851,0.0
11.123,-0.098,-0.864,0.0
10.56,-0.094,-0.876,0.0
10.122,-0.092,-0.894,0.0
9.634,-0.089,-0.902,0.0
9.231,-0.086,-0.913,0.0
12.046,-0.111,-0.852,0.0
11.359,-0.107,-0.863,0.0
10.783,-0.103,-0.876,0.0
10.277,-0.099,-0.89,0.0
9.797,-0.096,-0.9,0.0
9.33,-0.092,-0.907,0.0
12.314,-0.121,-0.85,0.0
11.553,-0.115,-0.858,0.0
10.943,-0.11,-0.871,0.0
10.395,-0.106,-0.883,0.0
9.95,-0.102,-0.898,0.0
9.529,-0.099,-0.91,0.0
12.57,-0.13,-0.847,0.0
11.729,-0.122,-0.851,0.0
11.108,-0.117,-0.865,0.0
10.584,-0.113,-0.881,0.0
10.138,-0.109,-0.897,0.0
9.672,-0.105,-0.907,0.0
12.985,-0.14,-0.852,0.0
12.055,-0.132,-0.854,0.0
11.369,-0.125,-0.865,0.0
10.749,-0.12,-0.876,0.0
10.27,-0.115,-0.891,0.0
9.785,-0.111,-0.9,0.0
13.359,-0.151,-0.853,0.0
12.335,-0.14,-0.852,0.0
11.541,-0.132,-0.858,0.0
10.966,-0.127,-0.874,0.0
10.42,-0.122,-0.885,0.0
9.918,-0.117,-0.895,0.0
13.516,-0.158,-0.839,0.0
12.591,-0.148,-0.848,0.0
11.736,-0.139,-0.851,0.0
11.127,-0.133,-0.867,0.0
10.604,-0.128,-0.882,0.0
10.132,-0.123,-0.896,0.0
13.806,-0.167,-0.832,0.0
13.03,-0.159,-0.854,0.0
12.069,-0.148,-0.854,0.0
11.368,-0.14,-0.865,0.0
10.794,-0.134,-0.878,0.0
10.285,-0.129,-0.89,0.0
14.258,-0.177,-0.833,0.0
13.294,-0.166,-0.846,0.0
12.398,-0.156,-0.854,0.0
11.564,-0.147,-0.858,0.0
10.992,-0.14,-0.873,0.0
10.44,-0.134,-0.884,0.0
14.604,-0.186,-0.827,0.0
13.63,-0.175,-0.842,0.0
12.69,-0.164,-0.851,0.0
11.835,-0.154,-0.856,0.0
11.179,-0.146,-0.867,0.0
10.649,-0.14,-0.882,0.0
14.906,-0.194,-0.816,0.0
13.97,-0.183,-0.837,0.0
13.054,-0.172,-0.85,0.0
12.171,-0.161,-0.858,0.0
11.424,-0.152,-0.865,0.0
10.876,-0.146,-0.88,0.0
15.377,-0.204,-0.813,0.0
14.401,-0.192,-0.836,0.0
13.362,-0.179,-0.845,0.0
12.425,-0.167,-0.852,0.0
11.652,-0.158,-0.86,0.0
11.047,-0.15,-0.873,0.0
15.835,-0.214,-0.807,0.0
14.593,-0.198,-0.819,0.0
13.694,-0.186,-0.84,0.0
12.895,-0.176,-0.86,0.0
11.897,-0.163,-0.855,0.0
11.284,-0.155,-0.87,0.0
16.344,-0.223,-0.801,0.0
15.138,-0.208,-0.821,0.0
14.019,-0.193,-0.833,0.0
13.05,-0.18,-0.844,0.0
12.292,-0.171,-0.859,0.0
11.497,-0.16,-0.864,0.0
16.832,-0.232,-0.793,0.0
15.564,-0.216,-0.814,0.0
14.484,-0.201,-0.832,0.0
13.517,-0.188,-0.848,0.0
12.512,-0.175,-0.85,0.0
11.71,-0.164,-0.857,0.0
17.434,-0.243,-0.787,0.0
15.938,-0.222,-0.802,0.0
14.832,-0.208,-0.823,0.0
13.813,-0.194,-0.84,0.0
12.968,-0.182,-0.856,0.0
12.05,-0.17,-0.858,0.0
17.816,-0.249,-0.769,0.0
16.597,-0.232,-0.803,0.0
15.293,-0.215,-0.819,0.0
14.163,-0.199,-0.833,0.0
13.347,-0.188,-0.854,0.0
12.398,-0.175,-0.858,0.0
18.541,-0.26,-0.764,0.0
17.003,-0.239,-0.788,0.0
15.76,-0.221,-0.812,0.0
14.528,-0.204,-0.825,0.0
13.643,-0.192,-0.846,0.0
12.531,-0.177,-0.842,0.0
19.242,-0.269,-0.754,0.0
17.651,-0.247,-0.783,0.0
16.156,-0.227,-0.8,0.0
15.046,-0.211,-0.825,0.0
14.045,-0.197,-0.843,0.0
13.067,-0.184,-0.852,0.0
20.02,-0.279,-0.745,0.0
18.178,-0.254,-0.77,0.0
16.809,-0.235,-0.799,0.0
15.478,-0.216,-0.817,0.0
14.442,-0.202,-0.837,0.0
13.476,-0.188,-0.851,0.0
20.72,-0.287,-0.729,0.0
18.832,-0.261,-0.76,0.0
17.261,-0.239,-0.786,0.0
15.819,-0.219,-0.804,0.0
14.761,-0.204,-0.826,0.0
13.824,-0.191,-0.845,0.0
21.691,-0.298,-0.72,0.0
19.779,-0.271,-0.758,0.0
17.838,-0.245,-0.776,0.0
16.495,-0.226,-0.804,0.0
15.195,-0.208,-0.82,0.0
14.183,-0.194,-0.838,0.0
22.678,-0.308,-0.706,0.0
20.443,-0.277,-0.742,0.0
18.341,-0.248,-0.761,0.0
16.946,-0.229,-0.792,0.0
15.665,-0.212,-0.813,0.0
14.609,-0.197,-0.834,0.0
23.668,-0.316,-0.689,0.0
21.208,-0.283,-0.727,0.0
19.226,-0.256,-0.758,0.0
17.644,-0.235,-0.789,0.0
16.209,-0.215,-0.808,0.0
14.917,-0.198,-0.821,0.0
24.834,-0.326,-0.672,0.0
22.236,-0.291,-0.717,0.0
20.019,-0.262,-0.748,0.0
18.086,-0.236,-0.771,0.0
16.8,-0.218,-0.803,0.0
15.405,-0.2,-0.816,0.0
26.333,-0.338,-0.66,0.0
23.196,-0.297,-0.701,0.0
20.783,-0.265,-0.735,0.0
18.871,-0.24,-0.766,0.0
17.277,-0.219,-0.791,0.0
15.9,-0.201,-0.81,0.0
28.283,-0.354,-0.651,0.0
24.333,-0.304,-0.685,0.0
21.665,-0.269,-0.721,0.0
19.588,-0.243,-0.755,0.0
17.887,-0.221,-0.782,0.0
16.605,-0.204,-0.812,0.0
29.723,-0.362,-0.623,0.0
0.0,0.0,0.0,0.0
22.73,-0.274,-0.711,0.0
20.56,-0.247,-0.751,0.0
18.53,-0.222,-0.772,0.0
16.91,-0.201,-0.792,0.0
0.0,0.0,0.0,0.0
26.949,-0.316,-0.649,0.0
23.637,-0.276,-0.691,0.0
21.157,-0.245,-0.73,0.0
19.193,-0.221,-0.761,0.0
17.586,-0.202,-0.788,0.0
0.0,0.0,0.0,0.0
28.578,-0.322,-0.63,0.0
24.955,-0.28,-0.678,0.0
22.242,-0.248,-0.721,0.0
19.998,-0.221,-0.752,0.0
18.178,-0.2,-0.777,0.0
35.207,-0.383,-0.522,0.0
30.508,-0.33,-0.61,0.0
26.337,-0.283,-0.662,0.0
23.158,-0.247,-0.704,0.0
20.699,-0.219,-0.736,0.0
18.921,-0.199,-0.77,0.0
0.0,0.0,0.0,0.0
32.347,-0.333,-0.58,0.0
27.992,-0.286,-0.647,0.0
24.425,-0.247,-0.693,0.0
21.647,-0.217,-0.725,0.0
19.665,-0.196,-0.761,0.0
0.0,0.0,0.0,0.0
0.0,0.0,0.0,0.0
29.237,-0.282,-0.616,0.0
0.0,0.0,0.0,0.0
22.579,-0.214,-0.711,0.0
20.368,-0.191,-0.746,0.0
45.589,-0.421,-0.397,0.0
0.0,0.0,0.0,0.0
30.991,-0.28,-0.589,0.0
0.0,0.0,0.0,0.0
23.773,-0.21,-0.7,0.0
21.261,-0.186,-0.735,0.0
0.0,0.0,0.0,0.0
41.239,-0.351,-0.489,0.0
0.0,0.0,0.0,0.0
28.631,-0.238,-0.637,0.0
24.83,-0.203,-0.68,0.0
22.089,-0.178,-0.719,0.0
0.0,0.0,0.0,0.0
0.0,0.0,0.0,0.0
0.0,0.0,0.0,0.0
30.123,-0.229,-0.609,0.0
26.345,-0.198,-0.668,0.0
23.16,-0.171,-0.707,0.0
0.0,0.0,0.0,0.0
0.0,0.0,0.0,0.0
0.0,0.0,0.0,0.0
32.71,-0.226,-0.596,0.0
27.862,-0.189,-0.651,0.0
24.527,-0.163,-0.7,0.0
0.0,0.0,0.0,0.0
0.0,0.0,0.0,0.0
0.0,0.0,0.0,0.0
0.0,0.0,0.0,0.0
29.144,-0.175,-0.623,0.0
25.704,-0.151,-0.682,0.0
0.0,0.0,0.0,0.0
0.0,0.0,0.0,0.0
46.384,-0.254,-0.416,1.0
37.508,-0.201,-0.533,0.0
31.015,-0.162,-0.601,0.0
26.813,-0.136,-0.658,0.0
95.268,-0.47,0.318,1.0
0.0,0.0,0.0,0.0
50.998,-0.238,-0.356,0.0
39.63,-0.179,-0.486,0.0
0.0,0.0,0.0,0.0
0.0,0.0,0.0,0.0
111.004,-0.455,0.589,3.0
0.0,0.0,0.0,0.0
0.0,0.0,0.0,0.0
44.92,-0.165,-0.462,1.0
0.0,0.0,0.0,0.0
30.163,-0.101,-0.622,0.0
114.385,-0.369,0.83,8.0
0.0,0.0,0.0,0.0
0.0,0.0,0.0,0.0
0.0,0.0,0.0,0.0
38.107,-0.1,-0.515,0.0
0.0,0.0,0.0,0.0
114.49,-0.265,1.052,150.0
0.0,0.0,0.0,0.0
0.0,0.0,0.0,0.0
52.727,-0.097,-0.339,0.0
41.472,-0.07,-0.481,0.0
34.474,-0.052,-0.578,0.0
117.461,-0.16,1.307,10.0
110.927,-0.134,0.659,10.0
0.0,0.0,0.0,0.0
0.0,0.0,0.0,0.0
44.917,-0.032,-0.435,2.0
0.0,0.0,0.0,0.0
111.259,-0.043,1.451,19.0
111.207,-0.025,0.873,8.0
95.654,-0.005,0.256,1.0
0.0,0.0,0.0,0.0
49.597,0.014,-0.386,0.0
38.67,0.017,-0.502,0.0
117.326,0.072,1.751,11.0
111.169,0.087,1.083,16.0
103.437,0.099,0.47,7.0
0.0,0.0,0.0,0.0
0.0,0.0,0.0,0.0
42.805,0.063,-0.475,1.0
117.402,0.195,1.973,7.0
0.0,0.0,0.0,0.0
110.686,0.222,0.709,8.0
92.924,0.203,0.102,1.0
0.0,0.0,0.0,0.0
44.717,0.114,-0.414,0.0
119.825,0.326,2.232,11.0
119.841,0.348,1.61,10.0
111.007,0.343,0.915,12.0
94.667,0.31,0.279,3.0
0.0,0.0,0.0,0.0
49.908,0.182,-0.371,1.0
119.82,0.46,2.455,28.0
119.867,0.482,1.831,21.0
111.134,0.468,1.119,21.0
103.943,0.458,0.496,4.0
0.0,0.0,0.0,0.0
0.0,0.0,0.0,0.0
111.122,0.553,2.477,23.0
111.093,0.574,1.898,31.0
111.092,0.595,1.319,2.0
104.828,0.583,0.689,13.0
87.356,0.503,0.12,4.0
0.0,0.0,0.0,0.0
111.086,0.683,2.677,34.0
111.088,0.706,2.098,20.0
101.016,0.662,1.382,1.0
104.908,0.709,0.878,23.0
85.684,0.596,0.27,3.0
0.0,0.0,0.0,0.0
104.813,0.771,2.712,29.0
101.682,0.769,2.101,2.0
100.368,0.78,1.551,2.0
104.76,0.836,1.061,3.0
98.024,0.802,0.48,9.0
0.0,0.0,0.0,0.0
104.714,0.899,2.892,34.0
104.694,0.92,2.345,4.0
99.934,0.899,1.716,7.0
98.973,0.912,1.173,15.0
98.414,0.928,0.652,15.0
0.0,0.0,0.0,0.0
98.803,0.974,2.902,20.0
98.778,0.995,2.384,17.0
98.679,1.014,1.865,26.0
98.61,1.035,1.339,29.0
98.507,1.056,0.823,19.0
85.434,0.934,0.267,9.0
98.711,1.1,3.066,24.0
98.596,1.12,2.547,23.0
98.587,1.142,2.03,33.0
98.542,1.163,1.503,34.0
98.532,1.184,0.987,31.0
85.394,1.046,0.409,8.0
98.398,1.226,3.221,28.0
98.535,1.249,2.708,33.0
98.553,1.27,2.191,32.0
98.568,1.293,1.665,31.0
98.546,1.315,1.148,37.0
98.401,1.334,0.63,15.0
98.391,1.356,3.381,17.0
98.477,1.38,2.867,28.0
98.59,1.404,2.353,30.0
98.71,1.428,1.828,25.0
98.809,1.452,1.311,19.0
92.09,1.375,0.74,19.0
120.408,1.826,4.334,11.0
120.08,1.848,3.691,8.0
119.932,1.873,3.056,13.0
91.978,1.458,1.85,19.0
91.929,1.478,1.366,41.0
91.889,1.498,0.883,36.0
190.762,3.157,7.169,17.0
120.518,2.022,3.894,19.0
91.854,1.563,2.485,27.0
91.858,1.584,1.991,40.0
91.86,1.606,1.509,42.0
90.458,1.603,1.01,3.0
70.316,1.263,2.752,5.0
91.85,1.672,3.111,29.0
91.794,1.693,2.626,31.0
91.491,1.709,2.126,9.0
87.836,1.662,1.579,2.0
87.574,1.678,1.112,9.0
78.825,1.531,3.207,19.0
91.681,1.802,3.246,27.0
91.85,1.828,2.768,33.0
86.975,1.752,2.153,19.0
85.454,1.742,1.665,16.0
85.365,1.761,1.213,29.0
85.321,1.782,3.6,24.0
85.315,1.803,3.149,28.0
85.3,1.823,2.698,37.0
85.27,1.843,2.238,37.0
85.251,1.863,1.786,41.0
85.258,1.885,1.336,38.0
85.283,1.908,3.724,33.0
78.876,1.784,3.026,20.0
85.255,1.949,2.82,34.0
85.237,1.969,2.359,39.0
85.235,1.99,1.908,38.0
85.243,2.011,1.457,32.0
85.4,2.039,3.852,17.0
85.351,2.059,3.397,28.0
78.873,1.922,2.721,24.0
85.34,2.101,2.483,26.0
85.336,2.123,2.032,16.0
119.988,3.016,2.222,18.0
78.848,2.004,3.668,26.0
78.863,2.024,3.249,32.0
78.822,2.042,2.829,35.0
78.911,2.064,2.405,31.0
78.889,2.083,1.986,32.0
78.888,2.105,1.569,36.0
78.803,2.125,3.774,32.0
78.81,2.144,3.354,32.0
78.805,2.163,2.935,28.0
78.799,2.183,2.507,33.0
78.769,2.203,2.089,15.0
76.946,2.172,1.632,1.0
79.333,2.262,3.904,14.0
79.374,2.283,3.483,7.0
78.839,2.288,3.04,7.0
78.823,2.308,2.613,30.0
78.891,2.33,2.195,23.0
75.238,2.242,1.693,6.0
82.36,2.479,4.162,5.0
116.126,3.526,5.249,13.0
78.803,2.412,3.141,8.0
78.849,2.434,2.715,3.0
211.289,6.578,6.149,6.0
74.176,2.328,1.763,4.0
65.498,2.077,3.393,9.0
72.441,2.316,3.366,27.0
72.51,2.336,2.981,30.0
72.494,2.355,2.586,31.0
72.47,2.373,2.198,35.0
72.418,2.389,1.811,35.0
72.261,2.408,3.832,29.0
72.355,2.429,3.449,37.0
72.387,2.449,3.064,41.0
72.407,2.469,2.67,44.0
72.382,2.486,2.282,36.0
72.394,2.506,1.896,38.0
72.165,2.522,3.913,30.0
72.343,2.546,3.535,24.0
72.405,2.567,3.15,35.0
72.423,2.586,2.754,35.0
72.426,2.606,2.368,31.0
72.476,2.627,1.982,28.0
0.0,0.0,0.0,0.0
66.256,2.441,3.313,32.0
66.32,2.461,2.961,7.0
189.927,7.099,7.443,18.0
190.879,7.185,6.458,21.0
195.34,7.404,5.56,8.0
0.0,0.0,0.0,0.0
65.94,2.539,3.371,13.0
66.211,2.567,3.029,23.0
66.174,2.582,2.665,30.0
66.239,2.603,2.312,3.0
195.025,7.714,5.761,18.0
65.649,2.621,3.78,42.0
65.382,2.627,3.413,42.0
66.024,2.67,3.091,9.0
66.038,2.687,2.729,26.0
66.064,2.706,2.375,30.0
66.1,2.724,2.021,25.0
44.71,1.859,2.621,31.0
65.829,2.755,3.504,41.0
65.922,2.775,3.154,8.0
52.875,2.24,2.239,17.0
66.019,2.814,2.44,29.0
66.008,2.831,2.084,30.0
42.077,1.82,2.509,39.0
64.617,2.812,3.504,9.0
65.96,2.887,3.22,19.0
52.624,2.317,2.279,22.0
66.097,2.928,2.507,19.0
66.109,2.946,2.151,17.0
41.571,1.868,2.518,17.0
41.845,1.891,2.309,15.0
65.845,2.993,3.276,14.0
52.768,2.412,2.335,11.0
52.736,2.425,2.049,11.0
0.0,0.0,0.0,0.0
41.072,1.916,2.526,24.0
41.762,1.959,2.342,33.0
59.476,2.806,3.014,25.0
59.481,2.822,2.687,7.0
65.912,3.144,2.62,3.0
0.0,0.0,0.0,0.0
41.001,1.983,2.559,41.0
41.777,2.031,2.38,37.0
59.466,2.907,3.065,16.0
59.422,2.92,2.735,13.0
59.466,2.937,2.414,16.0
59.532,2.956,2.095,13.0
41.005,2.053,2.594,44.0
41.802,2.104,2.417,33.0
41.768,2.113,2.188,26.0
52.616,2.676,2.465,22.0
59.404,3.037,2.461,22.0
59.415,3.053,2.139,39.0
40.994,2.124,2.626,43.0
41.407,2.156,2.427,34.0
59.364,3.106,3.157,13.0
