X,Y,Z,Reflectivity
20.022,-1.149,0.858,26.0
19.99,-1.152,0.751,18.0
19.963,-1.155,0.645,21.0
19.943,-1.159,0.537,23.0
19.922,-1.163,0.432,18.0
19.922,-1.168,0.327,18.0
19.99,-1.175,0.883,18.0
19.995,-1.18,0.778,17.0
19.953,-1.182,0.672,18.0
19.937,-1.186,0.564,20.0
19.924,-1.19,0.459,18.0
19.935,-1.196,0.354,19.0
20.005,-1.203,0.912,19.0
20.01,-1.208,0.807,12.0
19.952,-1.209,0.699,17.0
19.94,-1.213,0.592,21.0
19.926,-1.217,0.486,18.0
19.935,-1.222,0.382,24.0
20.034,-1.231,0.941,1.0
20.047,-1.237,0.836,3.0
19.967,-1.236,0.727,14.0
19.945,-1.239,0.62,22.0
19.925,-1.242,0.514,22.0
19.929,-1.247,0.41,21.0
70.982,-4.454,3.435,14.0
73.134,-4.605,3.154,14.0
19.976,-1.262,0.756,11.0
19.926,-1.263,0.647,19.0
19.946,-1.269,0.543,23.0
19.921,-1.271,0.438,17.0
71.036,-4.545,3.537,24.0
72.984,-4.685,3.25,11.0
19.995,-1.287,0.785,10.0
19.945,-1.289,0.676,13.0
19.938,-1.292,0.571,16.0
19.937,-1.296,0.466,13.0
73.04,-4.762,3.742,8.0
70.844,-4.633,3.257,9.0
72.145,-4.732,2.938,18.0
20.002,-1.316,0.707,10.0
20.042,-1.323,0.603,11.0
20.034,-1.326,0.498,9.0
70.558,-4.683,3.719,18.0
72.727,-4.841,3.451,9.0
70.589,-4.712,2.978,12.0
20.009,-1.339,0.737,8.0
20.01,-1.343,0.632,10.0
20.066,-1.351,0.529,10.0
70.47,-4.757,3.818,27.0
70.982,-4.805,3.472,16.0
0.0,0.0,0.0,0.0
67.881,-4.619,2.599,29.0
20.006,-1.365,0.661,12.0
20.011,-1.369,0.556,9.0
71.338,-4.893,3.969,11.0
67.893,-4.668,3.42,53.0
67.893,-4.68,3.063,50.0
67.901,-4.692,2.699,49.0
20.011,-1.386,0.69,9.0
20.004,-1.389,0.585,9.0
71.373,-4.968,4.076,39.0
67.897,-4.738,3.52,43.0
67.903,-4.75,3.163,56.0
67.906,-4.761,2.8,53.0
67.892,-4.772,2.444,13.0
20.014,-1.41,0.615,9.0
71.321,-5.037,4.18,23.0
71.509,-5.061,3.814,15.0
67.921,-4.818,3.266,59.0
67.917,-4.829,2.903,55.0
67.886,-4.838,2.545,49.0
20.025,-1.43,0.645,8.0
71.421,-5.113,4.293,37.0
71.162,-5.105,3.903,25.0
67.913,-4.882,3.368,58.0
67.911,-4.892,3.004,57.0
67.903,-4.902,2.647,56.0
67.852,-4.909,2.289,9.0
71.905,-5.214,4.43,14.0
71.362,-5.184,4.021,27.0
67.901,-4.943,3.47,52.0
67.911,-4.953,3.107,64.0
67.915,-4.963,2.75,56.0
67.884,-4.971,2.393,39.0
72.007,-5.285,4.547,28.0
71.239,-5.238,4.123,26.0
67.88,-5.0,3.572,19.0
67.908,-5.011,3.21,69.0
67.924,-5.022,2.855,60.0
67.91,-5.031,2.498,47.0
71.97,-5.344,4.655,33.0
71.423,-5.311,4.243,7.0
71.385,-5.318,3.866,16.0
67.915,-5.068,3.314,48.0
67.927,-5.077,2.958,56.0
67.911,-5.084,2.602,39.0
71.286,-5.35,4.719,33.0
72.24,-5.43,4.402,8.0
71.514,-5.383,3.982,15.0
67.914,-5.12,3.418,44.0
67.925,-5.129,3.061,34.0
72.549,-5.486,2.889,13.0
71.051,-5.385,4.812,25.0
71.863,-5.455,4.489,13.0
71.59,-5.442,4.096,21.0
67.926,-5.17,3.522,10.0
67.944,-5.179,3.167,17.0
67.946,-5.187,2.81,25.0
67.985,-5.201,4.709,59.0
67.967,-5.207,4.35,63.0
67.959,-5.213,3.991,74.0
67.935,-5.217,3.626,78.0
67.927,-5.223,3.269,78.0
67.914,-5.23,2.913,81.0
67.98,-5.247,4.813,81.0
67.978,-5.253,4.455,76.0
67.962,-5.257,4.097,77.0
67.946,-5.262,3.732,80.0
67.938,-5.268,3.374,74.0
67.932,-5.273,3.017,74.0
67.99,-5.29,4.919,24.0
67.997,-5.296,4.561,25.0
67.974,-5.299,4.201,26.0
67.955,-5.303,3.836,20.0
67.944,-5.308,3.477,18.0
67.961,-5.315,3.121,19.0
70.983,-5.564,5.244,8.0
70.829,-5.557,4.859,26.0
75.835,-5.955,4.802,6.0
71.843,-5.647,4.164,9.0
71.417,-5.618,3.763,24.0
71.047,-5.595,3.371,27.0
78.445,-6.192,5.915,11.0
70.519,-5.57,4.945,25.0
75.97,-6.005,4.927,6.0
71.401,-5.649,4.248,22.0
71.508,-5.662,3.878,14.0
71.145,-5.638,3.485,34.0
72.7,-5.774,5.594,9.0
70.627,-5.613,5.061,34.0
70.909,-5.64,4.707,14.0
71.907,-5.722,4.387,16.0
71.439,-5.689,3.982,16.0
71.076,-5.664,3.588,29.0
70.935,-5.666,5.566,8.0
70.628,-5.645,5.168,15.0
71.063,-5.683,4.825,37.0
71.883,-5.751,4.494,10.0
71.422,-5.717,4.089,23.0
71.355,-5.715,3.71,19.0
73.274,-5.883,5.86,12.0
70.617,-5.672,5.274,13.0
70.965,-5.702,4.925,9.0
75.91,-6.102,4.859,10.0
71.6,-5.758,4.206,18.0
71.512,-5.754,3.825,21.0
73.423,-5.922,5.983,8.0
72.777,-5.872,5.546,4.0
70.729,-5.708,5.016,8.0
75.29,-6.078,4.934,10.0
71.831,-5.801,4.328,16.0
71.497,-5.776,3.931,23.0
70.526,-5.711,5.854,10.0
73.188,-5.927,5.687,6.0
70.734,-5.73,5.122,8.0
70.953,-5.749,4.756,16.0
71.861,-5.824,4.438,19.0
71.526,-5.798,4.041,20.0
73.329,-5.959,6.197,5.0
73.167,-5.946,5.795,21.0
70.572,-5.735,5.216,10.0
71.121,-5.78,4.873,39.0
72.107,-5.861,4.559,11.0
71.623,-5.823,4.151,19.0
73.0,-5.949,6.278,10.0
73.177,-5.963,5.905,9.0
70.875,-5.775,5.343,9.0
71.008,-5.786,4.97,16.0
71.831,-5.853,4.648,7.0
71.672,-5.84,4.259,30.0
73.034,-5.966,6.388,9.0
70.507,-5.758,5.792,11.0
70.999,-5.798,5.456,6.0
70.845,-5.784,5.062,10.0
71.822,-5.863,4.751,10.0
71.717,-5.854,4.365,15.0
79.528,-6.508,7.072,7.0
70.548,-5.771,5.898,13.0
72.944,-5.966,5.711,27.0
70.599,-5.773,5.146,14.0
71.23,-5.823,4.814,23.0
71.91,-5.877,4.481,7.0
77.766,-6.372,7.028,7.0
73.01,-5.98,6.209,6.0
72.985,-5.976,5.819,18.0
70.596,-5.778,5.246,23.0
70.911,-5.801,4.894,27.0
71.807,-5.873,4.575,9.0
71.689,-5.879,6.581,18.0
72.972,-5.98,6.309,11.0
70.482,-5.774,5.719,8.0
70.86,-5.802,5.365,11.0
70.899,-5.803,4.992,17.0
71.876,-5.881,4.68,16.0
71.519,-5.866,6.666,19.0
72.922,-5.977,6.408,7.0
70.519,-5.777,5.821,20.0
72.871,-5.967,5.62,12.0
70.82,-5.795,5.086,12.0
71.704,-5.865,4.769,15.0
71.099,-5.83,6.727,9.0
77.33,-6.337,6.903,5.0
70.592,-5.78,5.925,9.0
72.939,-5.968,5.726,30.0
70.567,-5.771,5.164,14.0
71.144,-5.815,4.829,29.0
79.099,-6.481,7.593,10.0
77.937,-6.381,7.065,8.0
72.987,-5.97,6.226,8.0
73.005,-5.968,5.831,11.0
70.708,-5.776,5.27,13.0
70.95,-5.791,4.911,24.0
79.067,-6.47,7.697,7.0
71.656,-5.859,6.591,14.0
73.02,-5.964,6.327,10.0
73.3,-5.982,5.952,4.0
70.983,-5.789,5.386,8.0
70.904,-5.778,5.002,10.0
73.38,-5.994,7.242,15.0
71.86,-5.864,6.707,21.0
72.827,-5.937,6.408,10.0
70.452,-5.738,5.815,9.0
73.167,-5.953,5.649,6.0
70.802,-5.756,5.089,8.0
73.209,-5.967,7.323,20.0
71.771,-5.842,6.794,10.0
72.709,-5.913,6.493,9.0
70.515,-5.728,5.912,7.0
73.186,-5.939,5.745,16.0
70.575,-5.721,5.163,11.0
72.987,-5.932,7.396,20.0
73.689,-5.981,7.071,7.0
79.203,-6.422,7.175,14.0
73.125,-5.922,6.225,7.0
73.174,-5.919,5.838,17.0
70.646,-5.708,5.259,10.0
72.586,-5.88,7.448,9.0
70.955,-5.74,6.899,10.0
79.356,-6.411,7.29,11.0
73.005,-5.89,6.308,11.0
73.449,-5.919,5.953,11.0
70.845,-5.702,5.363,8.0
76.311,-6.158,7.929,5.0
73.56,-5.927,7.246,7.0
79.431,-6.391,7.397,10.0
70.926,-5.699,6.217,10.0
73.32,-5.884,6.033,19.0
70.914,-5.683,5.455,9.0
71.631,-5.755,7.531,15.0
72.168,-5.79,7.198,20.0
71.882,-5.758,6.782,10.0
70.991,-5.678,6.309,10.0
73.293,-5.854,6.12,11.0
70.971,-5.66,5.545,7.0
71.622,-5.727,7.617,18.0
72.209,-5.764,7.289,14.0
71.882,-5.73,6.868,14.0
70.974,-5.648,6.392,12.0
70.571,-5.607,5.975,7.0
73.153,-5.804,5.801,13.0
71.383,-5.678,7.676,28.0
71.759,-5.698,7.327,10.0
71.637,-5.679,6.928,28.0
70.879,-5.61,6.465,22.0
70.614,-5.579,6.06,20.0
73.353,-5.787,5.901,28.0
71.228,-5.633,7.741,28.0
71.587,-5.651,7.392,9.0
71.665,-5.647,7.012,36.0
70.906,-5.577,6.548,6.0
70.653,-5.548,6.144,13.0
73.548,-5.765,6.0,20.0
71.082,-5.586,7.806,23.0
71.359,-5.597,7.449,9.0
71.593,-5.604,7.086,23.0
70.973,-5.545,6.633,17.0
0.0,0.0,0.0,0.0
68.011,-5.295,5.622,21.0
71.34,-5.567,7.914,39.0
70.959,-5.526,7.486,17.0
71.62,-5.567,7.166,26.0
70.904,-5.501,6.703,8.0
68.022,-5.266,6.063,34.0
67.996,-5.255,5.694,75.0
70.88,-5.491,7.939,49.0
70.795,-5.473,7.544,19.0
71.632,-5.526,7.243,21.0
78.034,-6.008,7.459,10.0
68.012,-5.225,6.133,81.0
68.007,-5.215,5.764,55.0
70.547,-5.422,7.975,32.0
70.846,-5.434,7.622,42.0
71.567,-5.477,7.31,23.0
67.999,-5.192,6.569,9.0
68.004,-5.182,6.2,24.0
70.636,-5.372,6.057,7.0
70.671,-5.387,8.06,35.0
71.345,-5.425,7.747,32.0
71.425,-5.419,7.367,33.0
68.018,-5.15,6.638,21.0
70.859,-5.353,6.53,13.0
0.0,0.0,0.0,0.0
70.383,-5.318,8.095,29.0
71.148,-5.362,7.795,27.0
71.092,-5.345,7.4,32.0
68.03,-5.103,6.703,29.0
71.037,-5.317,6.613,21.0
70.993,-5.301,6.223,14.0
69.822,-5.225,8.098,44.0
71.197,-5.315,7.866,28.0
71.439,-5.32,7.502,29.0
68.031,-5.054,6.766,34.0
71.231,-5.279,6.696,7.0
70.97,-5.248,6.285,10.0
69.785,-5.171,8.156,35.0
70.81,-5.234,7.887,38.0
70.883,-5.226,7.507,42.0
68.027,-5.002,6.826,33.0
73.49,-5.391,6.972,5.0
70.991,-5.195,6.349,17.0
69.914,-5.127,8.233,30.0
0.0,0.0,0.0,0.0
0.0,0.0,0.0,0.0
68.047,-4.95,6.886,30.0
73.473,-5.332,7.033,10.0
71.025,-5.141,6.411,24.0
70.34,-5.101,8.342,49.0
70.708,-5.114,7.996,24.0
70.225,-5.066,7.555,16.0
68.04,-4.894,6.94,32.0
78.081,-5.602,7.536,8.0
71.333,-5.104,6.495,9.0
69.467,-4.98,8.294,36.0
70.517,-5.041,8.03,36.0
70.331,-5.014,7.621,32.0
68.05,-4.838,6.993,29.0
72.46,-5.137,7.049,12.0
73.196,-5.176,6.719,9.0
69.777,-4.943,8.384,40.0
70.149,-4.955,8.041,25.0
71.415,-5.03,7.792,19.0
68.059,-4.779,7.045,24.0
71.048,-4.975,6.963,22.0
70.156,-4.899,6.491,14.0
70.062,-4.901,8.469,39.0
69.81,-4.868,8.052,39.0
71.452,-4.968,7.847,17.0
68.074,-4.719,7.093,20.0
69.99,-4.838,6.908,29.0
69.604,-4.797,6.488,22.0
70.242,-4.85,8.539,26.0
69.865,-4.808,8.106,37.0
70.401,-4.831,7.778,22.0
68.064,-4.656,7.137,13.0
70.59,-4.814,7.013,19.0
69.946,-4.755,6.565,19.0
69.897,-4.76,8.542,8.0
70.547,-4.789,8.23,37.0
70.19,-4.749,7.8,15.0
70.943,-4.785,7.483,12.0
71.086,-4.78,7.106,41.0
64.052,-4.293,6.05,7.0
69.941,-4.696,8.59,7.0
69.968,-4.682,8.204,43.0
70.472,-4.7,7.872,10.0
76.271,-5.07,8.09,4.0
71.806,-4.757,7.22,6.0
64.07,-4.232,6.088,30.0
70.002,-4.63,8.637,17.0
69.981,-4.612,8.246,23.0
70.726,-4.646,7.94,33.0
71.159,-4.659,7.586,18.0
59.566,-3.887,6.021,14.0
64.095,-4.168,6.124,34.0
71.599,-4.663,8.872,22.0
70.038,-4.546,8.288,27.0
70.706,-4.573,7.974,43.0
70.477,-4.542,7.549,14.0
59.547,-3.824,6.048,31.0
64.012,-4.097,6.147,38.0
71.048,-4.553,8.839,44.0
69.854,-4.46,8.3,34.0
70.642,-4.494,8.0,39.0
70.42,-4.464,7.576,33.0
59.528,-3.76,6.073,33.0
64.024,-4.029,6.177,14.0
70.952,-4.471,8.859,15.0
69.819,-4.383,8.327,30.0
70.233,-4.394,7.983,15.0
70.244,-4.378,7.586,30.0
59.55,-3.698,6.1,19.0
59.131,-3.659,5.729,31.0
65.097,-4.033,8.153,40.0
69.987,-4.319,8.374,12.0
58.733,-3.61,6.699,5.0
70.217,-4.3,7.609,15.0
59.661,-3.64,6.133,17.0
59.148,-3.595,5.751,33.0
64.805,-3.943,8.14,39.0
65.47,-3.968,7.856,20.0
58.823,-3.551,6.729,30.0
58.978,-3.547,6.411,30.0
59.442,-3.562,6.13,33.0
59.187,-3.533,5.774,33.0
64.742,-3.867,8.153,39.0
65.147,-3.876,7.838,41.0
58.862,-3.488,6.751,32.0
58.899,-3.477,6.419,33.0
58.964,-3.467,6.097,33.0
59.072,-3.46,5.779,33.0
64.705,-3.792,8.166,38.0
64.969,-3.792,7.833,40.0
58.751,-3.415,6.753,33.0
58.774,-3.402,6.42,33.0
58.398,-3.366,6.053,32.0
58.253,-3.344,5.712,32.0
64.779,-3.721,8.19,31.0
64.917,-3.714,7.841,29.0
58.781,-3.348,6.769,14.0
58.724,-3.331,6.427,33.0
58.048,-3.279,6.028,31.0
57.99,-3.263,5.697,29.0
64.767,-3.645,8.2,20.0
64.911,-3.637,7.852,28.0
51.702,-2.884,5.963,27.0
58.857,-3.269,6.451,34.0
58.003,-3.209,6.032,30.0
57.922,-3.191,5.699,32.0
51.496,-2.837,6.527,26.0
51.681,-2.834,6.258,15.0
51.7,-2.823,5.969,31.0
59.079,-3.212,6.482,34.0
58.041,-3.142,6.042,31.0
57.888,-3.121,5.701,30.0
51.405,-2.77,6.52,26.0
51.681,-2.773,6.263,22.0
51.646,-2.759,5.966,25.0
58.726,-3.122,6.448,34.0
58.218,-3.082,6.064,31.0
57.797,-3.046,5.695,32.0
51.464,-2.712,6.53,35.0
51.736,-2.713,6.272,25.0
51.653,-2.696,5.969,21.0
58.289,-3.029,6.401,21.0
59.16,-3.06,6.163,34.0
57.034,-2.937,5.621,31.0
51.801,-2.666,6.573,32.0
51.965,-2.662,6.299,26.0
51.75,-2.638,5.98,32.0
58.054,-2.946,6.374,13.0
46.738,-2.36,4.868,17.0
56.619,-2.847,5.578,32.0
51.704,-2.597,6.559,26.0
51.995,-2.599,6.3,26.0
51.732,-2.573,5.975,25.0
58.014,-2.872,6.366,11.0
56.493,-2.784,5.88,6.0
56.603,-2.776,5.572,30.0
51.648,-2.53,6.547,29.0
52.019,-2.536,6.298,26.0
51.673,-2.506,5.963,32.0
51.944,-2.508,5.694,22.0
46.749,-2.246,4.86,38.0
56.387,-2.695,5.543,9.0
51.52,-2.459,6.524,26.0
51.163,-2.43,6.187,39.0
51.661,-2.441,5.953,22.0
58.007,-2.727,6.35,12.0
46.781,-2.188,4.856,31.0
46.614,-2.17,4.575,39.0
51.27,-2.383,6.484,26.0
51.449,-2.379,6.212,25.0
51.636,-2.375,5.941,19.0
51.908,-2.376,5.671,5.0
46.723,-2.127,4.84,31.0
46.637,-2.113,4.567,37.0
51.312,-2.32,6.477,26.0
51.335,-2.309,6.187,25.0
57.736,-2.584,6.629,9.0
57.616,-2.565,6.281,7.0
46.705,-2.068,4.826,25.0
46.562,-2.051,4.547,31.0
50.971,-2.241,6.42,6.0
51.31,-2.244,6.169,25.0
51.615,-2.245,5.911,25.0
57.554,-2.489,6.257,11.0
52.486,-2.259,5.408,9.0
46.425,-1.987,4.52,33.0
44.904,-1.917,5.642,36.0
51.212,-2.174,6.141,25.0
51.684,-2.182,5.902,15.0
46.615,-1.958,5.052,15.0
52.551,-2.195,5.396,5.0
46.269,-1.922,4.488,37.0
44.853,-1.859,5.619,36.0
51.156,-2.108,6.116,7.0
44.897,-1.839,5.11,25.0
52.503,-2.139,5.67,21.0
52.575,-2.13,5.378,9.0
46.188,-1.861,4.462,38.0
44.957,-1.806,5.614,27.0
44.912,-1.794,5.35,34.0
44.893,-1.782,5.091,39.0
52.509,-2.072,5.649,26.0
46.766,-1.835,4.764,24.0
46.396,-1.81,4.462,25.0
44.959,-1.749,5.594,29.0
44.831,-1.733,5.32,35.0
44.732,-1.719,5.052,34.0
51.335,-1.961,5.498,25.0
46.47,-1.765,4.711,35.0
46.572,-1.759,4.456,27.0
44.629,-1.679,5.531,26.0
45.03,-1.684,5.321,25.0
44.627,-1.659,5.017,42.0
51.221,-1.893,5.46,9.0
46.58,-1.711,4.698,22.0
46.577,-1.701,4.432,20.0
44.545,-1.62,5.496,35.0
44.897,-1.622,5.28,13.0
44.731,-1.606,5.004,34.0
44.778,-1.598,4.748,32.0
52.567,-1.865,5.272,11.0
46.448,-1.637,4.393,26.0
44.555,-1.564,5.471,37.0
44.896,-1.565,5.254,35.0
44.624,-1.546,4.965,38.0
45.047,-1.551,4.748,29.0
46.623,-1.595,4.648,15.0
46.534,-1.582,4.372,20.0
44.64,-1.51,5.453,45.0
44.949,-1.511,5.231,38.0
44.628,-1.49,4.936,19.0
44.383,-1.472,4.649,46.0
52.621,-1.734,5.21,17.0
46.773,-1.531,4.363,4.0
44.547,-1.45,5.411,42.0
44.417,-1.437,5.138,25.0
44.054,-1.415,4.842,31.0
44.44,-1.418,4.624,36.0
43.8,-1.389,4.306,18.0
43.708,-1.376,4.046,18.0
44.235,-1.385,5.341,33.0
43.64,-1.357,5.017,39.0
43.817,-1.353,4.784,42.0
44.358,-1.361,4.583,38.0
43.685,-1.331,4.262,24.0
43.99,-1.33,4.039,19.0
43.716,-1.314,5.244,39.0
43.693,-1.304,4.988,40.0
43.718,-1.295,4.738,46.0
44.262,-1.302,4.537,33.0
43.674,-1.276,4.226,38.0
43.6,-1.265,3.968,31.0
43.752,-1.261,5.212,41.0
43.719,-1.25,4.955,39.0
43.731,-1.242,4.704,45.0
44.278,-1.248,4.502,29.0
43.546,-1.218,4.177,30.0
43.417,-1.206,3.915,44.0
43.903,-1.211,5.193,41.0
43.844,-1.2,4.931,39.0
43.683,-1.187,4.661,41.0
44.678,-1.205,4.504,27.0
43.536,-1.166,4.138,33.0
43.429,-1.154,3.878,41.0
44.498,-1.173,5.223,35.0
43.836,-1.147,4.891,40.0
43.577,-1.131,4.609,40.0
45.614,-1.175,4.557,39.0
43.631,-1.115,4.107,25.0
43.592,-1.106,3.852,31.0
50.255,-1.264,5.851,7.0
43.683,-1.09,4.832,43.0
43.439,-1.075,4.553,40.0
43.469,-1.067,4.3,31.0
43.544,-1.061,4.056,32.0
43.412,-1.049,3.794,42.0
44.841,-1.074,5.176,20.0
43.306,-1.029,4.747,49.0
43.42,-1.023,4.508,44.0
43.61,-1.019,4.271,28.0
42.897,-0.995,3.953,39.0
43.608,-1.003,3.767,41.0
44.981,-1.024,5.146,23.0
43.255,-0.977,4.697,39.0
43.417,-0.972,4.463,40.0
43.526,-0.967,4.217,44.0
42.821,-0.943,3.901,47.0
43.538,-0.951,3.715,44.0
44.086,-0.952,4.996,19.0
43.311,-0.927,4.656,38.0
43.377,-0.921,4.411,40.0
43.515,-0.916,4.168,43.0
42.699,-0.891,3.843,38.0
43.015,-0.889,3.622,43.0
43.575,-0.89,4.889,19.0
43.468,-0.88,4.624,40.0
43.284,-0.869,4.352,43.0
43.115,-0.857,4.081,22.0
42.725,-0.842,3.796,39.0
42.879,-0.838,3.562,39.0
43.356,-0.836,4.814,35.0
43.38,-0.829,4.564,35.0
42.599,-0.807,4.234,30.0
42.434,-0.796,3.967,20.0
42.263,-0.785,3.705,44.0
42.679,-0.786,3.495,39.0
43.665,-0.793,4.796,38.0
43.286,-0.779,4.502,43.0
41.874,-0.747,4.112,42.0
41.967,-0.741,3.873,39.0
42.161,-0.738,3.646,52.0
42.679,-0.74,3.444,44.0
43.569,-0.744,4.732,33.0
43.213,-0.73,4.441,48.0
41.98,-0.703,4.07,30.0
41.935,-0.695,3.817,47.0
42.384,-0.695,3.612,41.0
42.741,-0.694,3.395,38.0
43.171,-0.691,4.634,45.0
0.0,0.0,0.0,0.0
41.814,-0.655,4.0,34.0
41.972,-0.651,3.767,42.0
42.693,-0.655,3.583,38.0
42.587,-0.647,3.328,36.0
43.003,-0.642,4.559,32.0
41.805,-0.617,4.188,40.0
41.963,-0.613,3.959,45.0
41.929,-0.606,3.707,45.0
43.33,-0.62,3.58,18.0
42.392,-0.6,3.256,43.0
41.612,-0.578,4.355,29.0
41.961,-0.576,4.147,34.0
42.079,-0.571,3.913,33.0
41.999,-0.564,3.657,40.0
42.695,-0.567,3.469,18.0
42.239,-0.554,3.186,43.0
0.0,0.0,0.0,0.0
41.888,-0.532,4.081,35.0
41.919,-0.526,3.839,42.0
41.76,-0.519,3.577,32.0
42.408,-0.52,3.386,34.0
42.31,-0.513,3.132,48.0
41.703,-0.495,4.247,30.0
41.844,-0.491,4.017,31.0
41.743,-0.483,3.764,42.0
41.629,-0.476,3.506,46.0
41.957,-0.474,3.29,41.0
42.457,-0.474,3.083,38.0
41.654,-0.454,4.182,38.0
41.651,-0.448,3.937,40.0
41.646,-0.442,3.693,42.0
41.92,-0.439,3.469,30.0
42.049,-0.435,3.235,41.0
45.959,-0.469,3.269,24.0
41.621,-0.414,4.116,44.0
41.416,-0.406,3.853,51.0
41.968,-0.406,3.66,29.0
41.817,-0.399,3.399,40.0
41.968,-0.395,3.166,42.0
48.039,-0.446,3.345,10.0
41.628,-0.375,4.054,40.0
41.593,-0.37,3.806,40.0
41.611,-0.365,3.565,43.0
41.893,-0.362,3.34,45.0
42.12,-0.358,3.113,42.0
48.226,-0.404,3.284,20.0
41.805,-0.34,4.005,46.0
41.673,-0.333,3.749,44.0
41.947,-0.33,3.528,32.0
41.969,-0.325,3.281,43.0
42.587,-0.325,3.081,26.0
48.14,-0.362,3.203,31.0
41.65,-0.302,3.924,45.0
41.538,-0.296,3.671,42.0
42.301,-0.297,3.491,33.0
42.088,-0.29,3.223,41.0
48.25,-0.328,3.413,9.0
48.055,-0.321,3.121,34.0
41.506,-0.266,3.844,42.0
41.437,-0.261,3.595,49.0
42.123,-0.261,3.408,42.0
42.438,-0.258,3.181,31.0
48.579,-0.29,3.359,8.0
47.975,-0.281,3.037,13.0
41.402,-0.232,3.766,37.0
41.546,-0.228,3.536,40.0
41.913,-0.225,3.321,43.0
45.827,-0.242,3.359,35.0
48.192,-0.249,3.251,21.0
60.176,-0.305,3.709,19.0
41.329,-0.198,3.689,46.0
41.46,-0.195,3.458,44.0
42.008,-0.193,3.257,35.0
45.948,-0.206,3.289,19.0
60.216,-0.265,3.96,8.0
60.669,-0.261,3.637,11.0
41.353,-0.167,3.621,39.0
41.506,-0.163,3.39,43.0
42.342,-0.163,3.211,31.0
46.043,-0.173,3.218,9.0
60.209,-0.22,3.857,19.0
60.675,-0.216,3.533,24.0
41.472,-0.137,3.559,40.0
41.672,-0.134,3.332,44.0
45.898,-0.144,3.401,31.0
47.898,-0.146,3.265,20.0
60.451,-0.178,3.767,21.0
60.564,-0.173,3.421,21.0
41.554,-0.109,3.492,44.0
41.963,-0.106,3.281,46.0
48.468,-0.118,3.506,7.0
48.285,-0.114,3.205,13.0
60.481,-0.137,3.661,8.0
60.309,-0.132,3.3,20.0
41.587,-0.081,3.421,28.0
42.073,-0.078,3.214,9.0
60.827,-0.108,4.289,5.0
60.419,-0.103,3.902,23.0
60.627,-0.098,3.561,8.0
77.856,-0.12,4.118,7.0
41.937,-0.055,3.373,40.0
45.848,-0.056,3.419,26.0
49.151,-0.057,3.377,6.0
60.218,-0.065,3.779,6.0
60.285,-0.061,3.431,26.0
80.429,-0.075,4.11,12.0
41.928,-0.03,3.296,35.0
48.633,-0.031,3.537,17.0
60.497,-0.034,4.045,15.0
60.579,-0.03,3.691,8.0
60.174,-0.025,3.314,7.0
80.491,-0.029,3.963,21.0
45.667,-0.006,3.504,11.0
48.624,-0.003,3.445,3.0
60.211,0.0,3.913,22.0
71.855,0.004,4.242,1.0
78.073,0.009,4.152,14.0
80.605,0.015,3.817,11.0
48.627,0.019,3.639,23.0
67.588,0.031,4.661,6.0
67.907,0.035,4.285,3.0
73.891,0.043,4.223,10.0
80.609,0.051,4.135,9.0
102.753,0.072,4.67,9.0
48.874,0.044,3.563,10.0
60.534,0.058,4.058,4.0
74.567,0.075,4.562,5.0
77.895,0.083,4.302,10.0
80.499,0.09,3.975,22.0
70.194,0.082,3.056,17.0
13.602,-1.452,-0.725,0.0
13.549,-1.449,-0.796,0.0
13.257,-1.42,-0.851,0.0
12.257,-1.315,-0.855,0.0
11.543,-1.241,-0.868,0.0
11.093,-1.195,-0.895,0.0
13.408,-1.442,-0.704,1.0
13.354,-1.439,-0.774,0.0
13.261,-1.431,-0.841,1.0
12.505,-1.352,-0.862,0.0
11.737,-1.272,-0.873,0.0
11.151,-1.21,-0.89,0.0
13.383,-1.45,-0.692,1.0
13.168,-1.429,-0.752,0.0
13.191,-1.434,-0.825,0.0
12.622,-1.375,-0.86,0.0
11.817,-1.289,-0.869,0.0
11.222,-1.226,-0.886,0.0
13.462,-1.469,-0.685,1.0
12.967,-1.417,-0.73,1.0
12.957,-1.419,-0.799,0.0
12.735,-1.397,-0.856,0.0
11.966,-1.314,-0.869,0.0
11.342,-1.248,-0.886,0.0
13.638,-1.498,-0.681,1.0
12.833,-1.412,-0.711,1.0
12.744,-1.404,-0.775,0.0
12.712,-1.403,-0.843,0.0
12.051,-1.332,-0.865,0.0
11.401,-1.262,-0.88,0.0
13.907,-1.538,-0.682,1.0
12.814,-1.419,-0.698,1.0
12.59,-1.396,-0.754,0.0
12.551,-1.394,-0.821,0.0
12.228,-1.36,-0.866,0.0
11.485,-1.279,-0.876,0.0
14.052,-1.563,-0.676,6.0
12.915,-1.439,-0.691,1.0
12.407,-1.384,-0.731,0.0
12.425,-1.388,-0.801,0.0
12.32,-1.378,-0.861,0.0
11.677,-1.308,-0.879,0.0
14.127,-1.58,-0.666,12.0
13.103,-1.467,-0.689,1.0
12.368,-1.387,-0.717,1.0
12.325,-1.384,-0.782,0.0
12.296,-1.383,-0.847,0.0
11.746,-1.322,-0.873,0.0
14.164,-1.593,-0.654,14.0
13.331,-1.501,-0.687,1.0
12.374,-1.395,-0.705,1.0
12.189,-1.375,-0.761,0.0
12.232,-1.382,-0.83,0.0
11.892,-1.345,-0.872,0.0
14.237,-1.608,-0.643,14.0
13.601,-1.538,-0.688,1.0
12.464,-1.411,-0.697,1.0
12.068,-1.368,-0.742,0.0
12.047,-1.367,-0.805,0.0
12.041,-1.368,-0.87,0.0
14.394,-1.633,-0.636,13.0
13.708,-1.557,-0.679,7.0
12.656,-1.439,-0.695,1.0
12.031,-1.369,-0.727,0.0
11.958,-1.363,-0.787,0.0
11.966,-1.365,-0.852,0.0
14.522,-1.654,-0.626,13.0
13.777,-1.571,-0.668,12.0
12.86,-1.468,-0.693,1.0
12.042,-1.376,-0.715,0.0
11.868,-1.357,-0.768,0.0
11.888,-1.361,-0.834,0.0
15.054,-1.721,-0.633,16.0
13.786,-1.578,-0.653,13.0
13.075,-1.497,-0.69,1.0
12.147,-1.392,-0.708,1.0
11.801,-1.354,-0.751,0.0
11.773,-1.352,-0.813,0.0
15.267,-1.751,-0.625,20.0
13.885,-1.594,-0.643,12.0
13.375,-1.537,-0.691,2.0
12.283,-1.412,-0.702,2.0
11.768,-1.354,-0.736,0.0
11.722,-1.35,-0.796,0.0
15.459,-1.778,-0.616,18.0
14.066,-1.619,-0.636,11.0
13.46,-1.55,-0.681,7.0
12.402,-1.429,-0.695,1.0
11.771,-1.358,-0.723,0.0
11.678,-1.348,-0.78,0.0
15.698,-1.81,-0.608,17.0
14.223,-1.641,-0.627,11.0
13.535,-1.563,-0.669,12.0
12.643,-1.461,-0.694,1.0
11.86,-1.371,-0.715,0.0
11.64,-1.347,-0.764,0.0
16.041,-1.853,-0.603,17.0
14.492,-1.675,-0.622,11.0
13.601,-1.573,-0.657,13.0
12.923,-1.496,-0.695,1.0
11.985,-1.388,-0.709,0.0
11.607,-1.345,-0.749,0.0
16.284,-1.885,-0.594,18.0
15.129,-1.752,-0.632,15.0
13.79,-1.597,-0.65,12.0
13.185,-1.528,-0.694,2.0
12.186,-1.413,-0.707,0.0
11.598,-1.345,-0.735,0.0
16.51,-1.913,-0.583,17.0
15.323,-1.776,-0.623,16.0
13.885,-1.61,-0.639,10.0
13.296,-1.542,-0.684,6.0
12.341,-1.432,-0.701,2.0
11.676,-1.356,-0.726,0.0
16.802,-1.949,-0.573,15.0
15.493,-1.797,-0.612,16.0
14.034,-1.629,-0.629,10.0
13.415,-1.557,-0.674,10.0
12.466,-1.448,-0.694,1.0
11.761,-1.366,-0.717,0.0
17.221,-1.998,-0.567,16.0
15.799,-1.834,-0.605,15.0
14.375,-1.669,-0.627,11.0
13.526,-1.57,-0.664,12.0
12.803,-1.487,-0.697,1.0
11.917,-1.384,-0.713,0.0
17.615,-2.044,-0.56,16.0
16.137,-1.873,-0.599,15.0
14.989,-1.74,-0.636,13.0
13.651,-1.585,-0.654,13.0
13.097,-1.521,-0.697,1.0
12.095,-1.405,-0.709,0.0
18.052,-2.094,-0.552,22.0
16.403,-1.903,-0.589,15.0
15.238,-1.768,-0.628,15.0
13.874,-1.61,-0.648,12.0
13.268,-1.54,-0.69,4.0
12.281,-1.425,-0.705,1.0
18.329,-2.125,-0.538,20.0
16.675,-1.933,-0.579,15.0
15.426,-1.788,-0.617,16.0
13.964,-1.619,-0.635,10.0
13.371,-1.55,-0.679,8.0
12.4,-1.437,-0.696,2.0
18.886,-2.187,-0.532,26.0
17.08,-1.978,-0.572,15.0
15.715,-1.819,-0.61,15.0
14.224,-1.647,-0.629,10.0
13.521,-1.565,-0.67,12.0
12.694,-1.469,-0.697,1.0
19.243,-2.225,-0.518,31.0
17.526,-2.026,-0.565,15.0
16.096,-1.86,-0.605,15.0
14.539,-1.68,-0.625,11.0
13.624,-1.574,-0.659,14.0
12.971,-1.499,-0.696,1.0
19.617,-2.264,-0.504,25.0
17.933,-2.069,-0.556,17.0
16.381,-1.89,-0.595,15.0
15.166,-1.749,-0.634,16.0
13.796,-1.59,-0.65,13.0
13.26,-1.528,-0.696,2.0
20.143,-2.32,-0.493,18.0
18.357,-2.113,-0.547,17.0
16.643,-1.915,-0.584,14.0
15.393,-1.771,-0.624,17.0
13.976,-1.607,-0.641,12.0
13.486,-1.55,-0.691,5.0
20.81,-2.39,-0.484,19.0
18.884,-2.168,-0.539,21.0
17.059,-1.957,-0.578,15.0
15.7,-1.801,-0.617,15.0
14.146,-1.622,-0.631,10.0
13.635,-1.562,-0.681,10.0
21.491,-2.461,-0.473,20.0
19.219,-2.199,-0.525,25.0
17.518,-2.003,-0.572,16.0
16.069,-1.837,-0.612,16.0
14.519,-1.659,-0.63,11.0
13.781,-1.574,-0.672,12.0
21.983,-2.508,-0.456,23.0
19.294,-2.2,-0.503,25.0
17.915,-2.041,-0.562,16.0
16.368,-1.864,-0.603,16.0
15.171,-1.726,-0.639,15.0
13.913,-1.582,-0.661,13.0
22.477,-2.555,-0.439,22.0
19.943,-2.265,-0.495,20.0
18.324,-2.079,-0.552,16.0
16.66,-1.889,-0.593,14.0
15.426,-1.748,-0.631,16.0
14.142,-1.601,-0.654,12.0
16.022,-0.131,-0.803,0.0
14.875,-0.123,-0.823,0.0
13.825,-0.115,-0.837,0.0
12.946,-0.109,-0.852,0.0
12.073,-0.102,-0.858,0.0
11.373,-0.097,-0.867,0.0
16.553,-0.14,-0.798,0.0
15.305,-0.131,-0.817,0.0
14.18,-0.122,-0.831,0.0
13.231,-0.115,-0.845,0.0
12.398,-0.109,-0.857,0.0
11.578,-0.102,-0.86,0.0
17.085,-0.15,-0.79,0.0
15.708,-0.139,-0.808,0.0
14.589,-0.13,-0.826,0.0
13.646,-0.122,-0.845,0.0
12.682,-0.114,-0.851,0.0
11.861,-0.108,-0.858,0.0
17.459,-0.157,-0.773,0.0
16.213,-0.147,-0.802,0.0
14.947,-0.136,-0.817,0.0
13.981,-0.128,-0.838,0.0
13.142,-0.121,-0.856,0.0
12.203,-0.113,-0.858,0.0
18.281,-0.168,-0.774,0.0
16.711,-0.154,-0.794,0.0
15.437,-0.144,-0.813,0.0
14.309,-0.134,-0.829,0.0
13.436,-0.126,-0.849,0.0
12.516,-0.118,-0.856,0.0
18.807,-0.176,-0.759,0.0
17.283,-0.162,-0.787,0.0
15.95,-0.151,-0.809,0.0
14.684,-0.139,-0.822,0.0
13.758,-0.131,-0.842,0.0
13.005,-0.124,-0.863,0.0
19.534,-0.185,-0.749,0.0
17.735,-0.169,-0.772,0.0
16.47,-0.157,-0.802,0.0
15.179,-0.146,-0.819,0.0
14.2,-0.137,-0.84,0.0
13.328,-0.129,-0.858,0.0
20.36,-0.195,-0.74,0.0
18.313,-0.176,-0.76,0.0
16.955,-0.163,-0.791,0.0
15.687,-0.152,-0.815,0.0
14.502,-0.141,-0.829,0.0
13.579,-0.132,-0.846,0.0
21.291,-0.205,-0.731,0.0
19.242,-0.186,-0.76,0.0
17.527,-0.169,-0.783,0.0
16.097,-0.156,-0.803,0.0
14.948,-0.145,-0.823,0.0
13.932,-0.136,-0.84,0.0
22.227,-0.214,-0.717,0.0
19.961,-0.193,-0.747,0.0
18.197,-0.176,-0.775,0.0
16.631,-0.161,-0.796,0.0
15.388,-0.149,-0.816,0.0
14.346,-0.139,-0.835,0.0
23.127,-0.222,-0.699,0.0
20.71,-0.199,-0.733,0.0
18.866,-0.182,-0.765,0.0
17.155,-0.165,-0.786,0.0
15.903,-0.153,-0.811,0.0
14.752,-0.142,-0.828,0.0
24.462,-0.234,-0.689,0.0
21.716,-0.207,-0.724,0.0
19.513,-0.186,-0.751,0.0
17.761,-0.17,-0.777,0.0
16.475,-0.157,-0.806,0.0
15.151,-0.145,-0.819,0.0
25.848,-0.244,-0.674,0.0
22.533,-0.213,-0.704,0.0
20.244,-0.191,-0.737,0.0
18.461,-0.174,-0.769,0.0
16.924,-0.159,-0.793,0.0
15.76,-0.148,-0.819,0.0
26.787,-0.249,-0.644,0.0
24.02,-0.223,-0.701,0.0
21.516,-0.2,-0.739,0.0
19.235,-0.178,-0.762,0.0
17.463,-0.162,-0.782,0.0
16.096,-0.149,-0.804,0.0
28.854,-0.264,-0.634,0.0
25.065,-0.229,-0.68,0.0
22.153,-0.201,-0.715,0.0
19.916,-0.181,-0.747,0.0
18.251,-0.165,-0.779,0.0
16.689,-0.151,-0.799,0.0
30.339,-0.271,-0.604,0.0
26.417,-0.235,-0.662,0.0
23.362,-0.207,-0.706,0.0
20.728,-0.183,-0.735,0.0
18.619,-0.164,-0.756,0.0
17.328,-0.152,-0.793,0.0
0.0,0.0,0.0,0.0
27.977,-0.241,-0.643,0.0
24.463,-0.21,-0.689,0.0
21.625,-0.185,-0.722,0.0
19.642,-0.167,-0.757,0.0
17.851,-0.151,-0.78,0.0
35.011,-0.293,-0.552,0.0
29.54,-0.246,-0.618,0.0
25.716,-0.213,-0.67,0.0
22.782,-0.188,-0.714,0.0
20.437,-0.168,-0.745,0.0
18.497,-0.151,-0.77,0.0
37.523,-0.302,-0.515,0.0
30.974,-0.248,-0.584,0.0
0.0,0.0,0.0,0.0
23.708,-0.187,-0.694,0.0
21.327,-0.167,-0.734,0.0
19.253,-0.15,-0.762,0.0
40.778,-0.313,-0.474,0.0
0.0,0.0,0.0,0.0
0.0,0.0,0.0,0.0
24.993,-0.188,-0.679,0.0
22.448,-0.167,-0.726,0.0
20.052,-0.148,-0.752,0.0
45.066,-0.328,-0.431,0.0
0.0,0.0,0.0,0.0
30.197,-0.216,-0.599,0.0
26.362,-0.187,-0.662,0.0
23.307,-0.163,-0.705,0.0
20.843,-0.145,-0.738,0.0
0.0,0.0,0.0,0.0
0.0,0.0,0.0,0.0
32.782,-0.219,-0.583,0.0
28.419,-0.188,-0.655,0.0
24.641,-0.161,-0.695,0.0
21.652,-0.14,-0.722,0.0
51.466,-0.327,-0.28,0.0
0.0,0.0,0.0,0.0
0.0,0.0,0.0,0.0
29.803,-0.183,-0.625,0.0
25.767,-0.156,-0.673,0.0
22.92,-0.136,-0.717,0.0
0.0,0.0,0.0,0.0
42.1,-0.242,-0.359,0.0
0.0,0.0,0.0,0.0
31.368,-0.175,-0.594,0.0
27.444,-0.151,-0.661,0.0
24.144,-0.131,-0.706,0.0
0.0,0.0,0.0,0.0
51.25,-0.267,-0.332,0.0
0.0,0.0,0.0,0.0
0.0,0.0,0.0,0.0
29.21,-0.144,-0.643,0.0
25.26,-0.122,-0.686,0.0
0.0,0.0,0.0,0.0
51.673,-0.237,-0.227,0.0
45.67,-0.205,-0.436,0.0
36.521,-0.16,-0.541,0.0
30.577,-0.131,-0.611,0.0
26.5,-0.111,-0.666,0.0
0.0,0.0,0.0,0.0
0.0,0.0,0.0,0.0
0.0,0.0,0.0,0.0
0.0,0.0,0.0,0.0
32.536,-0.118,-0.583,0.0
0.0,0.0,0.0,0.0
111.164,-0.379,0.535,2.0
0.0,0.0,0.0,0.0
51.545,-0.164,-0.283,0.0
43.276,-0.132,-0.465,0.0
35.424,-0.104,-0.563,0.0
0.0,0.0,0.0,0.0
114.438,-0.31,0.783,33.0
0.0,0.0,0.0,0.0
0.0,0.0,0.0,0.0
45.27,-0.106,-0.395,1.0
0.0,0.0,0.0,0.0
0.0,0.0,0.0,0.0
114.5,-0.225,1.013,38.0
84.344,-0.155,0.312,2.0
0.0,0.0,0.0,0.0
0.0,0.0,0.0,0.0
41.287,-0.059,-0.49,0.0
34.292,-0.045,-0.584,0.0
117.474,-0.139,1.278,15.0
110.628,-0.116,0.633,9.0
0.0,0.0,0.0,0.0
51.633,-0.04,-0.243,0.0
45.005,-0.029,-0.444,2.0
0.0,0.0,0.0,0.0
117.293,-0.045,1.508,12.0
111.136,-0.027,0.854,8.0
95.497,-0.01,0.24,1.0
0.0,0.0,0.0,0.0
49.697,0.008,-0.392,0.0
0.0,0.0,0.0,0.0
117.317,0.053,1.74,10.0
111.158,0.067,1.075,13.0
103.726,0.078,0.467,2.0
0.0,0.0,0.0,0.0
0.0,0.0,0.0,0.0
42.83,0.051,-0.475,1.0
117.414,0.157,1.974,19.0
111.14,0.165,1.293,23.0
110.675,0.182,0.715,8.0
92.919,0.167,0.11,1.0
0.0,0.0,0.0,0.0
45.252,0.095,-0.415,0.0
119.851,0.27,2.248,23.0
111.154,0.267,1.509,15.0
111.112,0.285,0.932,17.0
94.583,0.257,0.293,1.0
0.0,0.0,0.0,0.0
50.038,0.152,-0.362,0.0
119.869,0.383,2.479,4.0
119.876,0.402,1.856,150.0
119.753,0.42,1.233,14.0
104.119,0.382,0.52,4.0
0.0,0.0,0.0,0.0
52.445,0.21,-0.28,0.0
194.621,0.813,4.399,17.0
111.161,0.483,1.935,11.0
111.123,0.501,1.357,28.0
110.858,0.519,0.767,7.0
87.945,0.426,0.152,3.0
55.18,0.277,-0.191,0.0
111.124,0.575,2.72,21.0
111.072,0.594,2.142,24.0
111.068,0.613,1.563,29.0
111.039,0.633,0.975,20.0
96.848,0.568,0.346,1.0
0.0,0.0,0.0,0.0
111.052,0.69,2.925,29.0
111.052,0.71,2.347,26.0
111.08,0.731,1.771,24.0
111.043,0.751,1.182,7.0
98.062,0.681,0.534,8.0
85.487,0.609,0.022,2.0
104.817,0.765,2.956,23.0
104.807,0.784,2.41,26.0
104.806,0.804,1.865,7.0
0.0,0.0,0.0,0.0
104.754,0.842,0.762,14.0
85.269,0.702,0.177,3.0
104.699,0.88,3.145,32.0
104.729,0.9,2.6,28.0
101.439,0.892,1.99,1.0
100.042,0.899,1.432,4.0
98.7,0.906,0.899,15.0
91.35,0.855,0.355,5.0
69.777,0.666,2.223,12.0
104.739,1.02,2.79,18.0
104.776,1.041,2.244,9.0
98.682,0.999,1.588,23.0
98.618,1.019,1.074,29.0
98.235,1.035,0.558,9.0
69.623,0.746,2.342,11.0
98.69,1.077,2.804,24.0
98.603,1.096,2.288,25.0
98.561,1.115,1.761,28.0
98.543,1.134,1.246,32.0
98.427,1.153,0.731,15.0
69.84,0.832,2.473,9.0
98.605,1.195,2.975,29.0
98.561,1.214,2.458,31.0
98.535,1.233,1.931,32.0
98.471,1.252,1.415,29.0
98.545,1.274,0.902,29.0
98.33,1.291,3.652,17.0
98.412,1.312,3.138,24.0
98.491,1.334,2.626,32.0
98.589,1.356,2.102,31.0
98.593,1.377,1.586,31.0
98.607,1.398,1.071,28.0
69.944,1.005,2.717,8.0
69.985,1.02,2.35,6.0
98.536,1.458,2.794,26.0
119.902,1.801,2.76,13.0
99.309,1.513,1.766,13.0
92.004,1.421,1.153,27.0
120.364,1.885,4.878,13.0
70.058,1.112,2.472,9.0
119.908,1.93,3.601,9.0
91.951,1.499,2.268,18.0
91.903,1.519,1.786,37.0
91.89,1.54,1.304,37.0
78.722,1.335,3.32,15.0
120.705,2.074,4.457,9.0
91.975,1.6,2.913,18.0
91.818,1.618,2.416,32.0
91.834,1.639,1.934,34.0
91.841,1.661,1.452,22.0
91.505,1.674,4.009,19.0
70.267,1.302,2.709,11.0
91.797,1.72,3.055,31.0
91.778,1.74,2.562,27.0
89.337,1.715,2.024,1.0
87.378,1.698,1.522,18.0
85.46,1.68,3.881,20.0
78.809,1.566,3.163,17.0
91.707,1.844,3.198,24.0
91.855,1.868,2.71,33.0
85.386,1.756,2.069,15.0
85.378,1.775,1.619,29.0
85.321,1.794,4.007,25.0
85.322,1.813,3.557,24.0
85.285,1.832,3.105,30.0
85.263,1.85,2.645,36.0
85.251,1.87,2.195,41.0
85.243,1.89,1.745,35.0
85.315,1.912,4.137,31.0
85.295,1.931,3.685,34.0
78.891,1.804,2.991,19.0
85.253,1.97,2.773,34.0
85.254,1.99,2.323,33.0
85.262,2.01,1.872,37.0
85.373,2.034,4.268,15.0
85.424,2.056,3.818,9.0
85.39,2.075,3.364,21.0
78.882,1.936,2.682,26.0
85.34,2.115,2.451,22.0
85.341,2.135,2.0,9.0
78.853,1.993,4.059,21.0
78.852,2.012,3.64,26.0
78.84,2.031,3.222,32.0
78.806,2.049,2.795,30.0
78.892,2.07,2.379,29.0
78.866,2.088,1.961,30.0
78.807,2.107,4.169,25.0
78.806,2.126,3.75,31.0
78.806,2.145,3.332,36.0
78.796,2.163,2.905,32.0
78.837,2.184,2.488,32.0
78.799,2.202,2.069,11.0
79.403,2.241,4.312,9.0
79.232,2.255,3.881,10.0
79.313,2.276,3.463,10.0
78.813,2.281,3.014,9.0
78.846,2.301,2.595,24.0
78.886,2.322,2.178,21.0
81.059,2.409,4.513,7.0
65.493,1.962,3.297,5.0
116.117,3.507,5.226,9.0
78.763,2.399,3.118,7.0
78.866,2.422,2.703,7.0
206.549,6.394,5.981,4.0
72.163,2.255,4.114,29.0
72.707,2.29,3.757,9.0
72.494,2.301,3.359,19.0
72.53,2.32,2.966,17.0
72.52,2.337,2.579,18.0
72.507,2.355,2.193,26.0
72.55,2.378,4.23,15.0
72.277,2.387,3.828,28.0
72.375,2.409,3.446,33.0
72.4,2.427,3.054,39.0
72.409,2.446,2.668,37.0
72.402,2.464,2.281,33.0
71.846,2.467,4.28,9.0
72.203,2.498,3.915,27.0
72.331,2.519,3.534,24.0
72.393,2.54,3.143,38.0
72.4,2.558,2.756,34.0
72.408,2.576,2.369,30.0
65.765,2.361,3.998,23.0
66.313,2.397,3.675,24.0
66.284,2.413,3.318,27.0
72.49,2.656,3.233,31.0
72.587,2.678,2.849,9.0
190.758,7.089,6.468,19.0
65.937,2.471,4.087,9.0
66.298,2.502,3.753,14.0
66.201,2.515,3.393,23.0
66.212,2.532,3.03,23.0
66.206,2.548,2.675,24.0
190.773,7.392,6.688,25.0
44.669,1.745,2.82,9.0
65.738,2.585,3.796,41.0
78.562,3.109,4.115,10.0
52.84,2.105,2.478,8.0
66.12,2.65,2.746,23.0
66.107,2.667,2.39,24.0
41.113,1.672,2.641,39.0
64.836,2.654,3.816,20.0
65.677,2.705,3.512,41.0
65.929,2.732,3.164,10.0
52.871,2.205,2.253,21.0
66.022,2.77,2.458,29.0
41.052,1.737,2.682,45.0
41.988,1.787,2.516,26.0
65.641,2.81,3.579,19.0
65.973,2.841,3.235,17.0
65.98,2.858,2.88,8.0
66.024,2.877,2.527,17.0
41.039,1.803,2.723,36.0
41.648,1.84,2.538,16.0
52.96,2.353,2.942,13.0
52.828,2.361,2.643,5.0
52.769,2.371,2.356,25.0
52.795,2.386,2.072,19.0
40.978,1.867,2.76,30.0
41.092,1.883,2.545,43.0
52.967,2.44,2.994,5.0
52.847,2.448,2.696,10.0
52.539,2.447,2.396,12.0
106.169,4.973,4.268,10.0
40.821,1.927,2.788,45.0
41.031,1.947,2.58,42.0
41.647,1.987,2.393,42.0
59.448,2.851,3.088,13.0
59.455,2.866,2.765,23.0
52.515,2.545,2.159,21.0
40.853,1.995,2.827,42.0
40.995,2.013,2.614,48.0
41.671,2.056,2.431,22.0
52.469,2.602,2.771,7.0
52.645,2.625,2.495,25.0
59.445,2.979,2.495,16.0
40.787,2.06,2.859,40.0
41.043,2.083,2.653,40.0
41.612,2.123,2.463,27.0
52.418,2.687,2.813,18.0
59.38,3.059,2.864,6.0
59.419,3.077,2.544,18.0
40.839,2.131,2.896,46.0
40.928,2.145,2.679,46.0
40.983,2.158,2.46,37.0
59.35,3.141,3.233,11.0
59.36,3.157,2.911,18.0
59.412,3.174,2.591,13.0
40.856,2.2,2.93,41.0
40.876,2.211,2.708,46.0
41.001,2.227,2.493,43.0
41.901,2.286,2.314,13.0
52.459,2.876,2.612,25.0
52.775,2.907,2.34,7.0
41.275,2.291,2.991,38.0
40.926,2.281,2.741,41.0
41.094,2.3,2.528,37.0
41.752,2.348,2.336,29.0
52.234,2.95,2.638,24.0
52.58,2.983,2.369,19.0
41.17,2.354,3.012,44.0
41.013,2.354,2.776,41.0
41.232,2.377,2.565,21.0
41.689,2.414,2.361,37.0
52.465,3.051,2.685,17.0
115.481,6.745,5.28,5.0
41.447,2.439,3.06,41.0
41.5,2.451,2.836,42.0
41.495,2.461,2.608,29.0
41.698,2.484,2.388,30.0
41.63,2.49,2.156,8.0
115.385,6.93,5.347,15.0
41.285,2.498,3.074,38.0
41.749,2.536,2.879,19.0
41.456,2.528,2.631,30.0
41.557,2.544,2.405,37.0
79.665,4.898,4.175,9.0
90.379,5.578,4.242,6.0
41.543,2.583,3.117,32.0
41.844,2.612,2.91,26.0
41.525,2.602,2.659,42.0
41.493,2.61,2.425,41.0
52.284,3.301,2.768,18.0
52.365,3.319,2.486,29.0
51.143,3.266,3.866,7.0
41.69,2.672,2.921,32.0
41.595,2.676,2.685,39.0
41.627,2.687,2.454,33.0
52.255,3.386,2.794,41.0
52.268,3.4,2.507,42.0
41.996,2.751,3.195,11.0
52.278,3.437,3.689,10.0
41.474,2.736,2.697,42.0
41.566,2.752,2.47,39.0
52.254,3.472,2.818,32.0
52.238,3.484,2.53,36.0
41.923,2.816,3.209,26.0
42.164,2.842,2.994,13.0
41.518,2.808,2.719,40.0
41.617,2.824,2.491,42.0
52.298,3.561,2.842,24.0
52.268,3.572,2.553,20.0
41.877,2.882,3.222,34.0
42.176,2.912,3.012,17.0
41.699,2.888,2.747,32.0
41.553,2.888,2.504,45.0
52.377,3.652,2.866,11.0
52.404,3.667,2.579,7.0
41.81,2.946,3.233,35.0
41.676,2.945,2.991,36.0
41.751,2.96,2.765,37.0
41.592,2.958,2.52,40.0
80.384,5.735,4.426,9.0
90.48,6.477,4.483,9.0
41.59,2.998,3.23,39.0
41.698,3.015,3.006,35.0
41.795,3.031,2.781,38.0
80.852,5.881,4.924,14.0
73.956,5.396,4.094,7.0
90.895,6.653,4.53,12.0
41.623,3.068,3.244,36.0
41.705,3.083,3.018,31.0
45.973,3.408,3.072,27.0
81.737,6.078,5.0,22.0
79.236,5.91,4.407,13.0
91.552,6.85,4.585,10.0
41.571,3.131,3.25,40.0
41.698,3.15,3.028,39.0
45.936,3.48,3.08,27.0
45.974,3.493,2.822,11.0
79.538,6.061,4.441,18.0
91.398,6.985,4.596,16.0
41.718,3.21,3.27,21.0
41.669,3.215,3.033,51.0
45.94,3.554,3.088,6.0
45.909,3.562,2.826,16.0
45.958,3.575,2.574,30.0
45.928,3.583,2.317,25.0
41.668,3.272,3.273,32.0
41.671,3.281,3.04,43.0
45.947,3.627,3.096,6.0
45.817,3.627,2.827,24.0
45.851,3.639,2.574,17.0
45.839,3.649,2.318,34.0
41.548,3.329,3.268,37.0
41.703,3.35,3.047,46.0
41.79,3.365,2.82,34.0
45.752,3.693,2.827,45.0
45.809,3.707,2.575,43.0
45.809,3.717,2.32,41.0
41.496,3.39,3.267,36.0
41.797,3.423,3.057,34.0
41.762,3.428,2.821,38.0
45.735,3.763,2.829,40.0
45.782,3.776,2.576,40.0
45.809,3.788,2.322,39.0
41.385,3.444,3.26,38.0
45.659,3.809,3.341,4.0
41.833,3.498,2.826,34.0
45.744,3.834,2.83,36.0
45.822,3.85,2.579,36.0
45.826,3.86,2.323,35.0
41.412,3.51,3.262,43.0
41.655,3.539,3.047,32.0
41.685,3.55,2.815,22.0
45.789,3.908,2.832,28.0
45.871,3.924,2.58,25.0
45.962,3.941,2.328,4.0
41.443,3.575,3.263,29.0
41.667,3.603,3.045,26.0
45.795,3.968,3.09,8.0
45.845,3.982,2.832,34.0
85.403,7.434,4.798,14.0
85.98,7.502,4.349,21.0
41.493,3.642,3.262,37.0
41.585,3.658,3.036,41.0
41.734,3.678,2.812,35.0
73.159,6.462,4.511,11.0
84.629,7.491,4.744,37.0
85.555,7.59,4.316,24.0
41.657,3.717,3.27,18.0
41.537,3.714,3.027,41.0
41.71,3.737,2.805,26.0
72.711,6.528,4.473,19.0
84.911,7.639,4.747,29.0
85.541,7.711,4.303,29.0
41.536,3.767,3.254,42.0
41.543,3.774,3.02,39.0
44.575,4.057,2.989,6.0
72.552,6.617,4.45,13.0
84.677,7.739,4.718,29.0
85.57,7.837,4.287,37.0
41.498,3.823,3.242,39.0
41.554,3.834,3.012,39.0
44.571,4.121,2.979,40.0
44.585,4.13,2.725,6.0
84.544,7.847,4.69,33.0
85.654,7.965,4.271,20.0
41.47,3.879,3.23,43.0
55.149,5.167,3.984,23.0
44.34,4.162,2.952,19.0
72.895,6.854,4.435,19.0
73.686,6.942,4.069,28.0
92.154,8.697,4.57,14.0
41.498,3.939,3.22,41.0
44.344,4.216,3.19,20.0
43.39,4.132,2.876,40.0
72.72,6.937,4.403,33.0
73.171,6.992,4.018,27.0
91.47,8.757,4.508,17.0
41.593,4.004,3.214,41.0
44.373,4.279,3.178,6.0
43.362,4.188,2.86,18.0
72.789,7.042,4.383,36.0
72.94,7.069,3.979,37.0
90.745,8.809,4.44,14.0
42.009,4.1,3.231,31.0
44.408,4.341,3.164,5.0
42.911,4.201,2.814,14.0
72.824,7.142,4.357,30.0
73.11,7.182,3.961,26.0
88.562,8.714,4.299,14.0
42.155,4.17,3.226,26.0
42.629,4.223,3.02,17.0
42.844,4.251,2.792,8.0
73.065,7.261,4.341,31.0
73.178,7.283,3.934,17.0
88.543,8.827,4.259,34.0
42.324,4.241,3.22,29.0
42.799,4.295,3.013,29.0
44.729,4.495,2.895,5.0
73.42,7.389,4.329,15.0
88.543,8.924,4.719,37.0
88.551,8.938,4.22,39.0
42.785,4.341,3.235,15.0
42.905,4.359,3.0,27.0
44.735,4.551,2.874,11.0
88.499,9.016,5.176,23.0
88.457,9.024,4.672,28.0
88.347,9.027,4.165,21.0
44.197,4.538,3.32,40.0
43.15,4.436,2.996,18.0
44.692,4.601,2.848,3.0
88.088,9.08,5.105,21.0
87.918,9.075,4.598,24.0
87.821,9.078,4.094,20.0
0.0,0.0,0.0,0.0
42.891,4.461,2.954,29.0
42.706,4.447,2.698,14.0
87.499,9.122,5.023,23.0
87.442,9.128,4.523,21.0
87.296,9.125,4.022,19.0
0.0,0.0,0.0,0.0
42.898,4.51,2.93,17.0
58.298,6.137,3.65,17.0
87.023,9.171,4.946,23.0
86.914,9.171,4.445,25.0
86.894,9.181,3.951,11.0
44.327,4.705,3.253,17.0
0.0,0.0,0.0,0.0
42.79,4.552,2.653,6.0
84.138,8.961,4.729,51.0
84.121,8.97,4.25,62.0
84.124,8.981,3.772,51.0
44.438,4.766,3.233,13.0
43.016,4.618,2.884,30.0
42.69,4.588,2.619,20.0
84.118,9.05,4.673,20.0
84.188,9.068,4.198,21.0
84.264,9.086,3.723,19.0
44.457,4.815,3.205,25.0
42.971,4.658,2.852,22.0
42.526,4.614,2.58,35.0
84.085,9.134,4.614,12.0
84.073,9.142,4.135,13.0
84.037,9.148,3.655,14.0
44.183,4.83,3.154,33.0
44.526,4.872,2.924,33.0
42.707,4.677,2.561,35.0
84.061,9.215,4.553,15.0
84.054,9.224,4.074,21.0
84.046,9.233,3.595,17.0
44.265,4.883,3.127,34.0
42.423,4.684,2.754,17.0
84.068,9.289,4.979,20.0
84.052,9.296,4.49,17.0
84.049,9.305,4.01,24.0
84.062,9.315,3.533,12.0
44.26,4.925,3.093,37.0
44.627,4.969,2.864,19.0
84.063,9.369,4.913,20.0
54.675,6.099,2.878,18.0
84.078,9.387,3.946,27.0
84.087,9.397,3.467,2.0
44.4,4.981,3.067,29.0
44.539,5.0,2.822,20.0
54.701,6.146,3.154,22.0
54.678,6.148,2.835,13.0
83.864,9.438,3.869,24.0
82.278,9.267,3.327,2.0
44.359,5.015,3.029,22.0
44.565,5.042,2.787,8.0
83.64,9.469,4.754,14.0
83.571,9.468,4.263,22.0
83.552,9.473,3.786,24.0
81.899,9.293,3.245,3.0
44.359,5.052,2.991,31.0
54.698,6.233,3.375,2.0
83.293,9.499,4.663,17.0
83.247,9.5,4.176,18.0
83.208,9.503,3.699,22.0
81.602,9.326,3.162,4.0
44.552,5.11,2.965,32.0
83.034,9.529,5.051,15.0
82.976,9.528,4.572,21.0
82.897,9.525,4.085,15.0
82.845,9.526,3.609,10.0
81.229,9.347,3.075,10.0
54.868,6.335,3.603,7.0
54.847,6.336,3.287,15.0
54.626,6.314,2.96,8.0
82.61,9.554,3.996,15.0
67.764,7.842,2.89,7.0
67.731,7.843,2.503,10.0
44.596,5.181,2.887,7.0
54.729,6.361,3.229,16.0
67.641,7.866,3.604,9.0
67.534,7.858,3.204,12.0
66.451,7.736,2.773,14.0
66.348,7.729,2.389,24.0
67.414,7.878,4.301,9.0
54.755,6.401,3.179,28.0
66.321,7.757,3.47,30.0
66.295,7.758,3.082,42.0
66.301,7.762,2.704,53.0
66.306,7.767,2.325,62.0
54.171,6.365,3.403,27.0
54.701,6.429,3.122,23.0
66.294,7.795,3.404,60.0
66.281,7.797,3.017,65.0
66.297,7.803,2.638,69.0
66.293,7.807,2.258,63.0
54.534,6.44,3.372,29.0
66.256,7.827,3.717,22.0
66.281,7.832,3.338,59.0
66.292,7.837,2.952,50.0
66.304,7.842,2.572,44.0
66.314,7.847,2.193,27.0
54.124,6.421,3.292,29.0
66.281,7.866,3.652,14.0
66.304,7.871,3.272,37.0
66.336,7.877,2.887,30.0
66.433,7.892,2.511,22.0
66.455,7.898,2.131,18.0
54.09,6.444,3.235,27.0
54.467,6.491,2.945,16.0
66.457,7.922,3.212,17.0
66.446,7.923,2.823,17.0
66.419,7.923,2.441,17.0
66.355,7.918,2.059,15.0
54.167,6.479,3.183,26.0
66.4,7.944,3.52,13.0
66.353,7.939,3.137,15.0
66.284,7.933,2.747,16.0
66.237,7.93,2.365,18.0
66.178,7.926,1.984,17.0
54.423,6.532,3.14,15.0
66.245,7.952,3.442,13.0
66.192,7.947,3.059,14.0
66.131,7.942,2.669,16.0
66.086,7.938,2.289,15.0
66.024,7.933,1.909,14.0
54.479,6.56,3.084,13.0
66.101,7.96,3.363,13.0
66.052,7.955,2.981,13.0
65.985,7.948,2.593,17.0
65.939,7.944,2.213,14.0
65.885,7.94,1.834,14.0
66.023,7.972,3.666,12.0
65.976,7.966,3.285,12.0
65.897,7.957,2.902,14.0
65.867,7.954,2.517,16.0
65.827,7.951,2.137,14.0
65.759,7.944,1.759,15.0
65.912,7.977,3.588,10.0
65.874,7.972,3.206,13.0
65.814,7.965,2.826,14.0
65.748,7.958,2.439,15.0
65.708,7.954,2.06,14.0
65.661,7.95,1.683,15.0
65.833,7.983,3.509,14.0
65.76,7.974,3.128,11.0
65.717,7.969,2.748,13.0
65.67,7.963,2.363,15.0
65.593,7.954,1.984,15.0
65.576,7.953,1.608,16.0
65.72,7.982,3.43,15.0
65.684,7.977,3.05,14.0
65.652,7.973,2.671,13.0
65.594,7.966,2.286,16.0
65.549,7.961,1.909,15.0
65.492,7.954,1.531,15.0
65.657,7.985,3.352,12.0
65.656,7.983,2.974,14.0
65.597,7.975,2.595,16.0
65.542,7.968,2.209,15.0
65.495,7.963,1.832,15.0
65.445,7.957,1.456,14.0
65.613,7.986,3.274,13.0
65.605,7.984,2.896,12.0
65.561,7.977,2.517,16.0
65.482,7.967,2.131,17.0
65.478,7.966,1.756,18.0
65.385,7.955,1.378,15.0
65.572,7.985,3.195,11.0
65.535,7.979,2.816,12.0
65.513,7.975,2.44,15.0
65.477,7.969,2.056,16.0
65.439,7.964,1.679,18.0
65.414,7.961,1.302,15.0
65.582,7.987,3.119,11.0
65.531,7.979,2.74,11.0
65.504,7.974,2.362,15.0
65.458,7.967,1.978,14.0
65.431,7.962,1.602,16.0
65.39,7.956,1.226,16.0
65.571,7.984,3.041,11.0
65.554,7.979,2.664,15.0
65.511,7.971,2.286,15.0
65.466,7.965,1.902,15.0
65.442,7.96,1.526,16.0
65.417,7.956,1.15,14.0
65.611,7.983,2.966,13.0
65.581,7.977,2.588,18.0
65.559,7.972,2.211,15.0
65.495,7.962,1.826,17.0
65.492,7.96,1.45,16.0
65.425,7.95,1.073,14.0
65.64,7.979,2.89,14.0
65.638,7.975,2.512,17.0
65.581,7.965,2.133,15.0
65.551,7.959,1.749,16.0
65.528,7.954,1.373,15.0
65.504,7.95,0.997,15.0
65.702,7.975,2.814,14.0
65.68,7.969,2.436,15.0
65.673,7.964,2.058,16.0
65.609,7.954,1.673,16.0
65.586,7.949,1.296,16.0
65.558,7.943,0.92,14.0
65.775,7.969,2.739,13.0
65.752,7.963,2.36,14.0
65.73,7.956,1.982,15.0
65.697,7.949,1.597,17.0
65.669,7.943,1.221,15.0
65.683,7.942,0.844,15.0
65.883,7.965,2.666,16.0
65.863,7.958,2.286,14.0
65.832,7.951,1.908,15.0
65.828,7.947,1.523,17.0
65.802,7.941,1.145,14.0
65.763,7.933,0.767,14.0
65.985,7.957,2.591,16.0
65.964,7.949,2.211,14.0
65.94,7.943,1.831,16.0
65.926,7.937,1.446,16.0
65.903,7.931,1.069,16.0
65.906,7.928,0.69,15.0
66.097,7.947,2.516,16.0
66.105,7.943,2.137,15.0
66.099,7.938,1.758,16.0
66.038,7.926,1.371,16.0
66.029,7.921,0.992,15.0
66.02,7.916,0.614,15.0
66.264,7.94,2.444,16.0
66.234,7.931,2.063,16.0
66.229,7.925,1.682,17.0
66.199,7.918,1.295,15.0
66.212,7.915,0.917,16.0
66.196,7.909,0.537,17.0
66.429,7.93,2.371,17.0
66.388,7.92,1.989,14.0
66.382,7.913,1.608,16.0
66.39,7.909,1.221,16.0
66.381,7.904,0.84,15.0
66.348,7.896,0.46,15.0
66.413,7.895,2.292,22.0
66.462,7.895,1.912,19.0
66.48,7.891,1.532,17.0
66.465,7.884,1.143,17.0
66.492,7.883,0.763,15.0
66.531,7.883,0.383,14.0
66.321,7.848,2.211,40.0
66.321,7.842,1.83,42.0
66.312,7.835,1.45,41.0
66.325,7.831,1.064,36.0
66.345,7.828,0.684,33.0
66.358,7.824,0.304,27.0
66.295,7.807,2.131,65.0
66.308,7.801,1.752,64.0
66.312,7.795,1.372,84.0
66.328,7.791,0.987,78.0
66.331,7.786,0.606,65.0
66.326,7.78,0.227,63.0
66.317,7.768,2.056,58.0
66.322,7.761,1.676,56.0
66.321,7.754,1.296,60.0
66.331,7.749,0.909,56.0
66.336,7.744,0.53,58.0
66.334,7.738,0.151,65.0
66.394,7.731,1.982,20.0
66.385,7.723,1.601,23.0
66.366,7.714,1.221,23.0
66.377,7.708,0.835,27.0
66.368,7.702,0.455,25.0
66.387,7.697,0.075,25.0
67.757,7.842,1.945,8.0
67.747,7.833,1.557,8.0
67.755,7.826,1.169,11.0
67.753,7.819,0.775,9.0
67.777,7.815,0.387,9.0
64.514,7.432,0.0,5.0
81.416,9.361,2.245,12.0
81.417,9.35,1.779,11.0
81.434,9.344,1.314,10.0
81.436,9.334,0.84,10.0
81.413,9.323,0.375,9.0
67.079,7.675,-0.075,10.0
81.738,9.332,2.161,12.0
81.713,9.318,1.693,11.0
81.721,9.309,1.227,11.0
81.756,9.304,0.752,11.0
80.752,9.181,0.281,12.0
60.179,6.835,-0.134,0.0
82.063,9.298,2.079,11.0
82.075,9.289,1.61,11.0
82.075,9.279,1.141,10.0
82.079,9.269,0.663,11.0
80.649,9.098,0.191,15.0
45.492,5.127,-0.151,6.0
82.41,9.264,1.996,12.0
82.442,9.256,1.526,12.0
82.46,9.247,1.056,11.0
82.41,9.231,0.576,9.0
80.619,9.021,0.103,12.0
45.49,5.085,-0.2,4.0
82.793,9.23,1.916,11.0
82.814,9.22,1.443,11.0
82.855,9.213,0.972,10.0
79.876,8.872,0.473,11.0
80.897,8.975,0.018,7.0
0.0,0.0,0.0,0.0
83.197,9.193,1.837,11.0
83.231,9.185,1.363,11.0
83.238,9.174,0.889,9.0
79.91,8.796,0.389,11.0
65.706,7.224,-0.055,3.0
40.474,4.445,-0.264,16.0
83.63,9.156,1.759,7.0
83.629,9.143,1.282,10.0
83.681,9.136,0.805,5.0
83.703,9.127,0.32,5.0
52.252,5.69,-0.097,2.0
39.983,4.349,-0.303,27.0
84.082,9.116,1.681,10.0
84.104,9.105,1.202,8.0
84.117,9.094,0.722,8.0
84.104,9.08,0.234,9.0
45.806,4.938,-0.132,4.0
39.492,4.252,-0.339,27.0
84.205,9.037,1.598,30.0
84.196,9.022,1.118,37.0
84.183,9.007,0.638,41.0
84.178,8.993,0.151,23.0
45.629,4.868,-0.178,6.0
39.307,4.188,-0.377,14.0
84.163,8.935,1.513,52.0
84.163,8.921,1.034,62.0
84.173,8.909,0.554,67.0
84.143,8.892,0.067,13.0
0.0,0.0,0.0,0.0
39.06,4.116,-0.413,8.0
85.501,8.977,1.453,10.0
85.541,8.967,0.967,11.0
85.596,8.959,0.482,10.0
70.43,7.36,-0.01,3.0
40.843,4.262,-0.238,15.0
39.043,4.068,-0.45,7.0
86.026,8.928,1.381,12.0
86.042,8.915,0.892,11.0
86.099,8.906,0.404,9.0
69.788,7.207,-0.076,4.0
40.327,4.158,-0.273,15.0
39.086,4.024,-0.487,8.0
86.566,8.876,1.309,11.0
86.613,8.864,0.817,10.0
86.695,8.857,0.325,11.0
45.687,4.66,-0.092,11.0
39.857,4.058,-0.306,26.0
39.133,3.979,-0.523,5.0
87.179,8.826,1.238,11.0
87.175,8.809,0.744,11.0
87.161,8.792,0.248,10.0
45.272,4.559,-0.131,20.0
39.624,3.983,-0.34,21.0
39.16,3.93,-0.558,1.0
87.757,8.769,1.169,11.0
87.795,8.756,0.673,11.0
86.243,8.585,0.17,11.0
43.645,4.336,-0.165,18.0
39.474,3.915,-0.373,14.0
34.163,3.382,-0.516,1.0
88.395,8.711,1.101,11.0
88.464,8.7,0.6,12.0
88.03,8.641,0.099,8.0
43.08,4.22,-0.2,18.0
39.314,3.844,-0.405,8.0
34.281,3.346,-0.547,1.0
89.058,8.651,1.034,12.0
89.103,8.638,0.53,11.0
73.328,7.094,0.021,4.0
0.0,0.0,0.0,0.0
39.361,3.793,-0.438,8.0
34.431,3.311,-0.578,0.0
89.724,8.587,0.969,12.0
89.78,8.574,0.461,10.0
45.579,4.344,-0.023,10.0
41.347,3.932,-0.259,16.0
39.417,3.741,-0.47,8.0
31.745,3.007,-0.558,1.0
90.466,8.525,0.905,11.0
90.479,8.507,0.394,8.0
45.447,4.264,-0.058,17.0
40.516,3.793,-0.285,16.0
39.491,3.689,-0.501,3.0
31.276,2.915,-0.574,0.0
91.159,8.455,0.844,10.0
91.208,8.439,0.329,12.0
45.251,4.177,-0.092,19.0
40.32,3.714,-0.314,16.0
39.518,3.631,-0.531,1.0
30.752,2.82,-0.587,0.0
91.946,8.386,0.783,10.0
45.688,4.156,0.131,15.0
45.047,4.088,-0.124,19.0
40.063,3.627,-0.341,15.0
36.141,3.265,-0.511,1.0
29.986,2.703,-0.593,0.0
92.768,8.315,0.725,11.0
45.66,4.082,0.099,13.0
44.551,3.973,-0.154,19.0
39.889,3.548,-0.367,11.0
36.226,3.215,-0.537,0.0
29.228,2.587,-0.598,0.0
93.175,8.202,0.664,16.0
45.694,4.011,0.068,15.0
44.209,3.871,-0.182,19.0
39.866,3.482,-0.393,6.0
33.615,2.929,-0.521,0.0
28.808,2.504,-0.608,0.0
45.782,3.955,0.297,17.0
45.54,3.924,0.039,19.0
43.803,3.765,-0.208,19.0
39.937,3.423,-0.418,10.0
33.518,2.865,-0.54,1.0
28.37,2.419,-0.617,0.0
45.737,3.876,0.269,25.0
45.447,3.84,0.011,19.0
0.0,0.0,0.0,0.0
