X,Y,Z,Reflectivity
33.095,-3.516,-0.147,81.0
33.064,-3.505,-0.325,66.0
33.155,-3.515,0.599,74.0
33.154,-3.506,0.42,74.0
33.136,-3.495,0.241,70.0
33.113,-3.484,0.06,69.0
33.099,-3.474,-0.118,73.0
33.075,-3.464,-0.296,68.0
104.783,-10.976,1.986,4.0
114.08,-11.918,1.547,9.0
33.123,-3.451,0.271,0.0
33.108,-3.441,0.089,2.0
33.124,-3.434,-0.089,12.0
33.114,-3.425,-0.268,45.0
104.514,-10.812,2.071,12.0
104.688,-10.801,1.508,12.0
104.484,-10.751,0.942,5.0
78.972,-8.105,0.279,5.0
46.287,-4.738,-0.086,21.0
38.44,-3.924,-0.278,21.0
135.39,-13.825,2.795,33.0
135.395,-13.788,2.064,151.0
111.451,-11.319,1.096,3.0
81.384,-8.242,0.353,9.0
47.732,-4.82,-0.05,22.0
38.993,-3.928,-0.251,14.0
78.661,-7.925,1.687,17.0
135.432,-13.605,2.173,150.0
105.096,-10.527,1.119,7.0
80.063,-7.997,0.412,7.0
48.689,-4.849,-0.012,20.0
41.02,-4.074,-0.232,16.0
78.743,-7.823,1.75,22.0
135.494,-13.42,2.279,118.0
111.451,-11.005,1.272,10.0
84.897,-8.358,0.501,10.0
50.714,-4.979,0.025,16.0
0.0,0.0,0.0,0.0
135.473,-13.263,3.113,35.0
135.512,-13.226,2.382,141.0
115.113,-11.201,1.399,5.0
85.501,-8.294,0.567,14.0
51.246,-4.956,0.063,5.0
44.09,-4.252,-0.184,19.0
78.374,-7.558,1.857,7.0
119.187,-11.458,2.179,9.0
119.095,-11.413,1.532,8.0
85.858,-8.202,0.63,8.0
55.456,-5.281,0.106,2.0
45.467,-4.316,-0.158,20.0
119.174,-11.314,2.907,6.0
193.274,-18.291,3.667,19.0
119.12,-11.235,1.614,17.0
87.41,-8.217,0.702,5.0
67.22,-6.299,0.174,2.0
47.007,-4.391,-0.132,21.0
193.374,-18.064,4.846,22.0
135.544,-12.617,2.661,150.0
135.576,-12.577,1.926,150.0
111.086,-10.271,0.964,6.0
71.908,-6.627,0.233,7.0
0.0,0.0,0.0,0.0
119.256,-10.954,3.064,13.0
126.41,-11.569,2.561,16.0
135.61,-12.368,2.01,146.0
111.451,-10.13,1.036,8.0
80.709,-7.31,0.311,4.0
0.0,0.0,0.0,0.0
75.547,-6.82,1.986,16.0
72.769,-6.544,1.517,11.0
135.634,-12.154,2.091,118.0
112.848,-10.077,1.115,7.0
84.224,-7.494,0.373,4.0
51.092,-4.53,-0.05,24.0
119.329,-10.578,3.206,10.0
135.7,-11.984,2.907,38.0
135.68,-11.937,2.168,150.0
114.755,-10.06,1.197,8.0
83.546,-7.297,0.416,8.0
51.73,-4.501,-0.023,10.0
119.21,-10.37,3.267,29.0
119.226,-10.333,2.618,81.0
119.268,-10.297,1.968,50.0
114.933,-9.885,1.26,9.0
83.399,-7.145,0.459,9.0
56.375,-4.811,0.003,6.0
72.765,-6.209,2.031,5.0
72.861,-6.192,1.636,6.0
126.518,-10.709,2.151,25.0
119.081,-10.039,1.364,10.0
84.883,-7.128,0.508,9.0
56.408,-4.718,0.031,4.0
72.651,-6.074,2.063,8.0
119.286,-9.933,2.735,4.0
126.487,-10.489,2.21,72.0
119.159,-9.841,1.419,19.0
87.016,-7.158,0.561,11.0
61.786,-5.061,0.061,7.0
74.748,-6.121,2.155,14.0
119.327,-9.73,2.788,23.0
126.494,-10.271,2.263,101.0
119.224,-9.641,1.47,19.0
87.006,-7.006,0.597,7.0
67.542,-5.415,0.095,10.0
74.821,-5.996,2.188,6.0
72.542,-5.788,1.724,13.0
119.342,-9.479,2.183,16.0
67.876,-5.368,0.864,37.0
67.864,-5.344,0.492,66.0
67.694,-5.308,0.121,30.0
67.905,-5.321,2.011,79.0
67.897,-5.296,1.639,82.0
67.88,-5.27,1.267,85.0
67.874,-5.246,0.888,65.0
67.876,-5.224,0.516,23.0
67.655,-5.184,0.144,8.0
71.716,-5.49,2.148,15.0
119.334,-9.095,2.92,51.0
119.383,-9.055,2.267,135.0
119.242,-9.002,1.598,16.0
20.007,-1.503,0.158,0.0
80.866,-6.049,0.198,3.0
71.73,-5.36,2.17,18.0
75.112,-5.586,1.86,4.0
20.031,-1.482,0.386,2.0
20.014,-1.474,0.274,9.0
20.025,-1.467,0.164,28.0
82.403,-6.011,0.224,2.0
20.032,-1.459,0.611,6.0
20.011,-1.451,0.501,9.0
20.012,-1.443,0.391,10.0
20.01,-1.436,0.279,11.0
20.031,-1.431,0.169,24.0
82.127,-5.839,0.243,3.0
20.009,-1.421,0.615,9.0
20.009,-1.413,0.505,11.0
20.005,-1.406,0.395,9.0
20.04,-1.401,0.283,3.0
102.816,-7.152,0.89,7.0
20.12,-1.392,0.063,0.0
20.012,-1.383,0.619,10.0
20.045,-1.378,0.51,10.0
20.077,-1.373,0.4,1.0
20.005,-1.36,0.286,1.0
20.009,-1.354,0.176,18.0
20.006,-1.346,0.066,19.0
20.035,-1.346,0.623,9.0
20.023,-1.338,0.512,9.0
19.952,-1.326,0.4,12.0
19.924,-1.317,0.288,19.0
19.964,-1.313,0.178,24.0
19.984,-1.307,0.069,24.0
19.942,-1.302,0.622,16.0
19.942,-1.295,0.512,18.0
19.924,-1.286,0.402,17.0
19.958,-1.281,0.29,24.0
19.977,-1.275,0.181,25.0
19.983,-1.268,0.07,23.0
19.953,-1.264,0.624,25.0
19.939,-1.256,0.514,21.0
19.939,-1.249,0.404,20.0
19.938,-1.241,0.292,26.0
19.978,-1.237,0.182,24.0
19.992,-1.23,0.072,150.0
19.953,-1.226,0.625,25.0
19.942,-1.217,0.515,26.0
19.938,-1.21,0.404,20.0
19.935,-1.203,0.292,22.0
19.996,-1.199,0.182,150.0
19.994,-1.192,0.072,82.0
19.96,-1.187,0.626,25.0
19.946,-1.179,0.515,22.0
19.939,-1.171,0.404,19.0
19.95,-1.164,0.292,22.0
20.148,-1.168,0.184,4.0
20.09,-1.158,0.072,8.0
19.965,-1.148,0.625,26.0
19.957,-1.14,0.514,25.0
19.955,-1.132,0.404,24.0
19.952,-1.125,0.291,22.0
20.001,-1.12,0.181,26.0
19.992,-1.112,0.07,21.0
19.975,-1.109,0.624,25.0
19.967,-1.101,0.513,20.0
19.964,-1.093,0.402,19.0
19.946,-1.085,0.289,18.0
19.971,-1.079,0.179,19.0
19.972,-1.072,0.068,33.0
19.981,-1.069,0.622,22.0
19.957,-1.06,0.51,18.0
19.951,-1.053,0.4,14.0
19.973,-1.046,0.287,17.0
20.003,-1.04,0.176,18.0
19.992,-1.032,0.065,19.0
19.984,-1.029,0.619,14.0
20.07,-1.026,0.51,16.0
20.128,-1.021,0.4,20.0
20.152,-1.015,0.286,25.0
20.162,-1.008,0.174,14.0
20.017,-0.994,0.062,7.0
20.11,-0.995,0.619,24.0
20.128,-0.988,0.508,24.0
20.125,-0.981,0.396,19.0
20.161,-0.975,0.282,7.0
138.215,-6.636,1.169,21.0
0.0,0.0,0.0,0.0
20.103,-0.954,0.615,19.0
20.118,-0.947,0.503,16.0
20.154,-0.941,0.391,3.0
138.019,-6.399,1.902,16.0
138.221,-6.357,1.135,16.0
0.0,0.0,0.0,0.0
20.138,-0.915,0.61,6.0
193.967,-8.746,4.801,12.0
193.3,-8.643,3.706,14.0
138.035,-6.123,1.864,16.0
138.015,-6.072,1.094,24.0
0.0,0.0,0.0,0.0
193.173,-8.395,5.8,8.0
193.329,-8.327,4.725,25.0
192.688,-8.229,3.634,23.0
138.164,-5.849,1.82,10.0
138.35,-5.807,1.052,16.0
0.0,0.0,0.0,0.0
193.825,-8.028,5.752,16.0
192.957,-7.921,4.649,23.0
193.327,-7.864,3.578,15.0
0.0,0.0,0.0,0.0
138.412,-5.529,1.001,15.0
0.0,0.0,0.0,0.0
193.866,-7.636,5.68,14.0
192.545,-7.514,4.564,21.0
193.634,-7.486,3.508,19.0
0.0,0.0,0.0,0.0
138.494,-5.252,0.946,16.0
0.0,0.0,0.0,0.0
193.131,-7.216,5.578,23.0
193.248,-7.148,4.499,23.0
193.598,-7.091,3.423,19.0
0.0,0.0,0.0,0.0
138.501,-4.974,0.885,11.0
0.0,0.0,0.0,0.0
193.099,-6.824,5.488,21.0
193.32,-6.76,4.411,23.0
187.46,-6.488,3.227,53.0
138.609,-4.747,1.596,3.0
138.611,-4.698,0.819,9.0
0.0,0.0,0.0,0.0
193.279,-6.436,5.396,21.0
193.999,-6.392,4.329,20.0
193.148,-6.295,3.227,11.0
138.625,-4.467,1.524,8.0
0.0,0.0,0.0,0.0
0.0,0.0,0.0,0.0
193.779,-6.063,5.307,23.0
194.488,-6.014,4.234,19.0
138.736,-4.242,2.242,4.0
138.605,-4.187,1.448,9.0
138.452,-4.133,0.669,2.0
0.0,0.0,0.0,0.0
194.199,-5.682,5.207,22.0
194.981,-5.636,4.132,19.0
138.579,-3.958,2.159,6.0
138.663,-3.91,1.367,17.0
0.0,0.0,0.0,0.0
0.0,0.0,0.0,0.0
0.0,0.0,0.0,0.0
206.373,-5.551,4.247,7.0
138.82,-3.686,2.077,5.0
138.851,-3.637,1.282,22.0
0.0,0.0,0.0,0.0
0.0,0.0,0.0,0.0
118.148,-2.983,3.02,17.0
193.019,-4.805,3.846,10.0
138.878,-3.41,1.986,6.0
138.864,-3.36,1.19,22.0
0.0,0.0,0.0,0.0
0.0,0.0,0.0,0.0
118.096,-2.746,2.938,8.0
193.744,-4.436,3.727,15.0
138.922,-3.133,1.89,2.0
138.921,-3.085,1.094,20.0
0.0,0.0,0.0,0.0
0.0,0.0,0.0,0.0
205.653,-4.372,4.967,19.0
193.155,-4.038,3.576,21.0
0.0,0.0,0.0,0.0
139.017,-2.81,0.991,18.0
0.0,0.0,0.0,0.0
0.0,0.0,0.0,0.0
205.888,-3.967,4.816,21.0
193.466,-3.661,3.434,22.0
0.0,0.0,0.0,0.0
139.012,-2.534,0.883,12.0
0.0,0.0,0.0,0.0
0.0,0.0,0.0,0.0
206.148,-3.565,4.658,6.0
193.78,-3.287,3.285,14.0
139.221,-2.313,1.573,3.0
138.723,-2.257,0.77,8.0
0.0,0.0,0.0,0.0
0.0,0.0,0.0,0.0
205.993,-3.155,4.482,9.0
203.921,-3.053,3.284,7.0
139.144,-2.038,1.455,9.0
127.597,-1.827,0.6,6.0
0.0,0.0,0.0,0.0
0.0,0.0,0.0,0.0
210.328,-2.813,4.395,11.0
139.229,-1.815,2.121,5.0
139.261,-1.769,1.334,17.0
0.0,0.0,0.0,0.0
0.0,0.0,0.0,0.0
47.136,-0.551,-0.353,0.0
119.721,-1.368,2.393,7.0
119.741,-1.329,1.716,82.0
119.759,-1.289,1.037,150.0
0.0,0.0,0.0,0.0
0.0,0.0,0.0,0.0
45.951,-0.449,-0.386,0.0
119.731,-1.136,2.28,85.0
119.741,-1.099,1.603,39.0
119.709,-1.057,0.923,8.0
58.398,-0.497,0.113,1.0
0.0,0.0,0.0,0.0
44.998,-0.354,-0.421,0.0
193.939,-1.472,3.507,24.0
119.738,-0.87,1.486,17.0
114.111,-0.793,0.769,3.0
0.0,0.0,0.0,0.0
0.0,0.0,0.0,0.0
0.0,0.0,0.0,0.0
119.811,-0.682,2.046,14.0
119.721,-0.644,1.365,13.0
110.896,-0.562,0.635,2.0
0.0,0.0,0.0,0.0
0.0,0.0,0.0,0.0
0.0,0.0,0.0,0.0
114.795,-0.437,1.84,2.0
119.753,-0.419,1.24,15.0
102.089,-0.326,0.478,1.0
0.0,0.0,0.0,0.0
0.0,0.0,0.0,0.0
39.76,-0.089,-0.495,0.0
111.088,-0.216,1.662,5.0
117.34,-0.192,1.088,13.0
98.222,-0.132,0.353,1.0
0.0,0.0,0.0,0.0
45.784,-0.033,-0.36,1.0
37.557,-0.015,-0.509,0.0
111.096,-0.012,1.539,17.0
111.077,0.021,0.907,8.0
0.0,0.0,0.0,0.0
0.0,0.0,0.0,0.0
45.248,0.05,-0.407,1.0
0.0,0.0,0.0,0.0
111.212,0.191,1.414,19.0
110.702,0.222,0.778,7.0
0.0,0.0,0.0,0.0
0.0,0.0,0.0,0.0
42.791,0.124,-0.434,1.0
0.0,0.0,0.0,0.0
111.162,0.389,1.284,19.0
104.205,0.396,0.61,7.0
0.0,0.0,0.0,0.0
0.0,0.0,0.0,0.0
42.789,0.201,-0.484,0.0
32.624,0.163,-0.555,0.0
111.054,0.589,1.149,22.0
96.98,0.541,0.451,1.0
0.0,0.0,0.0,0.0
48.724,0.301,-0.333,0.0
0.0,0.0,0.0,0.0
31.98,0.215,-0.583,0.0
104.824,0.74,0.956,22.0
85.317,0.626,0.291,4.0
0.0,0.0,0.0,0.0
46.709,0.37,-0.378,0.0
0.0,0.0,0.0,0.0
30.585,0.259,-0.596,0.0
98.456,0.865,0.774,16.0
82.441,0.749,0.177,1.0
0.0,0.0,0.0,0.0
43.168,0.416,-0.403,0.0
34.671,0.343,-0.522,0.0
29.555,0.301,-0.613,0.0
98.105,1.029,0.645,7.0
0.0,0.0,0.0,0.0
0.0,0.0,0.0,0.0
42.218,0.478,-0.449,2.0
34.38,0.398,-0.562,0.0
0.0,0.0,0.0,0.0
85.335,1.038,0.45,14.0
75.325,0.936,-0.032,1.0
0.0,0.0,0.0,0.0
41.163,0.534,-0.492,0.0
32.313,0.429,-0.571,0.0
0.0,0.0,0.0,0.0
81.039,1.123,0.317,4.0
0.0,0.0,0.0,0.0
46.992,0.676,-0.353,0.0
0.0,0.0,0.0,0.0
30.685,0.457,-0.584,0.0
26.346,0.4,-0.652,0.0
81.12,1.256,0.206,1.0
0.0,0.0,0.0,0.0
47.102,0.754,-0.418,0.0
35.813,0.582,-0.526,0.0
29.918,0.494,-0.611,0.0
26.006,0.436,-0.68,0.0
73.214,1.25,0.085,5.0
0.0,0.0,0.0,0.0
0.0,0.0,0.0,0.0
0.0,0.0,0.0,0.0
28.56,0.517,-0.623,0.0
24.424,0.449,-0.673,0.0
70.989,1.325,-0.019,3.0
0.0,0.0,0.0,0.0
0.0,0.0,0.0,0.0
0.0,0.0,0.0,0.0
0.0,0.0,0.0,0.0
23.541,0.469,-0.682,0.0
0.0,0.0,0.0,0.0
48.441,0.991,-0.36,1.0
0.0,0.0,0.0,0.0
30.825,0.646,-0.585,0.0
26.327,0.558,-0.651,0.0
22.839,0.49,-0.695,0.0
0.0,0.0,0.0,0.0
0.0,0.0,0.0,0.0
35.656,0.792,-0.521,0.0
29.643,0.666,-0.607,0.0
25.405,0.577,-0.666,0.0
22.292,0.511,-0.712,0.0
0.0,0.0,0.0,0.0
0.0,0.0,0.0,0.0
34.359,0.814,-0.555,0.0
28.282,0.677,-0.621,0.0
0.0,0.0,0.0,0.0
21.572,0.527,-0.722,0.0
48.489,1.197,-0.3,0.0
39.57,0.986,-0.471,0.0
32.04,0.806,-0.565,0.0
26.947,0.684,-0.633,0.0
23.673,0.606,-0.692,0.0
20.879,0.54,-0.73,0.0
0.0,0.0,0.0,0.0
0.0,0.0,0.0,0.0
30.567,0.812,-0.587,0.0
26.128,0.7,-0.654,0.0
22.705,0.614,-0.699,0.0
20.293,0.553,-0.742,0.0
0.0,0.0,0.0,0.0
35.194,0.976,-0.528,0.0
28.608,0.8,-0.594,0.0
25.008,0.705,-0.665,0.0
22.032,0.626,-0.713,0.0
19.553,0.56,-0.745,0.0
0.0,0.0,0.0,0.0
33.189,0.965,-0.551,0.0
28.494,0.835,-0.637,1.0
24.237,0.716,-0.683,0.0
21.293,0.634,-0.723,0.0
18.855,0.565,-0.749,0.0
38.159,1.153,-0.475,0.0
31.417,0.956,-0.572,0.0
26.861,0.823,-0.644,0.0
23.241,0.717,-0.693,0.0
20.443,0.635,-0.727,0.0
18.42,0.576,-0.761,0.0
35.836,1.129,-0.504,0.0
30.051,0.953,-0.595,0.0
25.678,0.82,-0.657,0.0
22.418,0.72,-0.704,0.0
19.926,0.644,-0.741,0.0
17.853,0.581,-0.767,0.0
33.631,1.102,-0.528,0.0
28.6,0.943,-0.614,1.0
24.753,0.821,-0.674,0.0
21.481,0.717,-0.71,0.0
19.241,0.646,-0.747,0.0
17.35,0.586,-0.774,0.0
32.026,1.089,-0.555,0.0
0.0,0.0,0.0,0.0
23.72,0.815,-0.684,0.0
20.828,0.72,-0.723,0.0
18.707,0.651,-0.757,0.0
16.894,0.591,-0.781,0.0
30.627,1.077,-0.582,0.0
26.183,0.926,-0.648,0.0
22.693,0.807,-0.692,0.0
20.027,0.716,-0.728,0.0
18.094,0.65,-0.763,0.0
16.553,0.598,-0.793,0.0
29.393,1.068,-0.607,0.0
25.066,0.915,-0.662,0.0
22.07,0.81,-0.71,0.0
19.489,0.719,-0.742,0.0
17.58,0.652,-0.771,0.0
16.009,0.597,-0.794,0.0
27.942,1.046,-0.624,0.0
23.88,0.898,-0.671,0.0
21.357,0.807,-0.723,0.0
18.925,0.719,-0.752,0.0
17.146,0.654,-0.78,0.0
15.714,0.603,-0.806,0.0
26.482,1.02,-0.637,0.0
23.152,0.896,-0.69,0.0
20.365,0.792,-0.725,0.0
18.246,0.712,-0.757,0.0
16.627,0.652,-0.786,0.0
15.255,0.601,-0.809,0.0
25.376,1.004,-0.654,0.0
22.328,0.887,-0.704,0.0
19.769,0.789,-0.737,0.0
17.751,0.711,-0.767,0.0
16.355,0.658,-0.801,0.0
14.984,0.606,-0.82,0.0
0.0,0.0,0.0,0.0
21.648,0.881,-0.719,0.0
19.079,0.78,-0.744,0.0
17.262,0.709,-0.775,0.0
15.767,0.65,-0.799,0.0
14.572,0.603,-0.823,0.0
23.341,0.969,-0.681,0.0
20.781,0.866,-0.727,0.0
18.553,0.776,-0.756,0.0
16.856,0.708,-0.786,0.0
15.371,0.648,-0.806,0.0
14.318,0.606,-0.833,0.0
22.551,0.957,-0.698,0.0
19.862,0.846,-0.729,0.0
17.942,0.767,-0.762,0.0
16.383,0.703,-0.792,0.0
15.027,0.647,-0.814,0.0
13.869,0.599,-0.831,0.0
21.613,0.936,-0.706,0.0
19.29,0.838,-0.741,0.0
17.446,0.761,-0.771,0.0
15.875,0.695,-0.795,0.0
14.621,0.642,-0.817,0.0
13.605,0.599,-0.839,0.0
20.948,0.925,-0.721,0.0
18.688,0.828,-0.75,0.0
16.965,0.754,-0.779,0.0
15.476,0.69,-0.802,0.0
14.325,0.641,-0.825,0.0
13.265,0.595,-0.841,0.0
20.192,0.908,-0.73,0.0
18.034,0.813,-0.756,0.0
16.479,0.745,-0.786,0.0
15.148,0.687,-0.812,0.0
14.005,0.637,-0.832,0.0
13.036,0.595,-0.85,0.0
19.564,0.895,-0.742,0.0
17.583,0.806,-0.768,0.0
16.128,0.742,-0.798,0.0
14.717,0.679,-0.815,0.0
13.672,0.632,-0.836,0.0
12.649,0.587,-0.847,0.0
18.764,0.872,-0.744,0.0
17.101,0.797,-0.777,0.0
15.631,0.73,-0.801,0.0
14.361,0.673,-0.82,0.0
13.35,0.627,-0.84,0.0
12.382,0.583,-0.851,0.0
18.357,0.865,-0.76,0.0
16.608,0.785,-0.784,0.0
15.189,0.719,-0.805,0.0
14.043,0.667,-0.827,0.0
13.079,0.623,-0.846,0.0
12.061,0.576,-0.85,0.0
17.709,0.846,-0.765,0.0
16.083,0.77,-0.787,0.0
14.93,0.717,-0.817,0.0
13.738,0.661,-0.833,0.0
12.776,0.616,-0.849,0.0
11.769,0.569,-0.85,0.0
17.146,0.829,-0.77,0.0
15.902,0.771,-0.806,0.0
14.544,0.707,-0.822,0.0
13.424,0.654,-0.837,0.0
12.412,0.606,-0.846,0.0
11.555,0.565,-0.855,0.0
16.763,0.82,-0.782,0.0
15.39,0.754,-0.807,0.0
14.175,0.696,-0.826,0.0
13.228,0.651,-0.849,0.0
12.15,0.6,-0.85,0.0
11.257,0.557,-0.853,0.0
16.256,0.804,-0.787,0.0
14.956,0.741,-0.811,0.0
13.816,0.686,-0.829,0.0
12.975,0.645,-0.855,0.0
11.832,0.59,-0.849,0.0
11.168,0.558,-0.866,0.0
15.768,0.787,-0.791,0.0
14.576,0.729,-0.816,0.0
13.488,0.676,-0.833,0.0
12.438,0.624,-0.841,0.0
11.626,0.585,-0.854,0.0
10.969,0.553,-0.87,0.0
15.48,0.779,-0.803,0.0
14.248,0.719,-0.822,0.0
13.249,0.67,-0.841,0.0
12.225,0.619,-0.849,0.0
11.33,0.575,-0.852,0.0
10.73,0.545,-0.87,0.0
15.016,0.762,-0.806,0.0
13.895,0.706,-0.826,0.0
12.966,0.66,-0.846,0.0
11.886,0.606,-0.846,0.0
11.177,0.571,-0.86,0.0
10.563,0.541,-0.875,0.0
14.692,0.751,-0.814,0.0
13.663,0.699,-0.836,0.0
12.651,0.649,-0.848,0.0
11.691,0.6,-0.852,0.0
11.022,0.567,-0.867,0.0
10.402,0.536,-0.879,0.0
14.375,0.739,-0.821,0.0
13.273,0.683,-0.835,0.0
12.366,0.638,-0.85,0.0
11.453,0.591,-0.855,0.0
10.782,0.558,-0.867,0.0
10.205,0.528,-0.88,0.0
13.988,0.723,-0.823,0.0
13.066,0.676,-0.844,0.0
12.001,0.622,-0.845,0.0
11.213,0.582,-0.856,0.0
10.602,0.551,-0.871,0.0
10.096,0.525,-0.888,0.0
13.766,0.715,-0.833,0.0
12.662,0.658,-0.84,0.0
11.71,0.609,-0.844,0.0
11.085,0.577,-0.865,0.0
10.456,0.545,-0.877,0.0
9.909,0.518,-0.889,0.0
13.427,0.7,-0.835,0.0
12.433,0.648,-0.845,0.0
11.551,0.603,-0.852,0.0
10.859,0.568,-0.866,0.0
10.286,0.538,-0.88,0.0
9.834,0.515,-0.899,0.0
13.126,0.686,-0.839,0.0
12.12,0.634,-0.845,0.0
11.329,0.593,-0.855,0.0
10.642,0.558,-0.866,0.0
10.173,0.534,-0.887,0.0
9.724,0.511,-0.905,0.0
12.877,0.674,-0.844,0.0
11.856,0.621,-0.846,0.0
11.132,0.584,-0.859,0.0
10.528,0.553,-0.875,0.0
9.974,0.524,-0.887,0.0
9.557,0.503,-0.905,0.0
12.554,0.658,-0.844,0.0
11.619,0.61,-0.848,0.0
10.999,0.577,-0.867,0.0
10.372,0.545,-0.879,0.0
9.883,0.52,-0.895,0.0
9.424,0.496,-0.908,0.0
12.244,0.642,-0.843,0.0
11.45,0.601,-0.854,0.0
10.767,0.565,-0.866,0.0
10.175,0.535,-0.878,0.0
9.743,0.512,-0.898,0.0
9.243,0.487,-0.906,0.0
11.961,0.627,-0.843,0.0
11.183,0.587,-0.853,0.0
10.61,0.557,-0.871,0.0
10.088,0.53,-0.887,0.0
9.688,0.509,-0.909,0.0
9.134,0.48,-0.91,0.0
11.736,0.615,-0.845,0.0
11.1,0.582,-0.864,0.0
10.481,0.549,-0.877,0.0
9.917,0.52,-0.888,0.0
9.457,0.496,-0.902,0.0
9.053,0.475,-0.916,0.0
11.553,0.604,-0.851,0.0
10.885,0.569,-0.864,0.0
10.343,0.541,-0.881,0.0
9.824,0.514,-0.895,0.0
9.337,0.489,-0.905,0.0
8.911,0.467,-0.916,0.0
11.359,0.592,-0.854,0.0
10.674,0.557,-0.864,0.0
10.185,0.531,-0.884,0.0
9.743,0.509,-0.903,0.0
9.268,0.484,-0.913,0.0
8.788,0.459,-0.917,0.0
11.184,0.581,-0.858,0.0
10.555,0.549,-0.871,0.0
10.038,0.522,-0.886,0.0
9.537,0.496,-0.899,0.0
9.133,0.475,-0.914,0.0
8.678,0.452,-0.919,0.0
11.028,0.571,-0.863,0.0
10.432,0.54,-0.876,0.0
9.902,0.513,-0.889,0.0
9.411,0.487,-0.901,0.0
8.969,0.465,-0.911,0.0
8.618,0.446,-0.926,0.0
10.834,0.558,-0.864,0.0
10.248,0.528,-0.876,0.0
9.816,0.506,-0.896,0.0
9.346,0.482,-0.909,0.0
8.878,0.457,-0.915,0.0
8.483,0.437,-0.924,0.0
10.692,0.548,-0.868,0.0
10.176,0.521,-0.885,0.0
9.683,0.496,-0.898,0.0
9.176,0.47,-0.906,0.0
8.802,0.451,-0.92,0.0
8.356,0.428,-0.922,0.0
10.543,0.537,-0.871,0.0
10.02,0.51,-0.886,0.0
9.552,0.486,-0.9,0.0
0.0,0.0,0.0,0.0
8.728,0.444,-0.925,0.0
8.295,0.422,-0.928,0.0
10.402,0.526,-0.874,0.0
9.886,0.5,-0.888,0.0
9.471,0.479,-0.906,0.0
0.0,0.0,0.0,0.0
8.604,0.434,-0.924,0.0
8.202,0.414,-0.929,0.0
10.267,0.515,-0.877,0.0
9.796,0.491,-0.894,0.0
9.334,0.468,-0.906,0.0
0.0,0.0,0.0,0.0
8.49,0.425,-0.923,0.0
8.144,0.408,-0.933,0.0
10.164,0.506,-0.882,0.0
9.702,0.482,-0.898,0.0
9.213,0.458,-0.907,0.0
8.79,0.437,-0.917,0.0
8.417,0.418,-0.927,0.0
7.999,0.397,-0.928,0.0
10.012,0.494,-0.883,0.0
9.541,0.47,-0.896,0.0
9.143,0.45,-0.912,0.0
0.0,0.0,0.0,0.0
8.315,0.409,-0.927,0.0
7.95,0.39,-0.933,0.0
9.912,0.484,-0.887,0.0
9.469,0.462,-0.902,0.0
9.051,0.441,-0.914,0.0
8.569,0.417,-0.916,0.0
8.253,0.401,-0.931,0.0
7.879,0.383,-0.935,0.0
9.813,0.474,-0.89,0.0
9.361,0.451,-0.904,0.0
8.901,0.429,-0.911,0.0
8.478,0.408,-0.917,0.0
8.121,0.391,-0.926,0.0
7.801,0.375,-0.935,0.0
9.771,0.466,-0.899,0.0
9.245,0.441,-0.904,0.0
8.816,0.42,-0.913,0.0
8.384,0.399,-0.918,0.0
8.1,0.385,-0.934,0.0
7.693,0.365,-0.932,0.0
9.621,0.453,-0.896,0.0
9.198,0.433,-0.91,0.0
8.739,0.411,-0.915,0.0
8.326,0.391,-0.921,0.0
7.96,0.373,-0.927,0.0
7.645,0.358,-0.935,0.0
9.574,0.445,-0.903,0.0
9.103,0.423,-0.912,0.0
8.632,0.4,-0.914,0.0
8.267,0.383,-0.924,0.0
7.936,0.367,-0.934,0.0
7.629,0.352,-0.942,0.0
9.445,0.433,-0.902,0.0
9.011,0.412,-0.913,0.0
8.583,0.392,-0.919,0.0
0.0,0.0,0.0,0.0
7.837,0.357,-0.931,0.0
7.557,0.344,-0.942,0.0
9.344,0.422,-0.903,0.0
8.914,0.402,-0.913,0.0
8.473,0.381,-0.916,0.0
0.0,0.0,0.0,0.0
7.808,0.35,-0.936,0.0
7.497,0.336,-0.942,0.0
9.227,0.41,-0.901,0.0
8.863,0.393,-0.917,0.0
8.412,0.373,-0.919,0.0
0.0,0.0,0.0,0.0
7.789,0.344,-0.942,0.0
7.477,0.33,-0.948,0.0
9.176,0.401,-0.906,0.0
8.736,0.381,-0.913,0.0
8.357,0.364,-0.921,0.0
7.98,0.347,-0.927,0.0
7.647,0.332,-0.932,0.0
7.383,0.32,-0.943,0.0
9.125,0.392,-0.91,0.0
8.714,0.373,-0.919,0.0
8.312,0.355,-0.925,0.0
7.945,0.339,-0.931,0.0
7.614,0.324,-0.936,0.0
7.343,0.312,-0.946,0.0
9.056,0.382,-0.912,0.0
8.564,0.36,-0.912,0.0
8.254,0.346,-0.926,0.0
7.86,0.329,-0.928,0.0
7.556,0.316,-0.936,0.0
7.25,0.302,-0.94,0.0
8.958,0.37,-0.91,0.0
8.57,0.353,-0.92,0.0
8.172,0.336,-0.925,0.0
7.823,0.321,-0.931,0.0
7.502,0.307,-0.936,0.0
7.213,0.295,-0.942,0.0
8.863,0.359,-0.909,0.0
8.5,0.343,-0.92,0.0
8.153,0.328,-0.93,0.0
7.772,0.312,-0.932,0.0
7.492,0.3,-0.942,0.0
0.0,0.0,0.0,0.0
8.83,0.35,-0.913,0.0
8.427,0.333,-0.919,0.0
8.074,0.318,-0.927,0.0
7.733,0.304,-0.934,0.0
7.425,0.291,-0.939,0.0
0.0,0.0,0.0,0.0
8.811,0.341,-0.918,0.0
8.385,0.324,-0.922,0.0
8.066,0.311,-0.933,0.0
7.666,0.294,-0.932,0.0
7.35,0.281,-0.936,0.0
0.0,0.0,0.0,0.0
8.739,0.33,-0.917,0.0
8.286,0.312,-0.917,0.0
7.955,0.299,-0.926,0.0
7.615,0.285,-0.931,0.0
0.0,0.0,0.0,0.0
0.0,0.0,0.0,0.0
8.66,0.319,-0.915,0.0
8.274,0.304,-0.922,0.0
7.974,0.292,-0.934,0.0
7.578,0.277,-0.932,0.0
0.0,0.0,0.0,0.0
0.0,0.0,0.0,0.0
8.593,0.309,-0.914,0.0
8.271,0.296,-0.927,0.0
7.947,0.284,-0.936,0.0
7.573,0.269,-0.937,0.0
0.0,0.0,0.0,0.0
0.0,0.0,0.0,0.0
8.59,0.3,-0.919,0.0
8.196,0.285,-0.924,0.0
7.859,0.273,-0.931,0.0
7.498,0.259,-0.932,0.0
0.0,0.0,0.0,0.0
0.0,0.0,0.0,0.0
8.568,0.291,-0.922,0.0
8.169,0.276,-0.926,0.0
7.874,0.265,-0.937,0.0
7.516,0.252,-0.939,0.0
0.0,0.0,0.0,0.0
0.0,0.0,0.0,0.0
8.482,0.279,-0.917,0.0
8.178,0.268,-0.931,0.0
7.807,0.255,-0.934,0.0
0.0,0.0,0.0,0.0
0.0,0.0,0.0,0.0
0.0,0.0,0.0,0.0
8.479,0.271,-0.921,0.0
8.11,0.258,-0.928,0.0
7.744,0.245,-0.93,0.0
0.0,0.0,0.0,0.0
0.0,0.0,0.0,0.0
0.0,0.0,0.0,0.0
8.431,0.26,-0.92,0.0
8.065,0.248,-0.926,0.0
7.765,0.237,-0.936,0.0
0.0,0.0,0.0,0.0
0.0,0.0,0.0,0.0
0.0,0.0,0.0,0.0
8.374,0.25,-0.918,0.0
8.042,0.239,-0.927,0.0
7.73,0.228,-0.935,0.0
0.0,0.0,0.0,0.0
7.114,0.208,-0.943,0.0
0.0,0.0,0.0,0.0
8.367,0.241,-0.92,0.0
8.085,0.231,-0.935,0.0
0.0,0.0,0.0,0.0
0.0,0.0,0.0,0.0
0.0,0.0,0.0,0.0
0.0,0.0,0.0,0.0
8.365,0.231,-0.923,0.0
8.051,0.221,-0.934,0.0
0.0,0.0,0.0,0.0
0.0,0.0,0.0,0.0
0.0,0.0,0.0,0.0
0.0,0.0,0.0,0.0
8.335,0.221,-0.922,0.0
8.007,0.211,-0.931,0.0
7.665,0.201,-0.935,0.0
0.0,0.0,0.0,0.0
0.0,0.0,0.0,0.0
0.0,0.0,0.0,0.0
8.338,0.212,-0.924,0.0
8.026,0.203,-0.935,0.0
7.7,0.193,-0.941,0.0
0.0,0.0,0.0,0.0
0.0,0.0,0.0,0.0
6.792,0.167,-0.947,0.0
8.336,0.203,-0.926,0.0
7.971,0.193,-0.93,0.0
7.65,0.184,-0.936,0.0
0.0,0.0,0.0,0.0
7.064,0.167,-0.946,0.0
0.0,0.0,0.0,0.0
8.285,0.192,-0.921,0.0
7.999,0.185,-0.935,0.0
0.0,0.0,0.0,0.0
0.0,0.0,0.0,0.0
7.059,0.159,-0.946,0.0
0.0,0.0,0.0,0.0
8.337,0.184,-0.928,0.0
7.944,0.174,-0.929,0.0
7.622,0.166,-0.935,0.0
0.0,0.0,0.0,0.0
7.107,0.152,-0.953,0.0
0.0,0.0,0.0,0.0
8.329,0.175,-0.928,0.0
7.948,0.165,-0.93,0.0
0.0,0.0,0.0,0.0
0.0,0.0,0.0,0.0
0.0,0.0,0.0,0.0
0.0,0.0,0.0,0.0
8.313,0.165,-0.926,0.0
8.003,0.157,-0.937,0.0
0.0,0.0,0.0,0.0
0.0,0.0,0.0,0.0
0.0,0.0,0.0,0.0
0.0,0.0,0.0,0.0
8.282,0.155,-0.923,0.0
7.954,0.147,-0.931,0.0
0.0,0.0,0.0,0.0
0.0,0.0,0.0,0.0
0.0,0.0,0.0,0.0
0.0,0.0,0.0,0.0
8.329,0.146,-0.927,0.0
7.967,0.138,-0.932,0.0
7.636,0.131,-0.936,0.0
0.0,0.0,0.0,0.0
0.0,0.0,0.0,0.0
0.0,0.0,0.0,0.0
8.315,0.136,-0.925,0.0
7.968,0.129,-0.931,0.0
0.0,0.0,0.0,0.0
0.0,0.0,0.0,0.0
0.0,0.0,0.0,0.0
0.0,0.0,0.0,0.0
8.267,0.126,-0.918,0.0
7.977,0.12,-0.93,0.0
7.615,0.113,-0.931,0.0
0.0,0.0,0.0,0.0
0.0,0.0,0.0,0.0
0.0,0.0,0.0,0.0
8.319,0.117,-0.922,0.0
8.031,0.112,-0.935,0.0
7.704,0.106,-0.94,0.0
0.0,0.0,0.0,0.0
0.0,0.0,0.0,0.0
0.0,0.0,0.0,0.0
8.316,0.108,-0.92,0.0
8.049,0.103,-0.935,0.0
7.663,0.096,-0.933,0.0
0.0,0.0,0.0,0.0
0.0,0.0,0.0,0.0
6.849,0.082,-0.95,0.0
8.345,0.098,-0.92,0.0
8.039,0.093,-0.931,0.0
7.696,0.088,-0.935,0.0
0.0,0.0,0.0,0.0
0.0,0.0,0.0,0.0
6.88,0.075,-0.952,0.0
8.373,0.089,-0.921,0.0
8.032,0.084,-0.928,0.0
7.716,0.079,-0.934,0.0
0.0,0.0,0.0,0.0
0.0,0.0,0.0,0.0
0.0,0.0,0.0,0.0
8.411,0.08,-0.921,0.0
8.063,0.075,-0.928,0.0
7.748,0.071,-0.935,0.0
0.0,0.0,0.0,0.0
0.0,0.0,0.0,0.0
6.921,0.059,-0.952,0.0
8.459,0.071,-0.923,0.0
8.095,0.066,-0.928,0.0
7.813,0.062,-0.939,0.0
0.0,0.0,0.0,0.0
0.0,0.0,0.0,0.0
6.912,0.051,-0.948,0.0
8.487,0.062,-0.922,0.0
8.042,0.057,-0.918,0.0
7.826,0.054,-0.937,0.0
0.0,0.0,0.0,0.0
0.0,0.0,0.0,0.0
6.944,0.044,-0.948,0.0
8.475,0.052,-0.916,0.0
8.134,0.048,-0.924,0.0
7.836,0.045,-0.934,0.0
0.0,0.0,0.0,0.0
0.0,0.0,0.0,0.0
7.024,0.036,-0.955,0.0
8.516,0.043,-0.916,0.0
8.188,0.04,-0.926,0.0
7.856,0.036,-0.932,0.0
0.0,0.0,0.0,0.0
0.0,0.0,0.0,0.0
0.0,0.0,0.0,0.0
8.574,0.034,-0.917,0.0
8.319,0.031,-0.935,0.0
0.0,0.0,0.0,0.0
7.552,0.025,-0.933,0.0
0.0,0.0,0.0,0.0
0.0,0.0,0.0,0.0
8.632,0.025,-0.917,0.0
8.233,0.022,-0.92,0.0
0.0,0.0,0.0,0.0
7.65,0.017,-0.94,0.0
7.33,0.015,-0.941,0.0
7.079,0.013,-0.948,0.0
8.712,0.016,-0.919,0.0
8.32,0.013,-0.924,0.0
8.029,0.011,-0.936,0.0
0.0,0.0,0.0,0.0
0.0,0.0,0.0,0.0
7.132,0.006,-0.95,0.0
8.721,0.006,-0.914,0.0
8.378,0.004,-0.924,0.0
8.023,0.003,-0.929,0.0
0.0,0.0,0.0,0.0
0.0,0.0,0.0,0.0
7.173,-0.001,-0.95,0.0
8.826,-0.002,-0.918,0.0
8.428,-0.003,-0.923,0.0
8.1,-0.005,-0.931,0.0
0.0,0.0,0.0,0.0
7.502,-0.007,-0.946,0.0
7.137,-0.008,-0.939,0.0
8.837,-0.011,-0.912,0.0
8.474,-0.012,-0.921,0.0
8.117,-0.013,-0.926,0.0
0.0,0.0,0.0,0.0
7.539,-0.015,-0.944,0.0
0.0,0.0,0.0,0.0
8.955,-0.02,-0.916,0.0
8.551,-0.021,-0.921,0.0
8.211,-0.022,-0.93,0.0
7.895,-0.022,-0.938,0.0
7.563,-0.023,-0.94,0.0
7.294,-0.023,-0.947,0.0
9.017,-0.029,-0.914,0.0
8.629,-0.03,-0.922,0.0
8.228,-0.03,-0.924,0.0
0.0,0.0,0.0,0.0
7.634,-0.031,-0.942,0.0
0.0,0.0,0.0,0.0
9.055,-0.039,-0.909,0.0
8.711,-0.039,-0.922,0.0
8.321,-0.039,-0.926,0.0
0.0,0.0,0.0,0.0
7.722,-0.039,-0.945,0.0
7.405,-0.038,-0.946,0.0
9.158,-0.048,-0.91,0.0
8.765,-0.047,-0.919,0.0
8.366,-0.047,-0.923,0.0
8.056,-0.047,-0.933,0.0
7.772,-0.046,-0.943,0.0
7.453,-0.046,-0.945,0.0
9.241,-0.057,-0.909,0.0
8.851,-0.056,-0.918,0.0
8.48,-0.055,-0.926,0.0
8.067,-0.054,-0.926,0.0
7.788,-0.054,-0.936,0.0
7.494,-0.053,-0.942,0.0
9.309,-0.066,-0.906,0.0
8.899,-0.065,-0.914,0.0
8.517,-0.064,-0.921,0.0
8.128,-0.062,-0.924,0.0
7.902,-0.062,-0.941,0.0
7.595,-0.061,-0.946,0.0
9.423,-0.075,-0.906,0.0
9.021,-0.074,-0.916,0.0
8.623,-0.072,-0.922,0.0
8.252,-0.07,-0.928,0.0
7.947,-0.069,-0.937,0.0
7.621,-0.068,-0.94,0.0
9.468,-0.084,-0.9,0.0
9.066,-0.082,-0.91,0.0
8.656,-0.08,-0.916,0.0
8.32,-0.078,-0.926,0.0
8.046,-0.077,-0.939,0.0
7.728,-0.075,-0.944,0.0
9.564,-0.093,-0.897,0.0
9.141,-0.091,-0.907,0.0
8.784,-0.089,-0.919,0.0
8.422,-0.086,-0.927,0.0
8.067,-0.084,-0.932,0.0
7.779,-0.083,-0.941,0.0
9.712,-0.103,-0.899,0.0
9.293,-0.1,-0.91,0.0
8.838,-0.097,-0.913,0.0
8.503,-0.094,-0.925,0.0
8.162,-0.092,-0.932,0.0
7.822,-0.09,-0.936,0.0
9.805,-0.112,-0.895,0.0
9.382,-0.108,-0.907,0.0
8.991,-0.106,-0.917,0.0
8.522,-0.101,-0.916,0.0
8.234,-0.099,-0.93,0.0
7.962,-0.097,-0.942,0.0
9.924,-0.121,-0.893,0.0
9.455,-0.117,-0.901,0.0
9.081,-0.114,-0.914,0.0
0.0,0.0,0.0,0.0
8.323,-0.107,-0.929,0.0
8.026,-0.104,-0.939,0.0
10.055,-0.13,-0.891,0.0
9.602,-0.126,-0.903,0.0
9.148,-0.121,-0.909,0.0
0.0,0.0,0.0,0.0
8.459,-0.115,-0.932,0.0
8.072,-0.111,-0.933,0.0
10.166,-0.139,-0.887,0.0
9.721,-0.135,-0.9,0.0
9.27,-0.13,-0.908,0.0
0.0,0.0,0.0,0.0
8.492,-0.122,-0.924,0.0
8.175,-0.118,-0.933,0.0
10.291,-0.148,-0.883,0.0
9.836,-0.143,-0.897,0.0
9.373,-0.138,-0.904,0.0
8.996,-0.134,-0.917,0.0
8.614,-0.129,-0.924,0.0
8.28,-0.125,-0.933,0.0
10.401,-0.157,-0.878,0.0
9.962,-0.152,-0.894,0.0
9.529,-0.147,-0.906,0.0
9.087,-0.141,-0.913,0.0
8.791,-0.138,-0.93,0.0
8.337,-0.132,-0.927,0.0
10.598,-0.167,-0.879,0.0
10.096,-0.16,-0.891,0.0
9.611,-0.154,-0.899,0.0
9.221,-0.149,-0.913,0.0
8.846,-0.144,-0.923,0.0
8.43,-0.138,-0.924,0.0
10.747,-0.176,-0.875,0.0
10.244,-0.169,-0.888,0.0
9.745,-0.162,-0.897,0.0
9.33,-0.156,-0.909,0.0
8.91,-0.15,-0.916,0.0
8.566,-0.146,-0.926,0.0
10.943,-0.185,-0.874,0.0
10.353,-0.177,-0.882,0.0
9.877,-0.17,-0.894,0.0
9.439,-0.164,-0.905,0.0
9.057,-0.158,-0.917,0.0
8.699,-0.153,-0.927,0.0
11.068,-0.194,-0.867,0.0
10.505,-0.185,-0.878,0.0
10.054,-0.178,-0.894,0.0
9.602,-0.172,-0.905,0.0
9.183,-0.165,-0.915,0.0
8.849,-0.16,-0.929,0.0
11.239,-0.203,-0.862,0.0
10.673,-0.194,-0.875,0.0
10.212,-0.186,-0.891,0.0
9.699,-0.178,-0.899,0.0
9.263,-0.171,-0.908,0.0
8.9,-0.166,-0.919,0.0
11.441,-0.212,-0.859,0.0
10.889,-0.203,-0.875,0.0
10.334,-0.194,-0.885,0.0
9.86,-0.186,-0.898,0.0
9.447,-0.179,-0.91,0.0
9.031,-0.172,-0.918,0.0
11.64,-0.221,-0.855,0.0
11.042,-0.211,-0.869,0.0
10.484,-0.201,-0.88,0.0
9.991,-0.193,-0.893,0.0
9.606,-0.186,-0.909,0.0
9.17,-0.179,-0.916,0.0
11.857,-0.23,-0.851,0.0
11.228,-0.219,-0.865,0.0
10.677,-0.209,-0.879,0.0
10.194,-0.201,-0.894,0.0
9.725,-0.193,-0.904,0.0
9.274,-0.185,-0.911,0.0
12.18,-0.241,-0.853,0.0
11.417,-0.227,-0.86,0.0
10.904,-0.218,-0.878,0.0
10.306,-0.207,-0.885,0.0
9.886,-0.2,-0.902,0.0
9.419,-0.191,-0.909,0.0
12.459,-0.251,-0.851,0.0
11.622,-0.235,-0.855,0.0
11.036,-0.224,-0.87,0.0
10.472,-0.214,-0.881,0.0
10.018,-0.206,-0.896,0.0
9.603,-0.198,-0.909,0.0
12.739,-0.261,-0.848,0.0
11.886,-0.245,-0.853,0.0
11.228,-0.232,-0.865,0.0
10.652,-0.221,-0.878,0.0
10.193,-0.212,-0.893,0.0
9.736,-0.203,-0.905,0.0
13.013,-0.27,-0.843,0.0
12.194,-0.254,-0.854,0.0
11.441,-0.239,-0.861,0.0
10.883,-0.229,-0.877,0.0
10.37,-0.219,-0.89,0.0
9.893,-0.209,-0.901,0.0
13.443,-0.283,-0.847,0.0
12.428,-0.262,-0.848,0.0
11.652,-0.247,-0.856,0.0
11.061,-0.235,-0.872,0.0
10.528,-0.224,-0.885,0.0
10.08,-0.215,-0.9,0.0
13.72,-0.292,-0.84,0.0
18.115,-0.386,-1.203,0.0
11.957,-0.256,-0.856,0.0
11.237,-0.241,-0.865,0.0
10.753,-0.231,-0.884,0.0
10.21,-0.22,-0.893,0.0
18.166,-0.389,-1.078,0.0
18.127,-0.389,-1.17,0.0
12.228,-0.263,-0.853,0.0
11.48,-0.248,-0.862,0.0
10.939,-0.237,-0.879,0.0
10.378,-0.225,-0.888,0.0
18.18,-0.392,-1.046,0.0
13.48,-0.291,-0.845,0.0
12.505,-0.271,-0.849,0.0
11.694,-0.254,-0.857,0.0
11.104,-0.242,-0.871,0.0
10.565,-0.23,-0.884,0.0
18.144,-0.393,-1.009,2.0
18.154,-0.394,-1.105,0.0
18.149,-0.395,-1.199,0.0
12.012,-0.262,-0.857,0.0
11.341,-0.248,-0.869,0.0
10.805,-0.236,-0.884,0.0
18.152,-0.395,-0.976,6.0
18.133,-0.395,-1.069,0.0
18.142,-0.396,-1.164,0.0
12.321,-0.269,-0.856,0.0
11.551,-0.253,-0.863,0.0
10.97,-0.24,-0.876,0.0
18.171,-0.396,-0.942,17.0
18.146,-0.395,-1.035,0.0
13.532,-0.295,-0.842,0.0
18.143,-0.396,-1.226,0.0
11.791,-0.258,-0.858,0.0
11.185,-0.245,-0.872,0.0
18.156,-0.395,-0.907,26.0
18.142,-0.395,-1.001,4.0
18.163,-0.396,-1.096,0.0
18.126,-0.396,-1.19,0.0
12.114,-0.264,-0.858,0.0
11.39,-0.249,-0.866,0.0
17.901,-0.389,-0.86,10.0
18.126,-0.394,-0.965,8.0
18.159,-0.395,-1.061,0.0
18.144,-0.395,-1.156,0.0
12.434,-0.27,-0.857,0.0
11.62,-0.253,-0.861,0.0
18.096,-0.391,-0.834,3.0
18.14,-0.392,-0.93,14.0
18.155,-0.393,-1.025,1.0
13.625,-0.295,-0.841,0.0
18.115,-0.392,-1.213,0.0
11.918,-0.258,-0.86,0.0
18.034,-0.388,-0.796,2.0
18.132,-0.39,-0.894,14.0
18.161,-0.39,-0.99,2.0
18.151,-0.39,-1.085,0.0
18.149,-0.39,-1.18,0.0
12.213,-0.262,-0.857,0.0
18.124,-0.387,-0.765,22.0
18.015,-0.384,-0.853,3.0
18.142,-0.387,-0.953,7.0
14.391,-0.306,-0.832,0.0
13.505,-0.287,-0.851,0.0
12.527,-0.266,-0.854,0.0
18.136,-0.383,-0.73,37.0
18.027,-0.381,-0.819,2.0
18.147,-0.383,-0.918,6.0
18.14,-0.382,-1.013,0.0
13.775,-0.29,-0.841,0.0
18.171,-0.382,-1.204,0.0
18.158,-0.379,-0.695,22.0
18.098,-0.377,-0.786,7.0
0.0,0.0,0.0,0.0
18.129,-0.377,-0.977,0.0
14.204,-0.295,-0.839,0.0
13.305,-0.276,-0.855,0.0
18.158,-0.374,-0.659,57.0
18.137,-0.373,-0.752,20.0
18.037,-0.37,-0.841,0.0
18.148,-0.372,-0.942,0.0
14.47,-0.296,-0.826,0.0
13.662,-0.279,-0.85,0.0
18.172,-0.368,-0.623,46.0
18.15,-0.367,-0.716,8.0
18.009,-0.364,-0.804,1.0
18.164,-0.366,-0.906,0.0
15.0,-0.302,-0.826,0.0
13.969,-0.28,-0.841,0.0
18.142,-0.361,-0.586,0.0
18.161,-0.361,-0.68,1.0
18.117,-0.359,-0.772,18.0
16.664,-0.329,-0.798,0.0
15.31,-0.302,-0.812,0.0
14.288,-0.281,-0.832,0.0
23.213,-0.453,-0.704,0.0
18.128,-0.353,-0.643,0.0
18.147,-0.352,-0.737,2.0
17.475,-0.338,-0.802,0.0
15.868,-0.306,-0.81,0.0
14.723,-0.283,-0.828,0.0
24.23,-0.462,-0.686,0.0
21.571,-0.41,-0.722,0.0
19.553,-0.371,-0.755,0.0
18.084,-0.342,-0.794,7.0
16.469,-0.31,-0.808,0.0
15.191,-0.285,-0.824,0.0
25.425,-0.473,-0.669,0.0
22.467,-0.416,-0.707,0.0
20.223,-0.373,-0.741,0.0
18.111,-0.333,-0.758,13.0
16.841,-0.308,-0.792,0.0
15.646,-0.285,-0.817,0.0
26.76,-0.484,-0.651,0.0
23.771,-0.428,-0.7,0.0
21.373,-0.383,-0.74,0.0
19.056,-0.34,-0.76,0.0
17.855,-0.317,-0.805,0.0
16.199,-0.286,-0.814,0.0
28.685,-0.503,-0.641,0.0
24.718,-0.431,-0.68,0.0
22.105,-0.384,-0.722,0.0
19.772,-0.341,-0.749,0.0
18.121,-0.311,-0.781,1.0
16.638,-0.284,-0.803,0.0
30.092,-0.51,-0.612,0.0
26.132,-0.44,-0.666,0.0
23.082,-0.386,-0.708,0.0
20.36,-0.339,-0.731,0.0
18.642,-0.309,-0.766,0.0
17.09,-0.281,-0.791,0.0
31.773,-0.518,-0.584,0.0
27.689,-0.449,-0.652,0.0
24.423,-0.393,-0.701,0.0
21.359,-0.342,-0.725,0.0
19.461,-0.309,-0.762,0.0
17.691,-0.28,-0.784,0.0
33.696,-0.527,-0.553,0.0
29.154,-0.453,-0.629,0.0
25.149,-0.388,-0.672,0.0
22.347,-0.342,-0.715,0.0
20.072,-0.305,-0.746,0.0
18.372,-0.277,-0.777,0.0
36.635,-0.547,-0.528,0.0
31.026,-0.46,-0.608,0.0
0.0,0.0,0.0,0.0
23.441,-0.342,-0.704,0.0
21.08,-0.305,-0.742,0.0
19.011,-0.273,-0.767,0.0
0.0,0.0,0.0,0.0
32.086,-0.451,-0.566,0.0
27.988,-0.39,-0.638,0.0
24.542,-0.339,-0.689,0.0
21.851,-0.299,-0.726,0.0
19.898,-0.27,-0.764,0.0
0.0,0.0,0.0,0.0
0.0,0.0,0.0,0.0
29.753,-0.392,-0.621,0.0
25.911,-0.338,-0.677,0.0
22.777,-0.294,-0.713,0.0
20.616,-0.263,-0.752,0.0
47.162,-0.594,-0.405,1.0
37.656,-0.469,-0.518,0.0
0.0,0.0,0.0,0.0
0.0,0.0,0.0,0.0
23.828,-0.287,-0.699,0.0
21.297,-0.254,-0.735,0.0
0.0,0.0,0.0,0.0
40.824,-0.474,-0.482,0.0
0.0,0.0,0.0,0.0
28.965,-0.328,-0.644,0.0
24.743,-0.276,-0.679,0.0
22.229,-0.245,-0.725,0.0
0.0,0.0,0.0,0.0
45.155,-0.483,-0.446,0.0
36.266,-0.383,-0.546,0.0
30.398,-0.316,-0.618,0.0
26.348,-0.27,-0.672,0.0
23.149,-0.234,-0.71,0.0
0.0,0.0,0.0,0.0
46.251,-0.452,-0.369,0.0
0.0,0.0,0.0,0.0
0.0,0.0,0.0,0.0
0.0,0.0,0.0,0.0
24.093,-0.22,-0.694,0.0
0.0,0.0,0.0,0.0
0.0,0.0,0.0,0.0
41.112,-0.356,-0.464,0.0
0.0,0.0,0.0,0.0
29.081,-0.242,-0.632,0.0
25.417,-0.207,-0.684,0.0
58.267,-0.465,0.055,1.0
0.0,0.0,0.0,0.0
0.0,0.0,0.0,0.0
0.0,0.0,0.0,0.0
30.529,-0.223,-0.607,0.0
26.515,-0.189,-0.664,0.0
0.0,0.0,0.0,0.0
0.0,0.0,0.0,0.0
0.0,0.0,0.0,0.0
39.943,-0.257,-0.512,0.0
0.0,0.0,0.0,0.0
28.16,-0.17,-0.653,0.0
110.89,-0.652,0.519,1.0
0.0,0.0,0.0,0.0
0.0,0.0,0.0,0.0
0.0,0.0,0.0,0.0
34.299,-0.176,-0.554,0.0
29.489,-0.146,-0.629,0.0
114.277,-0.547,0.744,3.0
0.0,0.0,0.0,0.0
0.0,0.0,0.0,0.0
45.314,-0.191,-0.414,1.0
0.0,0.0,0.0,0.0
30.898,-0.118,-0.603,0.0
119.752,-0.437,0.999,10.0
103.05,-0.357,0.324,3.0
0.0,0.0,0.0,0.0
48.831,-0.15,-0.358,0.0
40.236,-0.116,-0.504,0.0
32.621,-0.087,-0.579,0.0
119.77,-0.299,1.213,16.0
110.69,-0.254,0.546,3.0
0.0,0.0,0.0,0.0
0.0,0.0,0.0,0.0
0.0,0.0,0.0,0.0
34.608,-0.052,-0.553,0.0
117.475,-0.153,1.398,8.0
111.092,-0.123,0.744,12.0
0.0,0.0,0.0,0.0
0.0,0.0,0.0,0.0
45.146,-0.022,-0.407,1.0
0.0,0.0,0.0,0.0
117.323,-0.009,1.603,15.0
111.204,0.014,0.941,7.0
95.618,0.032,0.312,6.0
0.0,0.0,0.0,0.0
0.0,0.0,0.0,0.0
0.0,0.0,0.0,0.0
117.375,0.138,1.809,9.0
0.0,0.0,0.0,0.0
103.489,0.165,0.515,2.0
0.0,0.0,0.0,0.0
0.0,0.0,0.0,0.0
42.902,0.096,-0.461,1.0
119.877,0.296,2.055,16.0
111.201,0.299,1.326,12.0
110.827,0.322,0.742,8.0
0.0,0.0,0.0,0.0
0.0,0.0,0.0,0.0
45.378,0.162,-0.41,0.0
119.86,0.455,2.26,24.0
111.242,0.446,1.515,16.0
110.968,0.471,0.932,14.0
0.0,0.0,0.0,0.0
0.0,0.0,0.0,0.0
48.869,0.24,-0.36,0.0
111.095,0.571,2.279,26.0
111.057,0.596,1.698,28.0
111.051,0.622,1.117,23.0
97.639,0.568,0.46,3.0
0.0,0.0,0.0,0.0
0.0,0.0,0.0,0.0
111.067,0.724,2.462,26.0
111.104,0.749,1.88,19.0
0.0,0.0,0.0,0.0
104.74,0.756,0.666,13.0
85.048,0.633,0.094,4.0
0.0,0.0,0.0,0.0
104.77,0.83,2.492,29.0
0.0,0.0,0.0,0.0
100.329,0.841,1.334,3.0
98.585,0.85,0.784,8.0
84.631,0.75,0.23,9.0
0.0,0.0,0.0,0.0
104.73,0.979,2.658,38.0
104.787,1.005,2.11,9.0
98.7,0.969,1.468,20.0
98.566,0.992,0.94,26.0
85.605,0.882,0.366,6.0
0.0,0.0,0.0,0.0
98.66,1.065,2.658,26.0
98.602,1.089,2.139,26.0
98.547,1.112,1.62,28.0
98.556,1.137,1.092,29.0
97.99,1.155,0.571,7.0
79.024,0.951,0.045,5.0
98.581,1.212,2.809,25.0
98.559,1.236,2.29,32.0
98.543,1.26,1.771,28.0
98.539,1.285,1.243,32.0
98.486,1.309,0.724,19.0
80.997,1.096,0.169,4.0
98.453,1.359,2.955,24.0
98.573,1.385,2.439,25.0
98.697,1.41,1.921,22.0
98.629,1.435,1.391,22.0
92.081,1.362,0.812,9.0
84.771,1.276,0.302,7.0
119.982,1.838,3.778,13.0
119.864,1.867,3.142,9.0
91.976,1.456,1.925,16.0
91.913,1.478,1.43,37.0
91.873,1.502,0.945,12.0
91.815,1.524,0.459,5.0
120.45,2.032,3.967,12.0
91.844,1.573,2.54,22.0
91.862,1.596,2.054,38.0
87.622,1.546,1.488,8.0
91.88,1.645,1.076,23.0
91.844,1.669,0.591,14.0
91.799,1.693,3.154,28.0
91.812,1.718,2.669,28.0
87.048,1.652,2.071,15.0
91.893,1.768,1.691,27.0
119.98,2.341,1.574,8.0
85.493,1.69,0.668,23.0
91.702,1.839,3.279,17.0
91.871,1.867,2.799,31.0
85.386,1.758,2.149,17.0
85.332,1.779,1.687,33.0
85.286,1.8,1.234,36.0
85.278,1.823,0.783,31.0
85.292,1.849,3.166,17.0
85.26,1.871,2.713,37.0
85.252,1.894,2.261,35.0
85.235,1.915,1.799,40.0
85.226,1.938,1.347,38.0
85.24,1.962,0.895,32.0
78.909,1.84,3.034,9.0
85.288,2.011,2.826,29.0
85.264,2.033,2.372,29.0
85.283,2.058,1.912,29.0
85.3,2.081,1.459,28.0
85.326,2.104,1.006,24.0
78.908,1.971,3.136,2.0
78.846,1.99,2.714,27.0
78.981,2.014,2.298,9.0
78.955,2.035,1.869,27.0
78.93,2.055,1.449,31.0
78.909,2.076,1.028,28.0
78.794,2.098,3.23,32.0
78.814,2.121,2.811,35.0
78.834,2.142,2.391,34.0
78.747,2.16,1.961,11.0
76.812,2.128,1.504,2.0
75.076,2.101,1.07,5.0
78.951,2.235,3.332,13.0
78.785,2.252,2.905,15.0
78.823,2.273,2.485,25.0
78.747,2.293,2.055,2.0
74.386,2.186,1.544,6.0
78.901,2.341,1.217,23.0
117.973,3.54,5.118,13.0
78.802,2.386,2.998,24.0
78.965,2.412,2.581,1.0
74.423,2.293,2.028,4.0
119.994,3.731,2.629,8.0
194.508,6.1,3.221,8.0
72.507,2.299,3.228,19.0
72.522,2.319,2.841,13.0
72.504,2.339,2.452,20.0
72.483,2.358,2.056,33.0
72.431,2.376,1.667,36.0
72.385,2.395,1.28,33.0
72.377,2.42,3.303,30.0
72.41,2.441,2.917,36.0
72.407,2.461,2.529,37.0
72.39,2.481,2.133,37.0
72.389,2.501,1.745,36.0
72.361,2.52,1.357,31.0
72.37,2.547,3.382,28.0
72.41,2.568,2.994,33.0
72.422,2.589,2.606,30.0
72.45,2.61,2.211,32.0
72.458,2.63,1.823,25.0
72.473,2.651,1.434,19.0
66.288,2.45,3.167,24.0
72.55,2.701,3.075,24.0
190.756,7.154,7.061,19.0
210.73,7.961,6.645,10.0
194.818,7.413,5.097,14.0
120.098,4.602,2.496,24.0
65.947,2.553,3.216,34.0
66.131,2.578,2.868,20.0
66.191,2.598,2.515,23.0
190.73,7.541,6.2,8.0
119.921,4.775,3.253,5.0
63.626,2.552,1.384,10.0
65.752,2.663,3.27,24.0
66.018,2.691,2.927,14.0
66.029,2.71,2.571,31.0
66.055,2.729,2.21,35.0
64.472,2.682,1.809,24.0
61.706,2.584,1.399,5.0
65.923,2.787,3.34,27.0
65.973,2.808,2.986,17.0
65.982,2.826,2.629,25.0
66.043,2.846,2.268,30.0
62.902,2.728,1.821,11.0
66.067,2.885,1.557,17.0
52.887,2.33,2.726,6.0
52.767,2.34,2.434,11.0
52.782,2.355,2.149,5.0
66.146,2.969,2.329,5.0
61.399,2.773,1.83,9.0
66.16,3.007,1.614,16.0
52.937,2.427,2.773,18.0
52.445,2.419,2.463,11.0
52.793,2.449,2.193,13.0
0.0,0.0,0.0,0.0
0.0,0.0,0.0,0.0
120.164,5.676,3.029,22.0
59.472,2.835,3.164,9.0
59.445,2.85,2.84,28.0
52.555,2.534,2.225,26.0
65.771,3.189,2.421,0.0
125.328,6.112,3.935,2.0
50.856,2.494,1.321,6.0
52.424,2.594,2.829,15.0
52.693,2.622,2.557,26.0
59.422,2.973,2.561,18.0
59.444,2.99,2.233,29.0
59.471,3.008,1.911,28.0
50.715,2.579,1.354,16.0
59.414,3.048,3.25,10.0
59.399,3.063,2.926,7.0
59.399,3.078,2.602,9.0
59.39,3.094,2.272,35.0
59.398,3.111,1.949,32.0
50.586,2.663,1.385,33.0
59.348,3.151,3.287,14.0
59.352,3.167,2.963,15.0
59.404,3.186,2.641,7.0
59.458,3.204,2.314,29.0
59.445,3.22,1.989,24.0
50.591,2.754,1.418,44.0
41.84,2.297,2.344,14.0
52.459,2.894,2.652,20.0
52.987,2.937,2.389,9.0
119.684,6.667,4.732,31.0
119.7,6.701,4.08,28.0
50.538,2.842,1.447,14.0
41.55,2.357,2.353,10.0
52.938,3.016,2.708,5.0
52.515,3.006,2.399,9.0
119.004,6.845,4.774,13.0
51.005,2.947,1.767,3.0
49.419,2.869,1.443,7.0
41.588,2.434,2.379,8.0
52.223,3.07,2.7,14.0
115.431,6.818,5.337,14.0
115.453,6.85,4.695,40.0
50.916,3.034,1.792,12.0
49.043,2.935,1.457,12.0
41.639,2.512,2.403,36.0
90.797,5.503,4.743,3.0
90.874,5.532,4.248,12.0
111.036,6.787,4.57,26.0
50.755,3.116,1.811,4.0
48.365,2.982,1.461,7.0
41.61,2.586,2.421,38.0
52.342,3.266,2.758,26.0
90.301,5.658,4.263,9.0
111.006,6.984,4.619,11.0
49.934,3.155,1.804,7.0
47.919,3.041,1.468,4.0
41.433,2.65,2.43,39.0
52.262,3.355,2.777,39.0
52.292,3.371,2.491,41.0
52.317,3.386,2.199,30.0
52.317,3.4,1.912,5.0
47.367,3.09,1.47,15.0
41.489,2.728,2.449,39.0
52.249,3.448,2.796,30.0
52.25,3.461,2.509,44.0
52.227,3.473,2.215,46.0
52.242,3.488,1.928,11.0
47.257,3.167,1.484,46.0
41.651,2.814,2.474,46.0
52.283,3.544,2.817,25.0
52.252,3.556,2.527,25.0
52.238,3.567,2.233,33.0
52.231,3.58,1.944,10.0
52.227,3.593,1.657,36.0
41.609,2.885,2.485,39.0
52.351,3.642,2.837,23.0
52.375,3.657,2.548,13.0
52.341,3.667,2.253,15.0
47.192,3.318,1.771,14.0
52.308,3.691,1.674,17.0
41.646,2.961,2.498,42.0
80.469,5.741,4.382,14.0
90.564,6.483,4.431,13.0
90.335,6.49,3.911,20.0
90.537,6.527,3.419,2.0
102.08,7.385,3.292,46.0
41.653,3.035,2.509,32.0
79.708,5.827,4.359,13.0
90.906,6.668,4.467,22.0
71.406,5.254,3.107,9.0
101.973,7.528,3.872,19.0
101.987,7.556,3.309,35.0
74.187,5.536,4.483,9.0
79.182,5.927,4.345,12.0
91.335,6.859,4.504,12.0
71.385,5.377,3.118,21.0
101.978,7.707,3.889,23.0
102.007,7.734,3.325,36.0
46.021,3.513,2.788,16.0
79.556,6.093,4.377,23.0
91.273,7.011,4.514,11.0
71.705,5.525,3.141,23.0
91.402,7.063,3.498,13.0
101.191,7.844,3.31,18.0
45.881,3.582,2.784,13.0
45.936,3.596,2.532,15.0
45.905,3.604,2.275,28.0
45.933,3.617,2.016,27.0
45.919,3.627,1.76,31.0
45.911,3.637,1.505,35.0
45.802,3.653,2.783,39.0
45.845,3.667,2.53,37.0
45.814,3.675,2.273,40.0
45.825,3.686,2.014,38.0
45.836,3.698,1.759,41.0
45.824,3.708,1.504,42.0
45.767,3.728,2.782,43.0
45.802,3.741,2.529,40.0
45.793,3.751,2.273,39.0
45.815,3.762,2.014,39.0
45.817,3.773,1.759,38.0
45.797,3.782,1.503,42.0
45.757,3.804,2.781,45.0
45.822,3.82,2.529,40.0
45.811,3.828,2.273,37.0
45.827,3.84,2.013,36.0
45.834,3.851,1.758,31.0
45.811,3.859,1.502,30.0
45.778,3.882,2.78,38.0
45.87,3.899,2.529,26.0
45.898,3.912,2.274,20.0
45.937,3.925,2.015,7.0
45.97,3.938,1.759,4.0
45.911,3.943,1.501,12.0
45.862,3.965,2.782,38.0
85.55,7.414,4.71,15.0
86.043,7.474,4.255,14.0
92.198,8.029,4.035,27.0
93.117,8.129,3.554,61.0
93.123,8.15,3.035,58.0
72.475,6.383,4.386,11.0
85.353,7.535,4.687,35.0
85.564,7.572,4.22,31.0
92.336,8.191,4.027,15.0
93.141,8.282,3.541,15.0
93.008,8.29,3.016,5.0
73.676,6.608,4.447,27.0
84.676,7.611,4.636,31.0
85.589,7.711,4.205,37.0
93.004,8.397,4.039,25.0
93.018,8.417,3.519,23.0
92.067,8.351,2.967,2.0
72.481,6.615,4.36,28.0
84.643,7.741,4.617,31.0
85.617,7.847,4.189,27.0
93.012,8.544,4.019,27.0
93.0,8.562,3.497,16.0
91.415,8.435,2.925,7.0
84.725,7.864,5.077,19.0
84.453,7.855,4.585,41.0
92.73,8.642,4.514,13.0
92.537,8.642,3.975,15.0
92.325,8.641,3.447,12.0
90.566,8.495,2.874,11.0
73.289,6.915,4.371,30.0
84.467,7.986,4.562,10.0
91.966,8.711,4.449,14.0
91.731,8.707,3.912,18.0
91.516,8.705,3.389,8.0
89.81,8.561,2.821,12.0
73.011,7.0,4.331,26.0
73.089,7.02,3.924,36.0
91.158,8.772,4.381,15.0
90.929,8.768,3.848,16.0
90.713,8.764,3.328,3.0
89.085,8.624,2.768,14.0
72.849,7.092,4.297,35.0
73.159,7.134,3.902,30.0
88.774,8.673,4.234,12.0
88.646,8.677,3.719,15.0
88.615,8.691,3.219,6.0
88.392,8.685,2.713,3.0
73.08,7.22,4.282,33.0
73.229,7.248,3.877,23.0
88.54,8.779,4.187,37.0
88.535,8.793,3.679,32.0
87.862,8.742,3.156,2.0
87.801,8.753,2.659,8.0
88.524,8.874,5.149,26.0
88.537,8.889,4.649,39.0
88.536,8.904,4.149,37.0
88.561,8.922,3.641,33.0
87.298,8.81,3.096,2.0
87.146,8.81,2.599,8.0
88.564,9.001,5.111,30.0
88.496,9.008,4.606,24.0
88.421,9.015,4.102,20.0
88.27,9.014,3.587,17.0
86.611,8.859,3.03,3.0
86.543,8.867,2.54,12.0
88.069,9.071,5.04,22.0
87.937,9.07,4.534,21.0
87.794,9.069,4.029,18.0
87.676,9.071,3.52,15.0
86.038,8.916,2.968,9.0
85.916,8.918,2.478,11.0
87.466,9.125,4.959,24.0
87.316,9.123,4.456,23.0
87.228,9.127,3.957,18.0
87.073,9.125,3.447,7.0
85.413,8.964,2.9,12.0
85.306,8.967,2.413,10.0
86.897,9.18,4.878,16.0
84.168,8.903,4.248,12.0
84.157,8.914,3.77,33.0
84.142,8.925,3.285,51.0
84.148,8.938,2.809,56.0
84.156,8.952,2.333,53.0
84.131,8.992,4.675,52.0
84.131,9.004,4.197,55.0
84.145,9.017,3.72,56.0
84.151,9.03,3.235,43.0
84.193,9.048,2.759,19.0
84.272,9.07,2.284,13.0
84.226,9.108,4.627,15.0
84.182,9.114,4.147,16.0
84.082,9.115,3.665,14.0
84.0,9.118,3.176,4.0
83.918,9.121,2.696,4.0
83.748,9.116,2.216,8.0
84.042,9.189,4.563,15.0
84.05,9.201,4.085,19.0
84.062,9.214,3.608,15.0
83.387,9.151,3.097,3.0
83.365,9.161,2.623,5.0
83.249,9.16,2.147,12.0
84.067,9.291,4.506,26.0
84.077,9.303,4.028,23.0
84.085,9.314,3.552,13.0
82.896,9.193,3.021,8.0
82.883,9.203,2.551,11.0
82.786,9.204,2.077,12.0
54.592,6.095,2.888,16.0
84.059,9.395,3.969,21.0
83.96,9.394,3.486,3.0
82.384,9.228,2.944,8.0
82.429,9.243,2.478,11.0
82.34,9.245,2.006,11.0
83.815,9.449,4.373,15.0
83.721,9.448,3.891,23.0
82.117,9.276,3.349,2.0
82.01,9.274,2.87,9.0
82.011,9.284,2.403,12.0
81.904,9.283,1.935,12.0
83.368,9.487,4.287,22.0
83.296,9.487,3.808,19.0
81.621,9.306,3.266,3.0
81.587,9.312,2.792,11.0
81.572,9.32,2.328,12.0
81.468,9.318,1.861,10.0
82.935,9.522,4.2,21.0
82.835,9.519,3.722,13.0
81.265,9.347,3.188,9.0
81.23,9.352,2.716,12.0
81.23,9.361,2.254,8.0
67.758,7.817,1.494,9.0
67.752,7.846,3.376,7.0
67.731,7.85,2.988,9.0
67.627,7.845,2.597,10.0
66.52,7.724,2.168,13.0
66.369,7.713,1.786,27.0
66.332,7.717,1.407,31.0
66.328,7.744,3.248,29.0
66.314,7.748,2.869,42.0
66.322,7.756,2.491,53.0
66.298,7.759,2.105,63.0
66.304,7.767,1.727,71.0
66.314,7.776,1.349,85.0
66.296,7.801,3.19,72.0
66.29,7.806,2.81,64.0
66.289,7.812,2.432,60.0
66.31,7.82,2.048,50.0
66.337,7.83,1.67,38.0
66.381,7.842,1.293,25.0
66.306,7.859,3.132,35.0
66.342,7.869,2.754,28.0
66.439,7.886,2.379,21.0
66.478,7.897,1.994,16.0
66.443,7.899,1.613,16.0
66.372,7.897,1.233,15.0
66.399,7.926,3.075,15.0
66.342,7.924,2.693,18.0
66.284,7.922,2.312,15.0
66.203,7.918,1.924,17.0
66.106,7.913,1.544,17.0
66.034,7.91,1.165,15.0
66.142,7.947,3.002,16.0
66.068,7.943,2.62,17.0
65.977,7.936,2.239,14.0
65.901,7.933,1.853,16.0
65.823,7.929,1.475,15.0
65.765,7.928,1.099,15.0
65.819,7.957,2.925,13.0
65.805,7.96,2.547,17.0
65.664,7.947,2.166,15.0
65.62,7.947,1.783,16.0
65.541,7.943,1.406,15.0
65.466,7.939,1.03,15.0
65.578,7.975,2.85,13.0
65.489,7.967,2.471,15.0
65.424,7.964,2.093,15.0
65.339,7.958,1.711,19.0
65.284,7.956,1.336,15.0
65.204,7.952,0.962,15.0
65.278,7.982,2.771,15.0
65.228,7.979,2.396,14.0
65.167,7.975,2.021,15.0
65.094,7.97,1.639,16.0
65.048,7.969,1.266,16.0
64.975,7.965,0.893,16.0
65.073,7.997,2.697,15.0
65.009,7.992,2.322,14.0
64.94,7.987,1.947,16.0
64.87,7.982,1.567,17.0
64.826,7.981,1.196,18.0
64.755,7.977,0.824,15.0
64.853,8.007,2.622,14.0
64.782,8.001,2.248,12.0
64.734,7.998,1.875,15.0
64.655,7.992,1.496,19.0
64.606,7.99,1.125,16.0
64.543,7.986,0.755,18.0
64.639,8.015,2.546,13.0
64.564,8.008,2.173,13.0
64.531,8.007,1.802,17.0
64.455,8.0,1.424,19.0
64.434,8.001,1.054,17.0
64.365,7.996,0.686,18.0
64.479,8.026,2.471,13.0
64.414,8.02,2.099,19.0
64.353,8.015,1.729,17.0
64.304,8.012,1.353,18.0
64.252,8.008,0.983,15.0
64.2,8.005,0.616,18.0
64.307,8.033,2.397,14.0
64.238,8.026,2.025,15.0
64.2,8.023,1.656,18.0
64.116,8.015,1.281,17.0
64.101,8.016,0.913,17.0
64.049,8.013,0.545,17.0
64.131,8.036,2.321,12.0
64.096,8.034,1.952,14.0
64.045,8.029,1.583,17.0
63.995,8.025,1.208,17.0
63.957,8.022,0.841,16.0
63.91,8.019,0.475,18.0
64.007,8.044,2.245,12.0
63.956,8.038,1.877,13.0
63.913,8.034,1.509,17.0
63.875,8.031,1.136,16.0
63.828,8.027,0.769,17.0
63.807,8.027,0.403,18.0
63.882,8.047,2.171,14.0
63.847,8.044,1.803,15.0
63.806,8.039,1.436,18.0
63.745,8.033,1.063,18.0
63.707,8.03,0.697,17.0
63.681,8.029,0.332,18.0
63.793,8.053,2.097,15.0
63.737,8.046,1.728,16.0
63.708,8.043,1.363,17.0
63.675,8.04,0.991,17.0
63.632,8.036,0.625,19.0
63.606,8.035,0.26,18.0
63.716,8.056,2.022,15.0
63.681,8.052,1.656,17.0
63.626,8.045,1.29,15.0
63.61,8.044,0.918,19.0
63.564,8.039,0.553,18.0
63.538,8.038,0.188,17.0
63.63,8.056,1.948,16.0
63.623,8.055,1.583,17.0
63.579,8.049,1.217,16.0
63.541,8.045,0.845,15.0
63.505,8.041,0.481,17.0
63.46,8.037,0.117,16.0
63.583,8.058,1.875,14.0
63.587,8.057,1.51,18.0
63.56,8.054,1.145,15.0
63.507,8.047,0.773,18.0
63.471,8.043,0.409,17.0
63.429,8.039,0.045,14.0
63.578,8.062,1.803,14.0
63.548,8.057,1.436,17.0
63.536,8.055,1.071,13.0
63.469,8.046,0.701,18.0
63.44,8.042,0.336,20.0
63.381,8.035,-0.026,12.0
63.575,8.063,1.729,16.0
63.532,8.056,1.364,17.0
63.507,8.052,0.999,16.0
63.47,8.047,0.628,19.0
63.452,8.044,0.264,21.0
59.951,7.601,-0.093,7.0
63.568,8.061,1.657,17.0
63.557,8.057,1.292,17.0
63.497,8.049,0.927,17.0
63.48,8.046,0.555,19.0
63.465,8.043,0.192,18.0
45.69,5.79,-0.123,6.0
63.604,8.061,1.585,17.0
63.565,8.054,1.219,17.0
63.552,8.051,0.854,18.0
63.525,8.046,0.483,19.0
63.499,8.042,0.119,17.0
45.534,5.766,-0.175,19.0
63.627,8.057,1.512,18.0
63.62,8.053,1.147,17.0
63.554,8.043,0.781,15.0
63.553,8.041,0.411,19.0
63.544,8.039,0.046,14.0
42.375,5.36,-0.211,17.0
63.686,8.054,1.441,17.0
63.654,8.047,1.075,17.0
63.64,8.043,0.709,16.0
63.622,8.039,0.337,19.0
63.542,8.027,-0.026,8.0
41.4,5.229,-0.253,17.0
63.742,8.047,1.369,16.0
63.719,8.042,1.003,17.0
63.708,8.037,0.637,16.0
63.693,8.033,0.265,19.0
59.891,7.552,-0.093,7.0
40.332,5.085,-0.293,16.0
63.826,8.042,1.298,15.0
63.815,8.037,0.931,16.0
63.789,8.031,0.566,18.0
63.788,8.028,0.194,17.0
45.692,5.749,-0.122,11.0
39.57,4.978,-0.332,22.0
63.935,8.037,1.228,16.0
63.927,8.032,0.861,16.0
63.901,8.025,0.494,18.0
63.889,8.021,0.122,8.0
45.546,5.716,-0.173,19.0
39.117,4.908,-0.373,25.0
64.047,8.028,1.157,16.0
64.033,8.023,0.79,18.0
64.053,8.021,0.423,19.0
63.999,8.011,0.05,8.0
