X,Y,Z,Reflectivity
43.741,-1.313,5.035,40.0
43.716,-1.303,4.789,42.0
44.287,-1.319,6.111,47.0
44.599,-1.319,5.904,19.0
44.484,-1.306,5.64,35.0
44.039,-1.284,5.333,19.0
43.75,-1.266,5.054,38.0
43.739,-1.257,4.809,43.0
44.273,-1.27,6.128,20.0
44.515,-1.268,5.911,42.0
44.403,-1.256,5.647,28.0
44.59,-1.252,5.416,17.0
43.816,-1.221,5.077,23.0
43.78,-1.211,4.829,43.0
43.959,-1.214,6.1,39.0
44.99,-1.233,5.99,22.0
44.399,-1.207,5.661,29.0
44.414,-1.198,5.41,8.0
44.23,-1.185,5.14,37.0
43.853,-1.165,4.851,41.0
44.113,-1.17,6.135,40.0
44.654,-1.175,5.958,28.0
44.373,-1.158,5.671,18.0
51.296,-1.328,6.263,22.0
50.341,-1.292,5.864,14.0
43.988,-1.121,4.878,30.0
44.104,-1.121,6.146,43.0
44.607,-1.124,5.964,38.0
45.047,-1.126,5.768,21.0
44.505,-1.102,5.444,24.0
44.219,-1.087,5.161,38.0
44.044,-1.073,4.894,18.0
44.126,-1.072,6.158,43.0
44.714,-1.077,5.987,19.0
45.405,-1.084,5.824,20.0
44.47,-1.052,5.449,40.0
44.602,-1.046,5.214,23.0
44.155,-1.027,4.914,33.0
44.087,-1.021,6.161,42.0
46.08,-1.057,6.178,22.0
45.521,-1.035,5.846,33.0
44.405,-1.0,5.447,37.0
50.099,-1.118,5.864,17.0
43.66,-0.966,4.865,21.0
43.857,-0.966,6.134,44.0
47.405,-1.034,6.361,5.0
47.936,-1.035,6.161,10.0
48.398,-1.035,5.942,5.0
45.136,-0.957,5.287,19.0
43.888,-0.921,4.894,19.0
43.771,-0.914,6.126,37.0
44.463,-0.919,5.97,31.0
45.697,-0.935,5.877,20.0
48.094,-0.974,5.908,6.0
44.842,-0.899,5.255,14.0
43.744,-0.868,4.88,18.0
43.353,-0.855,6.069,26.0
44.25,-0.864,5.943,34.0
45.758,-0.883,5.885,27.0
48.075,-0.919,5.906,35.0
50.68,-0.958,5.94,7.0
43.941,-0.822,4.902,18.0
42.78,-0.794,5.988,36.0
44.298,-0.814,5.948,19.0
45.786,-0.832,5.888,27.0
44.446,-0.799,5.458,31.0
48.65,-0.864,5.7,12.0
43.996,-0.773,4.906,22.0
42.526,-0.741,5.95,44.0
43.939,-0.757,5.897,42.0
45.736,-0.778,5.878,20.0
44.511,-0.748,5.463,27.0
48.464,-0.805,5.673,19.0
43.906,-0.721,4.892,36.0
42.836,-0.697,5.989,35.0
43.171,-0.694,5.789,23.0
45.313,-0.718,5.818,21.0
47.985,-0.752,5.883,5.0
41.581,-0.643,4.862,44.0
41.327,-0.631,4.598,29.0
42.722,-0.645,5.967,43.0
43.02,-0.641,5.762,27.0
44.309,-0.652,5.682,18.0
41.403,-0.601,5.069,29.0
41.436,-0.593,4.837,29.0
41.494,-0.586,4.609,34.0
42.611,-0.594,5.943,37.0
42.964,-0.59,5.746,34.0
44.287,-0.6,5.669,6.0
41.378,-0.553,5.057,31.0
41.17,-0.542,4.797,37.0
41.281,-0.535,4.576,35.0
42.309,-0.541,5.89,34.0
43.284,-0.545,5.777,36.0
41.228,-0.511,5.267,12.0
41.38,-0.505,5.046,36.0
41.053,-0.493,4.772,38.0
41.196,-0.487,4.555,35.0
42.385,-0.493,5.888,35.0
43.055,-0.493,5.734,42.0
41.21,-0.463,5.252,28.0
41.411,-0.458,5.037,12.0
41.02,-0.446,4.755,43.0
41.208,-0.44,4.542,39.0
42.291,-0.443,5.86,43.0
42.858,-0.441,5.693,34.0
41.203,-0.416,5.236,34.0
40.976,-0.406,4.969,27.0
41.073,-0.4,4.746,41.0
41.204,-0.393,4.527,42.0
42.543,-0.397,5.879,45.0
42.762,-0.391,5.663,32.0
41.151,-0.369,5.213,31.0
41.008,-0.36,4.956,25.0
41.024,-0.353,4.723,37.0
41.256,-0.347,4.515,38.0
42.38,-0.347,5.838,35.0
43.64,-0.349,5.76,8.0
41.136,-0.322,5.193,33.0
41.003,-0.314,4.937,33.0
41.098,-0.307,4.713,39.0
41.467,-0.303,4.519,36.0
42.151,-0.297,5.786,32.0
43.46,-0.299,5.716,3.0
41.181,-0.276,5.179,35.0
41.094,-0.268,4.928,41.0
41.696,-0.264,4.761,38.0
41.288,-0.255,4.478,33.0
42.155,-0.25,5.765,39.0
41.175,-0.237,5.393,39.0
41.108,-0.229,5.148,36.0
41.05,-0.221,4.9,40.0
41.69,-0.218,4.737,28.0
41.181,-0.208,4.444,42.0
42.13,-0.203,5.738,40.0
41.256,-0.191,5.38,31.0
41.18,-0.184,5.132,42.0
41.095,-0.176,4.881,38.0
41.267,-0.17,4.665,18.0
41.088,-0.162,4.409,38.0
42.168,-0.156,5.717,35.0
48.414,-0.171,6.283,21.0
41.343,-0.139,5.127,31.0
41.14,-0.131,4.861,43.0
41.338,-0.125,4.647,28.0
41.12,-0.118,4.386,31.0
42.129,-0.11,5.684,37.0
48.229,-0.118,6.227,19.0
41.095,-0.093,5.069,39.0
41.068,-0.087,4.824,42.0
41.178,-0.08,4.601,41.0
41.564,-0.075,4.405,29.0
42.194,-0.064,5.663,32.0
45.154,-0.062,5.798,9.0
41.118,-0.049,5.042,39.0
41.225,-0.043,4.813,43.0
41.423,-0.036,4.598,20.0
41.616,-0.03,4.38,32.0
42.466,-0.019,5.667,31.0
41.255,-0.012,5.267,22.0
41.079,-0.006,5.006,36.0
41.135,0.0,4.771,16.0
41.354,0.006,4.558,37.0
41.478,0.013,4.333,41.0
42.37,0.026,5.621,45.0
41.193,0.031,5.225,33.0
41.081,0.037,4.973,10.0
41.082,0.043,4.732,36.0
41.373,0.05,4.527,30.0
41.406,0.056,4.292,39.0
42.415,0.069,5.591,46.0
41.124,0.074,5.182,36.0
40.961,0.079,4.924,27.0
41.082,0.086,4.697,42.0
41.385,0.092,4.492,30.0
41.39,0.099,4.255,44.0
41.892,0.112,5.485,25.0
41.203,0.116,5.155,35.0
43.129,0.128,5.146,3.0
41.588,0.129,4.718,28.0
41.231,0.134,4.439,34.0
41.422,0.14,4.221,42.0
42.172,0.155,5.483,38.0
41.063,0.157,5.1,25.0
41.261,0.163,4.885,16.0
41.313,0.169,4.648,27.0
41.17,0.174,4.394,31.0
41.26,0.18,4.165,43.0
41.88,0.195,5.405,24.0
40.93,0.196,5.044,16.0
41.086,0.203,4.825,38.0
41.404,0.21,4.618,27.0
41.176,0.214,4.354,34.0
41.263,0.221,4.125,32.0
40.649,0.229,5.205,22.0
40.703,0.234,4.975,32.0
41.263,0.244,4.804,35.0
41.248,0.249,4.559,30.0
41.353,0.255,4.331,26.0
41.516,0.261,4.108,16.0
40.792,0.269,5.181,40.0
40.766,0.274,4.94,41.0
41.246,0.283,4.759,42.0
41.109,0.286,4.5,37.0
41.319,0.293,4.284,45.0
41.699,0.301,4.082,20.0
40.705,0.306,5.126,44.0
40.869,0.313,4.908,38.0
41.205,0.32,4.708,22.0
41.219,0.325,4.466,28.0
41.338,0.332,4.24,41.0
0.0,0.0,0.0,0.0
40.691,0.344,5.078,43.0
40.722,0.348,4.845,44.0
41.139,0.357,4.655,37.0
41.142,0.362,4.412,48.0
41.385,0.369,4.198,33.0
47.234,0.426,4.518,12.0
40.742,0.38,5.037,44.0
40.89,0.386,4.817,47.0
41.351,0.395,4.63,40.0
41.288,0.399,4.379,40.0
41.422,0.405,4.153,43.0
47.167,0.467,4.456,9.0
40.83,0.417,4.999,39.0
40.945,0.422,4.774,43.0
41.19,0.429,4.562,39.0
41.476,0.436,4.349,35.0
41.594,0.442,4.119,44.0
41.84,0.449,3.901,17.0
40.717,0.45,4.934,40.0
41.312,0.461,4.765,41.0
41.003,0.461,4.49,37.0
41.521,0.472,4.301,29.0
41.546,0.476,4.063,40.0
41.286,0.477,3.798,38.0
40.666,0.483,4.876,44.0
41.702,0.499,4.757,46.0
41.098,0.496,4.448,53.0
41.513,0.505,4.247,44.0
41.197,0.505,3.975,38.0
40.939,0.506,3.712,41.0
40.868,0.518,4.846,45.0
41.431,0.529,4.671,30.0
41.038,0.527,4.387,31.0
41.351,0.535,4.175,39.0
41.102,0.536,3.911,40.0
41.124,0.54,3.675,39.0
40.753,0.548,4.778,32.0
40.698,0.55,4.533,44.0
41.397,0.563,4.369,38.0
41.217,0.565,4.106,40.0
41.114,0.566,3.857,45.0
40.856,0.566,3.596,39.0
40.674,0.576,4.713,42.0
40.716,0.58,4.479,38.0
41.284,0.592,4.301,27.0
41.091,0.592,4.037,47.0
40.936,0.593,3.784,41.0
40.977,0.597,3.55,32.0
40.712,0.605,4.66,38.0
40.655,0.608,4.416,45.0
41.148,0.618,4.229,40.0
41.116,0.621,3.981,40.0
40.934,0.621,3.725,37.0
40.982,0.625,3.492,42.0
40.677,0.633,4.597,39.0
40.73,0.636,4.364,44.0
41.205,0.647,4.174,32.0
41.106,0.648,3.92,46.0
40.916,0.648,3.664,40.0
41.026,0.653,3.435,28.0
40.592,0.658,4.527,42.0
40.784,0.664,4.309,42.0
41.079,0.672,4.1,34.0
41.236,0.677,3.871,36.0
40.777,0.672,3.591,36.0
40.788,0.674,3.355,38.0
40.82,0.687,4.49,48.0
40.908,0.691,4.261,41.0
41.093,0.697,4.04,37.0
41.045,0.698,3.791,37.0
40.797,0.697,3.531,29.0
40.806,0.699,3.294,40.0
40.933,0.713,4.44,32.0
40.96,0.716,4.203,45.0
41.048,0.72,3.972,43.0
41.007,0.721,3.724,40.0
40.929,0.722,3.479,39.0
40.786,0.722,3.229,37.0
40.701,0.732,4.35,41.0
41.354,0.746,4.178,23.0
41.255,0.746,3.926,42.0
40.734,0.739,3.635,39.0
41.041,0.746,3.423,38.0
40.822,0.744,3.168,41.0
40.791,0.756,4.295,45.0
41.373,0.768,4.114,29.0
41.05,0.764,3.841,37.0
40.721,0.759,3.568,38.0
40.795,0.763,3.337,45.0
40.953,0.768,3.112,39.0
40.842,0.777,4.233,45.0
41.175,0.785,4.026,39.0
40.726,0.778,3.744,42.0
40.909,0.783,3.518,35.0
40.825,0.783,3.273,42.0
40.907,0.786,3.041,42.0
41.038,0.799,4.186,30.0
40.907,0.798,3.933,44.0
40.751,0.796,3.68,42.0
40.917,0.801,3.452,43.0
40.966,0.803,3.217,39.0
41.164,0.808,2.993,32.0
41.535,0.827,4.168,23.0
40.954,0.816,3.869,40.0
40.804,0.814,3.616,30.0
40.925,0.818,3.384,39.0
41.026,0.821,3.153,43.0
41.058,0.823,2.917,31.0
41.368,0.84,4.08,33.0
40.688,0.827,3.775,45.0
40.657,0.827,3.534,35.0
40.739,0.83,3.299,36.0
40.951,0.835,3.077,39.0
41.02,0.837,2.843,14.0
41.042,0.848,3.977,36.0
40.696,0.841,3.705,40.0
40.784,0.844,3.475,38.0
40.855,0.846,3.237,40.0
41.027,0.851,3.012,40.0
41.435,0.86,2.8,10.0
40.889,0.858,3.89,37.0
40.696,0.854,3.633,40.0
40.699,0.855,3.395,40.0
40.967,0.861,3.174,36.0
41.013,0.863,2.938,43.0
78.872,1.661,5.191,3.0
41.106,0.875,3.837,28.0
40.68,0.866,3.559,20.0
40.65,0.866,3.318,42.0
40.875,0.87,3.094,44.0
40.956,0.872,2.861,38.0
70.006,1.493,4.482,3.0
40.762,0.878,3.732,39.0
40.758,0.878,3.492,26.0
40.798,0.879,3.257,41.0
40.908,0.881,3.022,45.0
41.363,0.891,2.814,25.0
84.172,1.814,5.236,10.0
40.656,0.884,3.647,41.0
40.583,0.882,3.402,40.0
40.833,0.888,3.184,40.0
40.979,0.891,2.952,26.0
41.412,0.9,2.742,2.0
70.79,1.539,4.274,5.0
40.6,0.891,3.567,43.0
40.69,0.892,3.337,42.0
40.843,0.895,3.11,46.0
40.933,0.897,2.874,31.0
78.893,1.728,5.078,3.0
72.738,1.593,4.258,1.0
40.729,0.899,3.502,31.0
40.829,0.901,3.271,47.0
40.878,0.901,3.036,41.0
41.352,0.911,2.825,32.0
78.642,1.732,4.915,3.0
81.083,1.785,4.596,4.0
40.563,0.9,3.412,40.0
40.868,0.906,3.198,41.0
41.067,0.909,2.973,28.0
41.376,0.915,2.75,7.0
74.239,1.641,4.501,3.0
82.889,1.831,4.542,9.0
40.71,0.906,3.348,42.0
40.84,0.908,3.119,43.0
40.952,0.909,2.888,25.0
85.133,1.888,5.499,5.0
80.706,1.788,4.742,3.0
85.325,1.889,4.517,15.0
40.912,0.912,3.287,49.0
40.881,0.91,3.045,41.0
41.337,0.918,2.837,19.0
78.643,1.745,4.931,5.0
81.031,1.796,4.608,3.0
85.321,1.888,4.354,34.0
40.912,0.911,3.209,41.0
41.081,0.914,2.981,29.0
41.389,0.919,2.761,10.0
74.163,1.644,4.507,4.0
81.168,1.797,4.46,2.0
85.307,1.885,4.191,30.0
40.847,0.908,3.125,44.0
40.931,0.908,2.891,27.0
78.724,1.744,5.1,4.0
80.657,1.783,4.747,3.0
85.333,1.883,4.525,14.0
85.318,1.879,4.027,32.0
40.884,0.905,3.048,43.0
41.339,0.913,2.84,30.0
84.351,1.86,5.303,12.0
80.959,1.781,4.608,4.0
85.291,1.873,4.356,36.0
85.297,1.869,3.859,34.0
41.007,0.903,2.977,27.0
41.359,0.908,2.76,7.0
74.326,1.629,4.527,4.0
0.0,0.0,0.0,0.0
85.306,1.861,4.191,32.0
85.294,1.856,3.695,31.0
40.943,0.895,2.893,36.0
78.9,1.72,5.112,4.0
80.868,1.758,4.767,5.0
85.294,1.849,4.521,11.0
85.309,1.845,4.025,32.0
85.302,1.84,3.527,15.0
41.324,0.895,2.838,33.0
84.382,1.822,5.301,12.0
81.149,1.747,4.623,8.0
85.308,1.831,4.354,33.0
85.314,1.825,3.857,31.0
78.863,1.683,3.106,22.0
41.398,0.886,2.761,1.0
74.421,1.588,4.527,6.0
81.46,1.733,4.48,12.0
85.292,1.808,4.182,27.0
85.322,1.803,3.687,31.0
85.305,1.797,3.19,32.0
83.602,1.766,5.409,11.0
70.346,1.481,4.14,0.0
84.531,1.774,4.482,24.0
85.321,1.784,4.018,26.0
78.837,1.643,3.252,14.0
85.331,1.772,3.024,26.0
74.833,1.558,4.695,4.0
80.977,1.679,4.607,6.0
85.147,1.758,4.347,18.0
85.333,1.756,3.851,30.0
85.358,1.75,3.354,16.0
85.392,1.744,2.859,13.0
74.618,1.527,4.535,7.0
82.024,1.671,4.505,8.0
85.36,1.731,4.19,30.0
85.352,1.725,3.683,18.0
85.422,1.719,3.188,12.0
91.828,1.84,2.894,32.0
74.827,1.501,4.399,5.0
84.932,1.696,4.496,9.0
85.403,1.698,4.022,26.0
78.793,1.56,3.244,20.0
91.704,1.807,3.241,29.0
91.816,1.801,2.71,28.0
80.69,1.584,4.583,3.0
91.441,1.786,4.66,11.0
85.495,1.662,3.859,11.0
91.572,1.771,3.589,14.0
91.797,1.767,3.062,32.0
91.817,1.758,2.528,27.0
82.031,1.571,4.495,12.0
85.421,1.627,4.181,14.0
78.78,1.493,3.396,12.0
91.673,1.728,3.408,22.0
91.806,1.722,2.879,30.0
91.706,1.71,2.342,19.0
91.472,1.705,4.83,11.0
91.468,1.695,4.295,14.0
91.6,1.688,3.768,11.0
91.817,1.682,3.232,30.0
91.773,1.671,2.696,29.0
91.834,1.663,2.163,35.0
91.459,1.654,4.646,13.0
91.508,1.644,4.115,19.0
70.235,1.254,2.748,5.0
91.9,1.631,3.052,27.0
91.8,1.619,2.515,33.0
91.842,1.61,1.981,37.0
85.53,1.496,4.175,12.0
78.73,1.368,3.384,14.0
70.084,1.209,2.603,8.0
91.941,1.576,2.872,15.0
91.866,1.564,2.334,34.0
91.867,1.553,1.8,35.0
92.231,1.556,4.32,14.0
120.411,2.016,4.938,19.0
70.035,1.164,2.463,6.0
91.931,1.516,2.688,16.0
91.942,1.505,2.152,29.0
91.918,1.493,1.616,36.0
78.725,1.275,3.53,22.0
120.381,1.934,4.696,14.0
70.182,1.118,2.329,5.0
119.905,1.896,3.269,26.0
91.994,1.443,1.973,10.0
91.98,1.431,1.437,28.0
120.484,1.866,5.166,16.0
120.207,1.846,4.452,11.0
98.613,1.501,3.077,11.0
98.667,1.489,2.496,8.0
119.876,1.793,2.335,21.0
98.981,1.467,1.352,16.0
98.257,1.449,4.02,16.0
70.03,1.023,2.457,11.0
98.531,1.426,2.883,26.0
98.63,1.413,2.301,28.0
98.623,1.4,1.728,29.0
98.621,1.386,1.154,30.0
69.901,0.976,2.722,9.0
69.813,0.965,2.312,11.0
98.508,1.348,2.69,28.0
98.574,1.335,2.109,32.0
98.49,1.32,1.535,28.0
98.545,1.307,0.964,28.0
69.755,0.918,2.582,14.0
98.458,1.281,3.071,32.0
98.533,1.267,2.499,33.0
98.556,1.252,1.917,31.0
98.504,1.238,1.345,28.0
98.368,1.222,0.771,14.0
69.851,0.86,2.451,11.0
98.617,1.198,2.885,26.0
98.546,1.182,2.309,30.0
98.544,1.167,1.726,39.0
98.561,1.151,1.152,31.0
85.528,0.986,0.502,5.0
98.676,1.126,3.269,20.0
98.629,1.109,2.694,21.0
98.609,1.094,2.121,27.0
98.587,1.078,1.537,32.0
98.506,1.062,0.964,20.0
85.502,0.908,0.34,9.0
98.743,1.035,3.083,21.0
98.717,1.019,2.508,21.0
98.677,1.002,1.934,20.0
98.67,0.986,1.351,28.0
98.438,0.968,0.775,15.0
81.898,0.792,0.169,2.0
104.679,0.998,3.07,23.0
104.733,0.98,2.462,40.0
104.737,0.962,1.853,41.0
104.747,0.945,1.236,24.0
98.053,0.868,0.587,10.0
0.0,0.0,0.0,0.0
104.724,0.893,2.872,34.0
104.719,0.875,2.264,27.0
104.758,0.857,1.656,37.0
104.778,0.838,1.036,31.0
85.323,0.667,0.348,4.0
0.0,0.0,0.0,0.0
104.763,0.784,2.675,20.0
99.977,0.731,1.973,5.0
104.856,0.748,1.461,32.0
104.815,0.729,0.841,21.0
85.975,0.583,0.191,6.0
0.0,0.0,0.0,0.0
111.063,0.714,2.632,23.0
100.199,0.626,1.792,5.0
99.942,0.606,1.207,6.0
104.541,0.614,0.645,4.0
0.0,0.0,0.0,0.0
52.705,0.29,-0.286,0.0
111.059,0.591,2.426,26.0
100.549,0.517,1.614,2.0
111.016,0.55,1.137,17.0
90.85,0.433,0.395,2.0
0.0,0.0,0.0,0.0
0.0,0.0,0.0,0.0
193.275,0.811,3.87,18.0
101.235,0.405,1.439,2.0
110.851,0.423,0.934,12.0
0.0,0.0,0.0,0.0
0.0,0.0,0.0,0.0
42.919,0.139,-0.388,0.0
119.867,0.364,2.184,8.0
119.692,0.339,1.487,8.0
104.13,0.275,0.691,10.0
0.0,0.0,0.0,0.0
52.579,0.118,-0.265,0.0
42.884,0.088,-0.464,0.0
111.133,0.206,1.83,7.0
111.189,0.183,1.185,16.0
0.0,0.0,0.0,0.0
0.0,0.0,0.0,0.0
49.905,0.051,-0.34,0.0
0.0,0.0,0.0,0.0
111.056,0.069,1.631,15.0
111.069,0.047,0.989,7.0
95.725,0.02,0.297,3.0
0.0,0.0,0.0,0.0
45.105,-0.009,-0.386,2.0
36.809,-0.014,-0.528,0.0
111.159,-0.069,1.44,13.0
110.842,-0.092,0.794,10.0
0.0,0.0,0.0,0.0
0.0,0.0,0.0,0.0
40.931,-0.06,-0.421,0.0
34.548,-0.058,-0.556,0.0
119.705,-0.229,1.344,17.0
110.59,-0.235,0.602,1.0
0.0,0.0,0.0,0.0
0.0,0.0,0.0,0.0
39.977,-0.111,-0.48,0.0
32.152,-0.097,-0.572,0.0
119.763,-0.387,1.141,11.0
103.089,-0.357,0.385,2.0
0.0,0.0,0.0,0.0
45.246,-0.176,-0.358,1.0
0.0,0.0,0.0,0.0
0.0,0.0,0.0,0.0
119.729,-0.55,0.938,4.0
270.427,-1.302,0.559,85.0
0.0,0.0,0.0,0.0
0.0,0.0,0.0,0.0
0.0,0.0,0.0,0.0
29.0,-0.166,-0.613,0.0
110.961,-0.662,0.687,6.0
0.0,0.0,0.0,0.0
0.0,0.0,0.0,0.0
0.0,0.0,0.0,0.0
32.912,-0.227,-0.56,0.0
27.679,-0.197,-0.631,0.0
111.584,-0.822,0.51,2.0
0.0,0.0,0.0,0.0
0.0,0.0,0.0,0.0
0.0,0.0,0.0,0.0
0.0,0.0,0.0,0.0
26.595,-0.227,-0.649,0.0
0.0,0.0,0.0,0.0
0.0,0.0,0.0,0.0
0.0,0.0,0.0,0.0
35.039,-0.333,-0.506,0.0
29.823,-0.291,-0.602,0.0
25.327,-0.253,-0.657,0.0
0.0,0.0,0.0,0.0
0.0,0.0,0.0,0.0
0.0,0.0,0.0,0.0
34.736,-0.381,-0.555,0.0
28.356,-0.318,-0.616,0.0
24.351,-0.279,-0.67,0.0
0.0,0.0,0.0,0.0
0.0,0.0,0.0,0.0
40.01,-0.488,-0.465,0.0
32.321,-0.403,-0.566,0.0
27.2,-0.346,-0.633,0.0
23.397,-0.303,-0.679,0.0
0.0,0.0,0.0,0.0
46.859,-0.631,-0.346,1.0
0.0,0.0,0.0,0.0
30.784,-0.43,-0.585,0.0
26.016,-0.37,-0.644,0.0
22.676,-0.329,-0.692,0.0
0.0,0.0,0.0,0.0
46.621,-0.699,-0.413,0.0
0.0,0.0,0.0,0.0
29.364,-0.456,-0.601,0.0
25.027,-0.395,-0.656,0.0
22.014,-0.353,-0.704,0.0
0.0,0.0,0.0,0.0
41.461,-0.686,-0.427,0.0
0.0,0.0,0.0,0.0
28.09,-0.48,-0.615,0.0
24.324,-0.422,-0.673,0.0
21.463,-0.378,-0.717,0.0
50.335,-0.899,-0.301,0.0
0.0,0.0,0.0,0.0
0.0,0.0,0.0,0.0
0.0,0.0,0.0,0.0
23.41,-0.443,-0.68,0.0
20.72,-0.398,-0.722,0.0
46.165,-0.898,-0.339,1.0
0.0,0.0,0.0,0.0
30.572,-0.611,-0.576,0.0
26.286,-0.533,-0.649,0.0
18.163,-0.373,-0.553,1.0
18.148,-0.378,-0.657,45.0
44.863,-0.945,-0.391,2.0
0.0,0.0,0.0,0.0
0.0,0.0,0.0,0.0
18.16,-0.398,-0.473,0.0
18.103,-0.401,-0.575,157.0
18.124,-0.407,-0.68,63.0
0.0,0.0,0.0,0.0
0.0,0.0,0.0,0.0
0.0,0.0,0.0,0.0
18.151,-0.427,-0.496,66.0
18.116,-0.431,-0.599,194.0
18.115,-0.437,-0.704,65.0
0.0,0.0,0.0,0.0
0.0,0.0,0.0,0.0
21.907,-0.546,-0.499,32.0
21.876,-0.551,-0.626,19.0
18.098,-0.461,-0.622,157.0
18.127,-0.467,-0.727,16.0
38.058,-0.991,-0.479,0.0
21.949,-0.577,-0.402,0.0
21.86,-0.581,-0.525,206.0
21.874,-0.588,-0.653,150.0
21.899,-0.595,-0.78,23.0
21.886,-0.601,-0.905,15.0
37.766,-1.046,-0.521,0.0
21.921,-0.613,-0.428,10.0
21.855,-0.618,-0.551,171.0
21.869,-0.625,-0.679,62.0
21.879,-0.631,-0.805,9.0
18.163,-0.529,-0.772,1.0
34.73,-1.02,-0.52,0.0
0.0,0.0,0.0,0.0
21.894,-0.656,-0.578,11.0
21.86,-0.661,-0.705,10.0
19.582,-0.598,-0.743,0.0
17.662,-0.545,-0.771,0.0
34.436,-1.07,-0.555,0.0
0.0,0.0,0.0,0.0
24.381,-0.772,-0.671,0.0
21.869,-0.699,-0.729,3.0
19.208,-0.619,-0.75,0.0
17.375,-0.566,-0.778,0.0
0.0,0.0,0.0,0.0
0.0,0.0,0.0,0.0
23.518,-0.785,-0.673,0.0
20.709,-0.698,-0.713,0.0
18.69,-0.635,-0.751,0.0
17.138,-0.588,-0.786,0.0
31.155,-1.076,-0.57,0.0
26.446,-0.921,-0.634,0.0
23.183,-0.814,-0.688,0.0
20.483,-0.726,-0.727,0.0
18.455,-0.66,-0.761,0.0
16.755,-0.604,-0.786,0.0
30.045,-1.09,-0.58,0.0
26.208,-0.959,-0.656,0.0
22.575,-0.833,-0.694,0.0
20.164,-0.75,-0.737,0.0
18.105,-0.679,-0.765,0.0
16.439,-0.622,-0.788,0.0
0.0,0.0,0.0,0.0
25.16,-0.965,-0.655,0.0
21.757,-0.841,-0.69,0.0
19.659,-0.766,-0.738,0.0
17.667,-0.694,-0.764,0.0
16.208,-0.642,-0.793,0.0
28.376,-1.13,-0.604,0.0
0.0,0.0,0.0,0.0
21.546,-0.871,-0.704,0.0
19.198,-0.782,-0.738,0.0
17.52,-0.719,-0.774,0.0
16.016,-0.663,-0.799,0.0
0.0,0.0,0.0,0.0
24.212,-1.014,-0.675,0.0
21.344,-0.901,-0.717,0.0
18.767,-0.798,-0.739,0.0
17.273,-0.74,-0.779,0.0
15.777,-0.681,-0.801,0.0
26.778,-1.161,-0.618,0.0
23.442,-1.024,-0.674,0.0
21.051,-0.926,-0.725,0.0
18.623,-0.825,-0.75,0.0
16.99,-0.758,-0.78,0.0
15.572,-0.7,-0.804,0.0
26.544,-1.199,-0.635,0.0
22.926,-1.043,-0.679,0.0
20.335,-0.931,-0.718,0.0
18.409,-0.849,-0.756,0.0
16.709,-0.776,-0.781,0.0
15.384,-0.72,-0.807,0.0
20.07,-0.942,-0.496,1.0
0.0,0.0,0.0,0.0
19.828,-0.944,-0.716,3.0
18.02,-0.863,-0.754,0.0
16.598,-0.801,-0.789,0.0
15.206,-0.739,-0.81,0.0
20.076,-0.979,-0.512,23.0
20.092,-0.986,-0.626,3.0
19.83,-0.98,-0.731,2.0
17.964,-0.894,-0.766,0.0
20.113,-1.007,-0.971,0.0
15.141,-0.763,-0.817,0.0
20.062,-1.014,-0.526,33.0
20.081,-1.022,-0.641,20.0
19.841,-1.016,-0.745,1.0
20.109,-1.036,-0.871,0.0
20.077,-1.041,-0.984,0.0
14.969,-0.781,-0.818,0.0
20.08,-1.051,-0.54,27.0
20.072,-1.057,-0.654,11.0
19.71,-1.045,-0.753,0.0
17.428,-0.93,-0.767,0.0
16.087,-0.863,-0.799,0.0
14.777,-0.798,-0.818,0.0
23.654,-1.281,-0.652,0.0
21.212,-1.156,-0.705,0.0
19.259,-1.055,-0.748,0.0
17.4,-0.96,-0.776,0.0
15.966,-0.886,-0.803,0.0
14.663,-0.818,-0.821,0.0
23.665,-1.325,-0.667,2.0
20.966,-1.18,-0.709,0.0
19.01,-1.076,-0.75,0.0
17.21,-0.98,-0.778,0.0
15.813,-0.906,-0.804,0.0
14.561,-0.839,-0.823,0.0
20.01,-1.156,-0.575,7.0
19.969,-1.16,-0.686,3.0
19.369,-1.132,-0.775,0.0
20.091,-1.181,-0.92,0.0
20.075,-1.187,-1.032,0.0
14.454,-0.86,-0.825,0.0
19.984,-1.191,-0.585,86.0
19.956,-1.196,-0.696,18.0
0.0,0.0,0.0,0.0
16.871,-1.022,-0.781,0.0
15.606,-0.951,-0.81,0.0
14.359,-0.88,-0.827,0.0
20.027,-1.23,-0.596,0.0
19.983,-1.234,-0.707,4.0
18.341,-1.139,-0.752,0.0
20.129,-1.256,-0.941,0.0
15.374,-0.965,-0.805,0.0
14.237,-0.898,-0.826,0.0
20.131,-1.272,-0.608,26.0
19.99,-1.27,-0.716,3.0
20.088,-1.283,-0.833,0.0
20.128,-1.293,-0.95,0.0
15.343,-0.991,-0.81,0.0
14.236,-0.924,-0.832,0.0
20.121,-1.308,-0.616,30.0
19.927,-1.302,-0.722,3.0
20.166,-1.324,-0.844,0.0
20.103,-1.327,-0.956,0.0
15.186,-1.008,-0.808,0.0
14.126,-0.942,-0.831,0.0
20.145,-1.346,-0.624,6.0
19.822,-1.331,-0.725,2.0
18.073,-1.219,-0.762,0.0
16.481,-1.118,-0.79,0.0
15.221,-1.037,-0.815,0.0
14.124,-0.967,-0.836,0.0
22.321,-1.531,-0.698,0.0
19.763,-1.362,-0.729,2.0
18.031,-1.248,-0.766,0.0
16.51,-1.149,-0.796,0.0
15.139,-1.058,-0.815,0.0
14.01,-0.984,-0.833,0.0
22.117,-1.555,-0.698,0.0
19.726,-1.394,-0.733,2.0
17.839,-1.267,-0.763,0.0
16.434,-1.172,-0.796,0.0
15.008,-1.076,-0.812,0.0
13.943,-1.004,-0.832,0.0
22.293,-1.607,-0.709,0.0
19.703,-1.427,-0.737,3.0
17.857,-1.299,-0.768,0.0
16.39,-1.198,-0.798,0.0
15.016,-1.103,-0.815,0.0
13.905,-1.026,-0.833,0.0
21.95,-1.621,-0.702,0.0
19.667,-1.459,-0.739,0.0
17.785,-1.325,-0.768,0.0
16.375,-1.226,-0.8,0.0
14.958,-1.125,-0.815,0.0
13.901,-1.05,-0.835,0.0
21.929,-1.657,-0.705,0.0
19.707,-1.496,-0.744,0.0
17.672,-1.347,-0.766,0.0
16.295,-1.248,-0.799,0.0
14.968,-1.151,-0.817,0.0
13.874,-1.072,-0.835,0.0
21.81,-1.686,-0.704,0.0
19.541,-1.517,-0.74,0.0
17.797,-1.387,-0.773,0.0
16.475,-1.29,-0.809,0.0
14.918,-1.173,-0.816,0.0
13.875,-1.096,-0.836,0.0
22.114,-1.747,-0.715,1.0
19.376,-1.537,-0.735,0.0
17.686,-1.409,-0.769,0.0
16.222,-1.297,-0.797,0.0
14.971,-1.202,-0.82,0.0
13.841,-1.117,-0.835,0.0
21.783,-1.758,-0.706,0.0
19.445,-1.576,-0.738,0.0
17.75,-1.444,-0.772,0.0
16.093,-1.315,-0.792,0.0
14.911,-1.223,-0.817,0.0
13.819,-1.138,-0.834,0.0
21.546,-1.775,-0.698,0.0
19.525,-1.615,-0.741,0.0
17.577,-1.459,-0.765,0.0
16.379,-1.365,-0.805,0.0
14.951,-1.251,-0.818,0.0
13.822,-1.161,-0.834,0.0
21.688,-1.822,-0.702,0.0
19.482,-1.643,-0.738,0.0
17.679,-1.497,-0.768,0.0
16.163,-1.374,-0.794,0.0
14.979,-1.278,-0.819,0.0
13.875,-1.189,-0.836,0.0
21.744,-1.863,-0.702,0.0
19.528,-1.679,-0.738,0.0
17.558,-1.515,-0.761,0.0
16.298,-1.412,-0.799,0.0
14.87,-1.293,-0.811,0.0
13.856,-1.21,-0.833,0.0
21.873,-1.909,-0.703,0.0
19.601,-1.717,-0.739,0.0
17.57,-1.545,-0.76,0.0
16.391,-1.446,-0.801,0.0
14.966,-1.326,-0.814,0.0
13.921,-1.238,-0.835,0.0
20.705,-1.841,-0.663,1.0
20.066,-1.79,-0.753,0.0
17.765,-1.59,-0.765,0.0
16.469,-1.48,-0.802,0.0
14.989,-1.351,-0.813,0.0
13.994,-1.266,-0.837,0.0
19.838,-1.795,-0.631,2.0
19.624,-1.782,-0.733,0.0
17.828,-1.624,-0.764,0.0
16.533,-1.511,-0.802,0.0
15.057,-1.381,-0.814,0.0
14.005,-1.289,-0.834,0.0
19.275,-1.774,-0.608,2.0
18.754,-1.732,-0.696,1.0
18.07,-1.674,-0.77,0.0
16.544,-1.538,-0.798,0.0
15.164,-1.415,-0.815,0.0
14.051,-1.315,-0.833,0.0
19.249,-1.801,-0.603,2.0
17.993,-1.689,-0.662,1.0
17.837,-1.68,-0.755,0.0
16.605,-1.569,-0.796,0.0
15.298,-1.45,-0.818,0.0
14.042,-1.336,-0.828,0.0
18.997,-1.806,-0.589,3.0
17.51,-1.67,-0.639,2.0
17.259,-1.652,-0.725,1.0
16.636,-1.597,-0.792,0.0
15.364,-1.48,-0.817,3.0
14.113,-1.364,-0.828,0.0
19.2,-1.854,-0.589,13.0
17.44,-1.69,-0.63,2.0
16.567,-1.61,-0.69,1.0
16.403,-1.599,-0.775,0.0
15.399,-1.506,-0.813,1.0
14.33,-1.406,-0.835,0.0
18.925,-1.855,-0.573,18.0
17.572,-1.728,-0.629,2.0
16.129,-1.591,-0.666,1.0
15.96,-1.579,-0.748,0.0
15.542,-1.542,-0.814,0.0
14.401,-1.433,-0.834,0.0
18.88,-1.878,-0.564,17.0
17.654,-1.761,-0.624,8.0
16.029,-1.604,-0.655,2.0
15.48,-1.553,-0.719,1.0
15.442,-1.554,-0.802,0.0
14.471,-1.461,-0.831,0.0
18.987,-1.915,-0.559,18.0
17.432,-1.764,-0.608,15.0
16.158,-1.639,-0.653,2.0
15.033,-1.53,-0.691,1.0
14.884,-1.519,-0.766,0.0
14.593,-1.493,-0.831,0.0
19.22,-1.966,-0.556,18.0
17.359,-1.78,-0.597,16.0
16.315,-1.677,-0.651,5.0
14.787,-1.525,-0.672,1.0
14.476,-1.497,-0.738,1.0
14.391,-1.492,-0.813,0.0
19.415,-2.012,-0.552,21.0
17.58,-1.826,-0.596,17.0
16.248,-1.692,-0.64,11.0
14.816,-1.547,-0.666,1.0
14.139,-1.48,-0.713,1.0
14.045,-1.475,-0.786,0.0
19.524,-2.048,-0.545,22.0
17.764,-1.868,-0.593,17.0
16.174,-1.706,-0.628,15.0
14.995,-1.585,-0.666,1.0
13.892,-1.473,-0.693,1.0
13.673,-1.453,-0.757,0.0
19.601,-2.082,-0.535,19.0
17.87,-1.903,-0.586,18.0
16.084,-1.717,-0.615,14.0
15.161,-1.622,-0.664,4.0
13.89,-1.49,-0.684,1.0
13.377,-1.439,-0.732,1.0
19.844,-2.132,-0.53,19.0
18.033,-1.942,-0.58,21.0
16.042,-1.732,-0.603,13.0
15.01,-1.625,-0.648,11.0
14.023,-1.522,-0.682,1.0
13.124,-1.428,-0.71,1.0
19.86,-2.159,-0.518,22.0
18.034,-1.964,-0.568,17.0
16.415,-1.792,-0.607,14.0
14.789,-1.618,-0.629,11.0
14.221,-1.56,-0.682,2.0
13.052,-1.435,-0.698,1.0
19.918,-2.188,-0.506,20.0
18.213,-2.005,-0.562,17.0
16.581,-1.83,-0.602,15.0
14.876,-1.645,-0.622,12.0
14.17,-1.571,-0.67,8.0
13.124,-1.458,-0.692,1.0
20.532,-2.279,-0.507,34.0
18.34,-2.04,-0.553,18.0
16.749,-1.867,-0.596,16.0
14.923,-1.667,-0.614,12.0
14.187,-1.589,-0.661,12.0
13.268,-1.489,-0.69,1.0
20.588,-2.308,-0.494,20.0
18.505,-2.079,-0.545,18.0
16.861,-1.898,-0.588,14.0
15.469,-1.745,-0.625,16.0
14.147,-1.599,-0.648,12.0
13.482,-1.528,-0.691,1.0
20.721,-2.346,-0.482,18.0
18.666,-2.117,-0.535,17.0
17.012,-1.933,-0.58,14.0
15.588,-1.775,-0.618,16.0
14.156,-1.615,-0.638,11.0
13.547,-1.549,-0.684,6.0
21.072,-2.408,-0.473,20.0
19.004,-2.175,-0.53,23.0
17.183,-1.971,-0.572,15.0
15.742,-1.809,-0.611,14.0
14.156,-1.63,-0.627,11.0
13.523,-1.56,-0.672,11.0
21.392,-2.466,-0.464,20.0
19.159,-2.212,-0.519,28.0
17.404,-2.013,-0.566,15.0
15.881,-1.84,-0.604,14.0
14.484,-1.682,-0.629,11.0
13.549,-1.576,-0.662,11.0
21.778,-2.531,-0.454,21.0
19.343,-2.252,-0.508,20.0
17.666,-2.06,-0.559,16.0
15.916,-1.859,-0.592,13.0
14.871,-1.74,-0.634,12.0
13.636,-1.599,-0.655,10.0
22.101,-2.589,-0.442,20.0
19.712,-2.313,-0.501,18.0
17.959,-2.111,-0.553,16.0
16.169,-1.904,-0.587,15.0
15.005,-1.769,-0.626,13.0
13.854,-1.636,-0.653,11.0
22.522,-2.658,-0.431,21.0
19.975,-2.361,-0.49,17.0
18.167,-2.151,-0.544,17.0
16.29,-1.932,-0.577,14.0
15.114,-1.795,-0.617,20.0
13.999,-1.666,-0.647,11.0
22.847,-2.716,-0.416,22.0
20.295,-2.416,-0.479,19.0
18.375,-2.191,-0.533,17.0
16.548,-1.976,-0.571,14.0
15.213,-1.82,-0.607,21.0
14.131,-1.693,-0.64,12.0
23.298,-2.789,-0.403,23.0
20.735,-2.486,-0.47,20.0
18.533,-2.225,-0.52,17.0
16.917,-2.034,-0.568,14.0
15.368,-1.85,-0.599,16.0
14.281,-1.722,-0.634,12.0
23.82,-2.87,-0.389,23.0
21.086,-2.544,-0.458,20.0
18.74,-2.264,-0.508,17.0
17.268,-2.089,-0.563,15.0
15.524,-1.88,-0.59,15.0
14.424,-1.75,-0.626,13.0
24.445,-2.963,-0.376,23.0
21.408,-2.598,-0.445,20.0
19.067,-2.317,-0.499,19.0
17.543,-2.134,-0.555,15.0
15.758,-1.92,-0.584,14.0
14.593,-1.78,-0.619,13.0
24.987,-3.046,-0.36,21.0
21.724,-2.651,-0.43,19.0
19.412,-2.371,-0.489,17.0
17.785,-2.175,-0.545,16.0
15.949,-1.953,-0.575,13.0
14.843,-1.82,-0.615,13.0
25.187,-3.087,-0.337,15.0
22.221,-2.726,-0.417,18.0
19.73,-2.423,-0.476,18.0
18.022,-2.216,-0.534,16.0
16.258,-2.001,-0.569,13.0
15.032,-1.852,-0.607,14.0
26.245,-3.232,-0.325,7.0
22.705,-2.799,-0.403,21.0
20.148,-2.486,-0.466,18.0
18.235,-2.252,-0.522,17.0
16.564,-2.048,-0.563,14.0
15.236,-1.886,-0.6,14.0
27.58,-3.412,-0.313,16.0
23.248,-2.878,-0.388,21.0
20.551,-2.547,-0.454,18.0
18.4,-2.282,-0.507,17.0
16.922,-2.101,-0.557,15.0
15.444,-1.919,-0.592,15.0
29.468,-3.66,-0.303,21.0
23.818,-2.961,-0.373,25.0
20.946,-2.606,-0.44,19.0
18.579,-2.314,-0.492,16.0
17.394,-2.168,-0.555,16.0
15.6,-1.946,-0.581,15.0
30.522,-3.805,-0.282,9.0
24.318,-3.034,-0.355,25.0
21.438,-2.677,-0.428,19.0
18.901,-2.362,-0.481,16.0
17.544,-2.194,-0.54,15.0
15.879,-1.988,-0.574,14.0
35.595,-4.453,-0.291,10.0
0.0,0.0,0.0,0.0
21.557,-2.7,-0.407,18.0
19.416,-2.434,-0.473,17.0
17.801,-2.233,-0.529,16.0
16.24,-2.039,-0.57,14.0
35.917,-4.507,-0.254,24.0
26.165,-3.285,-0.325,7.0
22.666,-2.847,-0.403,19.0
20.015,-2.516,-0.465,22.0
18.261,-2.297,-0.523,18.0
16.467,-2.073,-0.56,14.0
36.842,-4.635,-0.22,14.0
0.0,0.0,0.0,0.0
23.039,-2.901,-0.385,22.0
20.394,-2.57,-0.452,21.0
18.394,-2.319,-0.506,16.0
16.841,-2.124,-0.554,15.0
37.704,-4.755,-0.184,23.0
29.419,-3.711,-0.301,21.0
23.617,-2.98,-0.368,22.0
20.746,-2.619,-0.437,18.0
18.696,-2.362,-0.494,16.0
17.369,-2.195,-0.552,17.0
38.388,-4.85,-0.144,18.0
30.702,-3.88,-0.28,10.0
24.172,-3.056,-0.35,24.0
21.14,-2.674,-0.421,17.0
19.106,-2.417,-0.483,17.0
17.558,-2.222,-0.538,15.0
0.0,0.0,0.0,0.0
35.697,-4.518,-0.285,12.0
0.0,0.0,0.0,0.0
21.965,-2.782,-0.413,19.0
19.63,-2.487,-0.474,19.0
18.031,-2.285,-0.532,16.0
43.13,-5.464,-0.064,3.0
36.162,-4.582,-0.248,13.0
0.0,0.0,0.0,0.0
22.602,-2.865,-0.399,21.0
20.176,-2.558,-0.464,23.0
18.3,-2.321,-0.519,17.0
46.027,-5.836,-0.017,19.0
37.08,-4.702,-0.212,14.0
0.0,0.0,0.0,0.0
23.088,-2.928,-0.382,22.0
20.497,-2.6,-0.449,24.0
18.462,-2.342,-0.503,16.0
46.575,-5.908,0.035,22.0
37.965,-4.815,-0.174,21.0
30.202,-3.831,-0.3,11.0
23.613,-2.995,-0.363,25.0
20.898,-2.651,-0.433,19.0
18.821,-2.388,-0.491,17.0
47.371,-6.009,0.09,22.0
38.577,-4.893,-0.133,14.0
35.478,-4.5,-0.312,2.0
24.319,-3.084,-0.346,18.0
21.553,-2.733,-0.422,18.0
19.301,-2.448,-0.482,17.0
50.413,-6.393,0.152,6.0
0.0,0.0,0.0,0.0
35.87,-4.547,-0.274,12.0
0.0,0.0,0.0,0.0
22.182,-2.811,-0.409,20.0
19.774,-2.506,-0.471,20.0
52.496,-6.653,0.219,6.0
0.0,0.0,0.0,0.0
36.555,-4.63,-0.238,13.0
0.0,0.0,0.0,0.0
22.824,-2.89,-0.395,22.0
20.232,-2.561,-0.458,23.0
65.636,-8.309,0.35,7.0
46.216,-5.849,0.0,21.0
37.52,-4.747,-0.201,19.0
28.946,-3.661,-0.313,17.0
23.395,-2.958,-0.378,21.0
20.67,-2.613,-0.445,20.0
76.543,-9.676,0.495,22.0
46.987,-5.937,0.052,21.0
38.293,-4.837,-0.162,17.0
30.388,-3.837,-0.294,9.0
24.046,-3.035,-0.361,24.0
21.005,-2.65,-0.428,17.0
76.566,-9.662,0.584,25.0
50.875,-6.416,0.115,6.0
0.0,0.0,0.0,0.0
35.553,-4.48,-0.303,8.0
0.0,0.0,0.0,0.0
21.331,-2.686,-0.41,18.0
76.566,-9.641,0.671,23.0
51.86,-6.526,0.177,16.0
40.864,-5.139,-0.079,13.0
35.883,-4.511,-0.265,23.0
26.173,-3.288,-0.333,8.0
22.657,-2.845,-0.41,21.0
76.596,-9.62,0.758,24.0
62.658,-7.864,0.284,9.0
0.0,0.0,0.0,0.0
36.938,-4.63,-0.231,14.0
0.0,0.0,0.0,0.0
23.086,-2.891,-0.392,25.0
76.615,-9.595,0.843,21.0
76.621,-9.588,0.433,9.0
46.429,-5.806,0.013,21.0
37.906,-4.737,-0.195,20.0
29.74,-3.714,-0.312,20.0
23.843,-2.976,-0.378,28.0
76.624,-9.564,0.929,20.0
76.622,-9.556,0.519,6.0
47.117,-5.871,0.067,14.0
38.568,-4.802,-0.155,14.0
35.414,-4.406,-0.332,3.0
24.845,-3.089,-0.366,23.0
76.643,-9.531,1.015,15.0
85.241,-10.591,0.672,4.0
0.0,0.0,0.0,0.0
0.0,0.0,0.0,0.0
35.734,-4.429,-0.296,19.0
25.433,-3.149,-0.347,22.0
76.711,-9.502,1.099,7.0
90.781,-11.233,0.816,4.0
52.396,-6.477,0.189,7.0
0.0,0.0,0.0,0.0
36.219,-4.469,-0.26,19.0
29.144,-3.593,-0.365,10.0
73.555,-9.07,1.135,23.0
90.899,-11.197,0.916,9.0
63.947,-7.869,0.302,1.0
45.631,-5.609,-0.034,21.0
37.346,-4.586,-0.228,18.0
29.458,-3.614,-0.337,30.0
73.583,-9.03,1.216,20.0
73.223,-8.975,0.818,5.0
83.628,-10.239,0.485,12.0
46.386,-5.673,0.015,21.0
38.313,-4.681,-0.192,22.0
30.192,-3.685,-0.313,17.0
73.584,-8.983,1.295,8.0
107.628,-13.122,1.317,10.0
83.653,-10.187,0.575,7.0
0.0,0.0,0.0,0.0
38.832,-4.717,-0.152,14.0
35.415,-4.297,-0.329,3.0
73.552,-8.928,1.374,6.0
112.948,-13.692,1.503,10.0
85.08,-10.3,0.676,10.0
51.318,-6.205,0.127,25.0
0.0,0.0,0.0,0.0
35.676,-4.303,-0.294,26.0
73.328,-8.847,1.446,11.0
73.266,-8.827,1.052,17.0
90.06,-10.835,0.81,8.0
51.823,-6.227,0.182,5.0
42.61,-5.113,-0.078,11.0
36.173,-4.335,-0.26,14.0
73.251,-8.781,1.52,12.0
73.274,-8.771,1.127,6.0
91.193,-10.9,0.913,14.0
77.794,-9.285,0.352,4.0
46.213,-5.508,-0.038,20.0
37.525,-4.466,-0.233,20.0
72.804,-8.669,1.584,28.0
73.162,-8.698,1.199,8.0
91.713,-10.886,1.01,5.0
83.242,-9.866,0.461,12.0
46.676,-5.524,0.007,18.0
38.423,-4.54,-0.2,19.0
73.137,-8.646,1.664,11.0
73.187,-8.637,1.273,14.0
73.108,-8.614,0.877,4.0
75.237,-8.851,0.49,10.0
0.0,0.0,0.0,0.0
38.988,-4.572,-0.164,14.0
73.491,-8.622,1.745,6.0
73.254,-8.579,1.345,12.0
75.287,-8.802,0.977,8.0
75.218,-8.779,0.563,28.0
51.034,-5.947,0.108,24.0
0.0,0.0,0.0,0.0
73.267,-8.527,1.81,11.0
73.323,-8.518,1.416,26.0
75.215,-8.722,1.048,29.0
75.174,-8.702,0.634,34.0
51.543,-5.956,0.157,6.0
42.745,-4.931,-0.099,15.0
73.189,-8.447,1.876,10.0
73.379,-8.452,1.485,23.0
75.201,-8.646,1.117,33.0
75.207,-8.63,0.704,31.0
75.129,-8.605,0.299,10.0
45.812,-5.238,-0.064,20.0
73.59,-8.418,1.954,17.0
75.163,-8.58,1.59,11.0
75.203,-8.568,1.186,31.0
75.283,-8.56,0.773,25.0
75.324,-8.548,0.368,16.0
46.498,-5.267,-0.023,20.0
74.581,-8.452,2.048,16.0
75.115,-8.495,1.657,28.0
75.257,-8.493,1.254,26.0
110.376,-12.431,1.233,8.0
78.972,-8.876,0.455,7.0
0.0,0.0,0.0,0.0
74.621,-8.375,2.114,34.0
75.139,-8.414,1.723,25.0
118.926,-13.289,2.085,27.0
112.403,-12.533,1.352,6.0
85.311,-9.492,0.566,12.0
48.496,-5.384,0.059,10.0
74.953,-8.326,2.188,18.0
75.216,-8.336,1.789,16.0
192.725,-21.312,3.544,13.0
114.024,-12.582,1.467,17.0
85.518,-9.415,0.639,6.0
50.718,-5.572,0.104,13.0
33.152,-3.644,0.995,72.0
33.14,-3.634,0.815,55.0
33.144,-3.626,0.636,47.0
33.129,-3.616,0.453,44.0
33.128,-3.607,0.274,42.0
33.133,-3.6,0.095,40.0
33.148,-3.603,1.021,86.0
33.14,-3.593,0.842,80.0
33.125,-3.583,0.662,81.0
33.114,-3.573,0.479,80.0
33.111,-3.564,0.3,70.0
33.101,-3.555,0.121,75.0
33.169,-3.563,1.048,74.0
33.157,-3.553,0.868,71.0
33.142,-3.543,0.688,73.0
33.125,-3.532,0.505,73.0
33.121,-3.523,0.325,75.0
33.097,-3.512,0.146,84.0
87.781,-9.319,2.841,13.0
78.72,-8.335,2.12,22.0
33.148,-3.5,0.713,2.0
33.143,-3.49,0.529,12.0
33.138,-3.481,0.35,37.0
33.136,-3.472,0.17,62.0
78.18,-8.195,2.587,20.0
78.419,-8.197,2.169,24.0
104.418,-10.886,2.322,10.0
104.698,-10.886,1.749,7.0
104.634,-10.85,1.18,9.0
83.877,-8.675,0.49,4.0
78.267,-8.098,2.645,9.0
78.371,-8.086,2.221,16.0
74.834,-7.7,1.715,18.0
135.346,-13.888,2.352,79.0
104.711,-10.714,1.251,4.0
83.846,-8.556,0.547,8.0
74.474,-7.603,2.566,26.0
78.566,-7.997,2.279,31.0
74.877,-7.6,1.765,9.0
135.405,-13.702,2.443,150.0
114.294,-11.533,1.44,9.0
87.611,-8.816,0.627,7.0
74.358,-7.486,2.609,6.0
73.928,-7.42,2.191,25.0
78.594,-7.865,1.902,31.0
135.444,-13.513,2.527,112.0
119.092,-11.846,1.574,8.0
87.936,-8.722,0.684,5.0
78.055,-7.745,2.787,8.0
78.857,-7.799,2.386,17.0
78.423,-7.732,1.944,21.0
135.494,-13.32,2.608,50.0
135.504,-13.28,1.87,147.0
89.169,-8.712,0.745,4.0
78.363,-7.658,2.844,21.0
78.857,-7.682,2.431,29.0
78.435,-7.616,1.99,9.0
119.244,-11.541,2.363,82.0
119.145,-11.496,1.712,13.0
110.877,-10.664,0.988,8.0
74.422,-7.159,2.741,12.0
78.373,-7.514,2.459,9.0
119.255,-11.395,3.09,17.0
119.219,-11.355,2.427,7.0
119.138,-11.31,1.775,16.0
111.29,-10.53,1.05,15.0
78.688,-7.448,2.94,44.0
106.834,-10.076,3.407,2.0
119.185,-11.202,3.149,9.0
119.248,-11.171,2.486,7.0
135.577,-12.659,2.086,150.0
111.347,-10.361,1.105,10.0
70.9,-6.599,2.682,18.0
78.674,-7.297,2.546,7.0
119.177,-11.015,3.204,7.0
119.245,-10.982,2.541,74.0
135.585,-12.444,2.149,150.0
111.61,-10.208,1.159,12.0
103.365,-9.455,3.957,11.0
78.692,-7.173,2.581,6.0
74.38,-6.755,2.032,9.0
135.589,-12.268,2.949,150.0
135.636,-12.229,2.206,89.0
114.6,-10.296,1.238,5.0
72.436,-6.508,2.804,4.0
78.62,-7.037,2.611,8.0
74.37,-6.631,2.063,8.0
72.792,-6.467,1.612,9.0
135.683,-12.009,2.261,150.0
114.775,-10.122,1.283,11.0
67.966,-5.994,2.656,46.0
67.918,-5.966,2.281,16.0
119.219,-10.434,3.349,11.0
119.245,-10.396,2.684,43.0
119.232,-10.356,2.029,63.0
119.175,-10.312,1.376,10.0
67.964,-5.88,2.68,51.0
67.932,-5.854,2.304,23.0
119.234,-10.236,3.39,10.0
72.856,-6.229,1.664,5.0
119.319,-10.163,2.069,71.0
119.101,-10.105,1.412,15.0
67.954,-5.764,2.7,53.0
67.919,-5.737,2.325,31.0
72.786,-6.123,2.091,6.0
119.309,-9.998,2.76,18.0
126.482,-10.555,2.23,119.0
119.19,-9.907,1.446,18.0
67.938,-5.646,2.719,56.0
67.91,-5.619,2.343,33.0
72.025,-5.935,2.088,15.0
119.319,-9.79,2.79,16.0
126.513,-10.337,2.263,66.0
119.247,-9.704,1.476,19.0
67.927,-5.526,2.734,25.0
72.041,-5.835,2.502,11.0
74.81,-6.033,2.186,3.0
72.604,-5.83,1.714,24.0
126.512,-10.115,2.289,93.0
119.235,-9.493,1.501,16.0
72.507,-5.771,2.933,16.0
72.035,-5.708,2.516,13.0
67.926,-5.358,1.998,36.0
67.891,-5.332,1.615,63.0
67.873,-5.308,1.24,89.0
67.864,-5.284,0.866,88.0
67.922,-5.286,2.759,91.0
67.906,-5.26,2.383,65.0
67.917,-5.237,2.008,43.0
72.692,-5.579,1.74,8.0
126.536,-9.669,2.331,29.0
119.269,-9.072,1.538,17.0
67.912,-5.161,2.767,30.0
67.889,-5.135,2.39,35.0
71.558,-5.387,2.123,30.0
119.364,-8.944,2.871,34.0
119.381,-8.903,2.211,82.0
20.018,-1.486,0.26,6.0
67.92,-5.038,2.774,65.0
67.881,-5.01,2.396,41.0
20.026,-1.471,0.596,2.0
20.025,-1.464,0.483,7.0
20.007,-1.455,0.372,9.0
20.013,-1.448,0.261,18.0
67.919,-4.913,2.777,62.0
67.886,-4.885,2.399,20.0
19.997,-1.431,0.596,9.0
20.002,-1.425,0.483,10.0
20.013,-1.418,0.372,10.0
20.025,-1.412,0.262,8.0
67.901,-4.784,2.777,62.0
20.016,-1.403,0.707,8.0
20.007,-1.395,0.596,8.0
20.013,-1.388,0.483,9.0
119.405,-8.241,2.222,32.0
119.311,-8.192,1.558,16.0
72.365,-4.962,2.958,17.0
19.999,-1.364,0.706,10.0
20.034,-1.359,0.596,9.0
20.087,-1.355,0.484,4.0
19.98,-1.341,0.37,10.0
19.967,-1.333,0.259,21.0
72.153,-4.811,2.945,26.0
20.004,-1.326,0.705,10.0
19.952,-1.315,0.592,13.0
19.927,-1.307,0.478,14.0
19.923,-1.299,0.368,18.0
19.961,-1.294,0.257,28.0
20.031,-1.297,0.815,6.0
19.959,-1.285,0.701,15.0
19.955,-1.278,0.59,24.0
19.912,-1.268,0.476,19.0
19.941,-1.262,0.365,21.0
19.959,-1.256,0.255,26.0
20.028,-1.259,0.812,8.0
19.958,-1.247,0.698,16.0
19.943,-1.239,0.586,23.0
19.903,-1.229,0.472,19.0
19.939,-1.224,0.362,23.0
19.948,-1.218,0.251,25.0
20.028,-1.22,0.808,14.0
19.958,-1.209,0.694,17.0
19.959,-1.202,0.583,21.0
19.939,-1.193,0.469,21.0
19.933,-1.186,0.358,20.0
19.951,-1.18,0.247,20.0
20.027,-1.182,0.804,24.0
19.958,-1.171,0.69,17.0
19.975,-1.165,0.579,22.0
19.948,-1.156,0.465,24.0
19.94,-1.148,0.353,18.0
19.967,-1.143,0.242,25.0
20.033,-1.144,0.799,25.0
19.966,-1.133,0.685,18.0
19.97,-1.126,0.573,22.0
19.949,-1.117,0.459,23.0
19.952,-1.111,0.348,21.0
19.99,-1.106,0.237,23.0
20.027,-1.105,0.793,15.0
19.973,-1.095,0.679,17.0
19.97,-1.087,0.567,22.0
19.948,-1.079,0.453,19.0
19.953,-1.072,0.341,18.0
19.993,-1.067,0.23,30.0
20.042,-1.067,0.787,9.0
19.977,-1.056,0.672,17.0
19.967,-1.048,0.56,18.0
19.962,-1.041,0.446,13.0
20.001,-1.036,0.335,10.0
20.022,-1.03,0.223,18.0
20.05,-1.028,0.779,7.0
20.044,-1.021,0.667,14.0
20.12,-1.018,0.556,20.0
20.133,-1.011,0.442,22.0
20.141,-1.004,0.329,26.0
20.161,-0.998,0.217,16.0
20.1,-0.992,0.773,14.0
20.107,-0.985,0.66,24.0
20.109,-0.977,0.547,25.0
20.101,-0.97,0.432,18.0
20.15,-0.965,0.32,8.0
138.195,-6.573,1.426,15.0
20.095,-0.952,0.763,10.0
20.091,-0.944,0.65,18.0
20.115,-0.938,0.538,15.0
20.149,-0.933,0.424,2.0
138.046,-6.345,2.133,109.0
138.288,-6.308,1.36,20.0
20.111,-0.913,0.754,0.0
20.123,-0.906,0.641,3.0
0.0,0.0,0.0,0.0
194.916,-8.643,4.004,7.0
138.068,-6.073,2.06,119.0
138.069,-6.025,1.284,18.0
104.326,-4.534,3.858,28.0
194.01,-8.361,6.081,12.0
193.272,-8.26,4.97,24.0
193.261,-8.193,3.864,27.0
138.106,-5.805,1.984,73.0
138.376,-5.769,1.209,27.0
104.18,-4.322,3.792,35.0
193.771,-7.973,5.962,25.0
192.853,-7.868,4.847,25.0
193.763,-7.837,3.76,21.0
138.223,-5.543,1.904,4.0
138.429,-5.504,1.127,19.0
104.44,-4.132,3.738,4.0
193.602,-7.591,5.837,26.0
192.671,-7.485,4.722,26.0
193.662,-7.458,3.637,20.0
0.0,0.0,0.0,0.0
138.507,-5.238,1.039,24.0
194.581,-7.317,6.836,13.0
193.155,-7.197,5.697,22.0
193.215,-7.131,4.608,23.0
193.677,-7.081,3.506,18.0
0.0,0.0,0.0,0.0
138.518,-4.97,0.946,13.0
193.893,-6.916,6.679,20.0
193.255,-6.826,5.566,18.0
193.34,-6.762,4.476,23.0
187.438,-6.492,3.262,43.0
138.739,-4.758,1.632,2.0
138.604,-4.707,0.848,11.0
187.385,-6.322,6.319,9.0
193.597,-6.467,5.435,9.0
193.98,-6.412,4.348,24.0
193.21,-6.319,3.219,18.0
138.653,-4.489,1.527,9.0
0.0,0.0,0.0,0.0
120.48,-3.832,3.97,5.0
193.993,-6.104,5.296,26.0
194.434,-6.052,4.208,19.0
138.549,-4.264,2.2,4.0
138.652,-4.221,1.418,10.0
0.0,0.0,0.0,0.0
120.231,-3.591,3.865,9.0
194.096,-5.73,5.14,21.0
194.78,-5.687,4.056,17.0
138.657,-4.0,2.088,10.0
138.54,-3.951,1.302,19.0
0.0,0.0,0.0,0.0
120.764,-3.375,3.781,11.0
205.595,-5.676,5.271,7.0
194.959,-5.316,3.892,5.0
138.74,-3.738,1.971,4.0
138.856,-3.694,1.185,26.0
0.0,0.0,0.0,0.0
120.82,-3.144,3.675,10.0
118.181,-3.037,2.925,19.0
193.183,-4.9,3.686,11.0
0.0,0.0,0.0,0.0
138.858,-3.428,1.059,15.0
0.0,0.0,0.0,0.0
207.432,-5.003,6.12,9.0
118.208,-2.812,2.816,16.0
193.327,-4.538,3.51,15.0
0.0,0.0,0.0,0.0
138.952,-3.171,0.932,14.0
0.0,0.0,0.0,0.0
112.774,-2.508,3.22,10.0
193.671,-4.246,4.431,6.0
193.092,-4.169,3.32,21.0
0.0,0.0,0.0,0.0
138.958,-2.91,0.796,9.0
81.517,-1.68,0.004,2.0
112.862,-2.297,3.111,13.0
193.759,-3.88,4.238,13.0
193.156,-3.807,3.127,9.0
138.988,-2.694,1.445,10.0
138.813,-2.646,0.655,2.0
0.0,0.0,0.0,0.0
112.744,-2.083,2.991,26.0
193.719,-3.52,4.039,14.0
139.035,-2.481,2.107,9.0
139.053,-2.436,1.301,22.0
113.419,-1.953,0.417,7.0
0.0,0.0,0.0,0.0
112.608,-1.873,2.868,10.0
194.24,-3.168,3.841,6.0
138.968,-2.224,1.958,9.0
138.785,-2.177,1.15,23.0
0.0,0.0,0.0,0.0
0.0,0.0,0.0,0.0
206.293,-3.056,5.031,18.0
194.562,-2.82,3.635,6.0
0.0,0.0,0.0,0.0
139.062,-1.93,1.0,16.0
0.0,0.0,0.0,0.0
0.0,0.0,0.0,0.0
210.392,-2.735,4.894,8.0
204.22,-2.591,3.585,24.0
139.427,-1.726,1.653,2.0
125.236,-1.512,0.758,2.0
0.0,0.0,0.0,0.0
0.0,0.0,0.0,0.0
119.748,-1.34,2.646,16.0
119.739,-1.303,1.962,150.0
119.753,-1.267,1.279,150.0
119.683,-1.232,0.584,10.0
0.0,0.0,0.0,0.0
0.0,0.0,0.0,0.0
119.725,-1.127,2.503,81.0
119.736,-1.091,1.819,28.0
119.669,-1.055,1.134,18.0
0.0,0.0,0.0,0.0
0.0,0.0,0.0,0.0
47.18,-0.374,-0.365,0.0
194.353,-1.487,3.824,18.0
119.703,-0.88,1.671,8.0
119.719,-0.846,0.988,11.0
0.0,0.0,0.0,0.0
0.0,0.0,0.0,0.0
46.485,-0.288,-0.417,0.0
114.788,-0.678,2.114,8.0
119.722,-0.674,1.522,15.0
114.31,-0.61,0.799,5.0
0.0,0.0,0.0,0.0
0.0,0.0,0.0,0.0
44.896,-0.201,-0.46,1.0
114.227,-0.479,1.957,14.0
119.686,-0.467,1.365,14.0
111.048,-0.402,0.632,6.0
0.0,0.0,0.0,0.0
0.0,0.0,0.0,0.0
0.0,0.0,0.0,0.0
112.99,-0.282,1.787,14.0
119.733,-0.264,1.208,9.0
99.228,-0.191,0.433,1.0
0.0,0.0,0.0,0.0
48.778,-0.066,-0.35,0.0
39.013,-0.042,-0.503,0.0
111.09,-0.092,1.607,12.0
111.223,-0.06,0.972,7.0
95.605,-0.026,0.288,4.0
0.0,0.0,0.0,0.0
45.545,0.012,-0.388,2.0
0.0,0.0,0.0,0.0
111.094,0.09,1.456,23.0
110.712,0.119,0.816,8.0
93.052,0.125,0.153,2.0
0.0,0.0,0.0,0.0
42.941,0.081,-0.426,1.0
34.243,0.073,-0.535,0.0
119.699,0.29,1.401,7.0
104.105,0.281,0.621,8.0
0.0,0.0,0.0,0.0
0.0,0.0,0.0,0.0
42.821,0.15,-0.485,0.0
32.689,0.123,-0.558,0.0
111.052,0.448,1.14,16.0
90.827,0.391,0.411,3.0
0.0,0.0,0.0,0.0
48.728,0.235,-0.343,0.0
0.0,0.0,0.0,0.0
31.544,0.168,-0.584,0.0
104.992,0.589,0.924,17.0
86.691,0.509,0.265,4.0
0.0,0.0,0.0,0.0
45.91,0.293,-0.391,0.0
0.0,0.0,0.0,0.0
29.978,0.207,-0.599,0.0
104.734,0.751,0.766,8.0
84.274,0.626,0.131,3.0
0.0,0.0,0.0,0.0
42.732,0.338,-0.427,0.0
0.0,0.0,0.0,0.0
29.024,0.244,-0.624,0.0
97.995,0.852,0.568,9.0
0.0,0.0,0.0,0.0
53.431,0.491,-0.304,0.0
40.708,0.384,-0.47,0.0
0.0,0.0,0.0,0.0
27.764,0.276,-0.64,0.0
85.443,0.872,0.362,9.0
0.0,0.0,0.0,0.0
46.644,0.498,-0.338,0.0
0.0,0.0,0.0,0.0
30.774,0.344,-0.58,0.0
26.463,0.302,-0.651,0.0
81.216,0.947,0.217,3.0
0.0,0.0,0.0,0.0
44.027,0.535,-0.388,1.0
35.519,0.44,-0.521,0.0
29.611,0.373,-0.605,0.0
25.474,0.327,-0.667,0.0
77.37,1.014,0.084,1.0
0.0,0.0,0.0,0.0
43.99,0.597,-0.458,1.0
34.134,0.471,-0.555,0.0
28.236,0.396,-0.622,0.0
24.438,0.348,-0.679,0.0
0.0,0.0,0.0,0.0
0.0,0.0,0.0,0.0
41.605,0.622,-0.5,0.0
0.0,0.0,0.0,0.0
0.0,0.0,0.0,0.0
23.341,0.365,-0.687,0.0
0.0,0.0,0.0,0.0
46.964,0.756,-0.371,1.0
0.0,0.0,0.0,0.0
30.107,0.498,-0.588,0.0
26.298,0.441,-0.665,0.0
22.59,0.384,-0.702,0.0
0.0,0.0,0.0,0.0
44.649,0.779,-0.426,0.0
35.329,0.624,-0.541,0.0
28.885,0.516,-0.612,0.0
24.944,0.451,-0.672,0.0
21.86,0.4,-0.715,0.0
0.0,0.0,0.0,0.0
0.0,0.0,0.0,0.0
32.479,0.615,-0.551,0.0
27.756,0.532,-0.634,0.0
23.972,0.464,-0.686,0.0
20.966,0.41,-0.721,0.0
0.0,0.0,0.0,0.0
0.0,0.0,0.0,0.0
30.632,0.619,-0.572,0.0
26.333,0.538,-0.646,0.0
22.914,0.472,-0.694,0.0
20.413,0.425,-0.736,0.0
44.278,0.931,-0.391,0.0
0.0,0.0,0.0,0.0
29.493,0.632,-0.6,0.0
25.418,0.55,-0.667,0.0
22.178,0.484,-0.71,0.0
19.695,0.434,-0.744,0.0
42.736,0.95,-0.451,0.0
33.435,0.75,-0.545,0.0
28.148,0.637,-0.622,0.0
24.214,0.553,-0.677,0.0
21.354,0.492,-0.721,0.0
19.083,0.443,-0.755,0.0
38.359,0.898,-0.471,0.0
31.916,0.753,-0.576,0.0
26.61,0.633,-0.634,0.0
23.268,0.558,-0.692,0.0
20.469,0.495,-0.726,0.0
18.47,0.45,-0.762,0.0
0.0,0.0,0.0,0.0
28.615,0.707,-0.567,0.0
25.593,0.637,-0.655,0.0
22.328,0.56,-0.703,0.0
19.935,0.504,-0.743,0.0
17.785,0.453,-0.766,0.0
0.0,0.0,0.0,0.0
28.491,0.736,-0.615,1.0
24.439,0.636,-0.669,0.0
21.547,0.564,-0.716,0.0
19.076,0.503,-0.745,0.0
17.442,0.463,-0.782,0.0
31.577,0.844,-0.556,0.0
27.049,0.727,-0.632,0.0
23.582,0.638,-0.687,0.0
20.639,0.562,-0.723,0.0
18.664,0.511,-0.762,0.0
16.87,0.465,-0.787,0.0
0.0,0.0,0.0,0.0
26.065,0.727,-0.656,0.0
22.467,0.631,-0.695,0.0
20.056,0.566,-0.739,0.0
18.086,0.514,-0.771,0.0
16.419,0.469,-0.795,0.0
28.571,0.821,-0.605,1.0
24.803,0.717,-0.669,0.0
21.712,0.631,-0.711,0.0
19.247,0.562,-0.743,0.0
17.383,0.511,-0.772,0.0
15.898,0.47,-0.798,0.0
28.484,0.845,-0.655,0.0
23.895,0.713,-0.688,0.0
20.754,0.622,-0.717,0.0
18.616,0.561,-0.753,0.0
16.971,0.514,-0.785,0.0
15.6,0.475,-0.812,0.0
26.033,0.796,-0.646,0.0
22.556,0.693,-0.69,0.0
20.057,0.62,-0.73,0.0
18.051,0.56,-0.763,0.0
16.509,0.515,-0.794,0.0
15.072,0.473,-0.812,0.0
24.76,0.779,-0.66,0.0
21.642,0.684,-0.702,0.0
19.45,0.618,-0.743,0.0
17.506,0.559,-0.772,0.0
15.947,0.511,-0.796,0.0
14.678,0.473,-0.818,0.0
23.812,0.769,-0.678,0.0
20.97,0.68,-0.719,0.0
18.707,0.61,-0.749,0.0
16.942,0.554,-0.779,0.0
15.456,0.508,-0.8,0.0
14.328,0.473,-0.825,0.0
22.523,0.746,-0.683,0.0
20.101,0.668,-0.726,0.0
18.143,0.605,-0.76,0.0
16.584,0.556,-0.793,0.0
15.205,0.512,-0.815,0.0
13.982,0.473,-0.831,0.0
21.736,0.736,-0.7,0.0
19.553,0.665,-0.742,0.0
17.598,0.601,-0.77,0.0
15.849,0.543,-0.787,0.0
14.767,0.508,-0.819,0.0
13.692,0.473,-0.839,0.0
21.026,0.727,-0.715,0.0
18.679,0.648,-0.743,0.0
17.075,0.595,-0.779,0.0
15.542,0.543,-0.801,0.0
14.362,0.504,-0.823,0.0
13.341,0.47,-0.842,0.0
20.077,0.708,-0.72,0.0
18.368,0.65,-0.765,0.0
16.655,0.591,-0.791,0.0
15.063,0.537,-0.804,0.0
14.063,0.503,-0.832,0.0
13.098,0.47,-0.851,0.0
19.691,0.707,-0.742,0.0
17.661,0.636,-0.768,0.0
16.05,0.58,-0.791,0.0
14.749,0.534,-0.814,0.0
13.738,0.499,-0.838,0.0
12.695,0.463,-0.849,0.0
18.753,0.684,-0.742,1.0
17.089,0.625,-0.775,0.0
15.656,0.575,-0.801,0.0
14.349,0.528,-0.818,0.0
13.343,0.493,-0.839,0.0
12.318,0.456,-0.846,0.0
18.481,0.684,-0.765,0.0
16.566,0.615,-0.782,0.0
15.195,0.566,-0.805,0.0
14.009,0.523,-0.825,0.0
13.096,0.491,-0.847,0.0
11.992,0.451,-0.846,0.0
17.707,0.665,-0.765,0.0
16.128,0.607,-0.791,0.0
14.849,0.56,-0.814,0.0
13.704,0.519,-0.832,0.0
12.648,0.48,-0.842,0.0
11.742,0.447,-0.85,0.0
17.187,0.654,-0.775,0.0
15.765,0.601,-0.802,0.0
14.451,0.552,-0.819,0.0
13.451,0.515,-0.842,0.0
12.327,0.473,-0.843,0.0
11.508,0.443,-0.854,0.0
16.758,0.645,-0.786,0.0
15.273,0.589,-0.805,0.0
14.15,0.547,-0.828,0.0
13.097,0.507,-0.844,0.0
12.059,0.468,-0.847,0.0
11.311,0.44,-0.86,0.0
16.147,0.627,-0.787,0.0
14.856,0.578,-0.81,0.0
13.76,0.537,-0.83,0.0
12.893,0.504,-0.854,0.0
11.782,0.462,-0.849,0.0
11.119,0.437,-0.866,0.0
15.773,0.619,-0.797,0.0
14.486,0.569,-0.816,0.0
13.533,0.533,-0.841,0.0
12.347,0.487,-0.841,0.0
11.544,0.456,-0.853,0.0
10.943,0.433,-0.873,0.0
15.255,0.603,-0.799,0.0
14.23,0.564,-0.828,0.0
13.173,0.523,-0.843,0.0
12.112,0.481,-0.847,0.0
11.331,0.451,-0.858,0.0
10.699,0.427,-0.873,0.0
14.926,0.594,-0.809,0.0
13.825,0.551,-0.829,0.0
12.809,0.512,-0.843,0.0
11.82,0.473,-0.848,0.0
11.142,0.447,-0.864,0.0
10.479,0.421,-0.874,0.0
14.545,0.582,-0.815,0.0
13.516,0.542,-0.836,0.0
12.481,0.501,-0.844,0.0
11.59,0.466,-0.853,0.0
10.968,0.442,-0.871,0.0
10.333,0.417,-0.881,0.0
14.203,0.572,-0.821,0.0
13.207,0.532,-0.84,0.0
12.152,0.49,-0.844,0.0
11.34,0.458,-0.854,0.0
10.766,0.436,-0.874,0.0
10.162,0.412,-0.884,0.0
13.926,0.563,-0.83,0.0
12.915,0.522,-0.844,0.0
11.871,0.481,-0.845,0.0
11.195,0.454,-0.863,0.0
10.512,0.427,-0.872,0.0
10.001,0.406,-0.888,0.0
13.599,0.551,-0.834,0.0
12.586,0.51,-0.845,0.0
11.632,0.472,-0.849,0.0
11.007,0.447,-0.868,0.0
10.396,0.423,-0.881,0.0
9.872,0.402,-0.894,0.0
13.31,0.54,-0.84,0.0
12.236,0.497,-0.843,0.0
11.36,0.462,-0.849,0.0
10.803,0.44,-0.871,0.0
10.226,0.417,-0.884,0.0
9.778,0.399,-0.903,0.0
13.005,0.528,-0.843,0.0
11.932,0.485,-0.843,0.0
11.252,0.458,-0.86,0.0
10.589,0.431,-0.872,0.0
10.049,0.41,-0.887,0.0
9.642,0.393,-0.907,0.0
12.671,0.514,-0.844,0.0
11.69,0.475,-0.846,0.0
11.062,0.45,-0.865,0.0
10.407,0.424,-0.876,0.0
9.921,0.404,-0.892,0.0
9.418,0.384,-0.902,0.0
12.333,0.5,-0.842,0.0
11.457,0.465,-0.849,0.0
10.914,0.443,-0.872,0.0
10.232,0.416,-0.878,0.0
9.838,0.4,-0.902,0.0
9.253,0.376,-0.902,0.0
12.055,0.488,-0.843,0.0
11.31,0.458,-0.857,0.0
10.646,0.431,-0.869,0.0
10.101,0.409,-0.884,0.0
9.613,0.39,-0.897,0.0
9.158,0.372,-0.908,0.0
11.794,0.476,-0.845,0.0
11.132,0.449,-0.862,0.0
10.472,0.423,-0.872,0.0
9.982,0.403,-0.89,0.0
9.489,0.383,-0.902,0.0
9.057,0.366,-0.914,0.0
11.579,0.466,-0.849,0.0
10.972,0.441,-0.868,0.0
10.322,0.415,-0.876,0.0
9.82,0.395,-0.892,0.0
9.383,0.377,-0.907,0.0
8.952,0.36,-0.918,0.0
11.354,0.454,-0.851,0.0
10.745,0.43,-0.867,0.0
10.185,0.407,-0.881,0.0
