X,Y,Z,Reflectivity
11.366,-1.256,-0.884,0.0
13.738,-1.516,-0.682,1.0
12.812,-1.416,-0.705,1.0
12.659,-1.4,-0.765,0.0
12.661,-1.402,-0.835,0.0
12.264,-1.36,-0.875,0.0
11.467,-1.273,-0.88,0.0
14.018,-1.554,-0.681,3.0
12.897,-1.431,-0.696,1.0
12.524,-1.391,-0.743,0.0
12.526,-1.393,-0.812,0.0
12.341,-1.374,-0.867,0.0
11.607,-1.293,-0.878,0.0
14.111,-1.57,-0.671,8.0
13.055,-1.454,-0.691,1.0
12.455,-1.388,-0.726,1.0
12.474,-1.392,-0.796,0.0
12.363,-1.381,-0.855,0.0
11.737,-1.312,-0.875,0.0
14.228,-1.588,-0.661,13.0
13.286,-1.485,-0.688,1.0
12.444,-1.392,-0.712,1.0
12.37,-1.385,-0.775,0.0
12.325,-1.381,-0.839,0.0
11.863,-1.33,-0.871,0.0
14.316,-1.603,-0.649,14.0
13.523,-1.515,-0.686,1.0
12.528,-1.405,-0.703,1.0
12.327,-1.384,-0.759,0.0
12.321,-1.384,-0.825,0.0
12.069,-1.357,-0.873,0.0
14.427,-1.62,-0.638,14.0
13.817,-1.552,-0.685,2.0
12.692,-1.427,-0.698,1.0
12.256,-1.379,-0.741,0.0
12.247,-1.379,-0.806,0.0
12.195,-1.374,-0.868,0.0
14.598,-1.643,-0.629,12.0
13.937,-1.569,-0.675,8.0
12.868,-1.45,-0.693,1.0
12.245,-1.38,-0.726,0.0
12.186,-1.375,-0.788,0.0
12.2,-1.377,-0.854,0.0
14.777,-1.666,-0.62,13.0
14.022,-1.582,-0.663,12.0
13.145,-1.483,-0.692,1.0
12.272,-1.386,-0.713,1.0
12.18,-1.376,-0.773,0.0
12.231,-1.383,-0.842,0.0
15.39,-1.738,-0.628,17.0
14.119,-1.595,-0.651,12.0
13.386,-1.513,-0.689,1.0
12.373,-1.399,-0.705,1.0
12.14,-1.373,-0.756,0.0
12.207,-1.381,-0.826,0.0
15.633,-1.767,-0.619,18.0
14.268,-1.613,-0.641,12.0
13.677,-1.547,-0.688,2.0
12.546,-1.42,-0.7,1.0
12.126,-1.373,-0.741,0.0
12.135,-1.374,-0.807,0.0
15.94,-1.803,-0.612,19.0
14.474,-1.638,-0.633,12.0
13.824,-1.564,-0.679,7.0
12.754,-1.444,-0.696,1.0
12.157,-1.377,-0.728,0.0
12.115,-1.372,-0.791,0.0
16.274,-1.841,-0.606,18.0
14.734,-1.667,-0.627,12.0
13.952,-1.579,-0.668,10.0
12.992,-1.471,-0.693,1.0
12.235,-1.385,-0.718,1.0
12.105,-1.371,-0.775,0.0
16.561,-1.873,-0.596,17.0
15.303,-1.731,-0.632,15.0
14.052,-1.59,-0.656,12.0
13.267,-1.501,-0.691,1.0
12.327,-1.395,-0.708,1.0
12.106,-1.37,-0.76,0.0
16.871,-1.907,-0.587,15.0
15.543,-1.757,-0.623,17.0
14.233,-1.609,-0.646,12.0
13.583,-1.536,-0.691,1.0
12.492,-1.412,-0.702,1.0
12.152,-1.374,-0.748,0.0
17.367,-1.962,-0.582,19.0
15.874,-1.793,-0.617,19.0
14.383,-1.624,-0.635,11.0
13.795,-1.558,-0.684,4.0
12.716,-1.436,-0.699,1.0
12.226,-1.381,-0.737,1.0
17.632,-1.989,-0.569,17.0
16.197,-1.827,-0.609,18.0
14.6,-1.646,-0.627,12.0
13.925,-1.57,-0.674,9.0
12.952,-1.46,-0.696,1.0
12.28,-1.384,-0.725,0.0
18.159,-2.045,-0.564,20.0
16.45,-1.852,-0.598,14.0
14.936,-1.681,-0.623,11.0
14.103,-1.587,-0.665,12.0
13.214,-1.487,-0.693,0.0
12.366,-1.391,-0.714,1.0
18.568,-2.087,-0.553,20.0
16.874,-1.895,-0.592,15.0
15.505,-1.741,-0.627,14.0
14.266,-1.601,-0.654,13.0
13.491,-1.514,-0.691,1.0
12.521,-1.405,-0.708,1.0
18.879,-2.116,-0.539,27.0
17.293,-1.937,-0.586,15.0
15.854,-1.775,-0.621,21.0
14.459,-1.618,-0.645,13.0
13.829,-1.547,-0.691,1.0
12.731,-1.424,-0.704,1.0
19.133,-2.138,-0.522,23.0
17.688,-1.976,-0.577,17.0
16.126,-1.8,-0.612,20.0
14.589,-1.628,-0.632,12.0
14.036,-1.565,-0.683,6.0
12.922,-1.44,-0.698,1.0
19.708,-2.195,-0.513,22.0
18.099,-2.014,-0.567,17.0
16.515,-1.837,-0.606,15.0
14.869,-1.653,-0.626,12.0
14.182,-1.576,-0.672,9.0
13.177,-1.463,-0.695,1.0
20.25,-2.247,-0.502,28.0
18.44,-2.044,-0.555,18.0
17.036,-1.887,-0.603,21.0
15.293,-1.693,-0.624,13.0
14.391,-1.592,-0.664,13.0
13.43,-1.485,-0.691,1.0
20.982,-2.318,-0.494,23.0
18.863,-2.082,-0.544,18.0
17.409,-1.92,-0.594,18.0
15.815,-1.743,-0.626,19.0
14.647,-1.613,-0.657,12.0
13.725,-1.511,-0.689,1.0
21.938,-2.413,-0.488,25.0
19.284,-2.119,-0.532,19.0
17.728,-1.946,-0.583,17.0
16.225,-1.779,-0.621,15.0
14.928,-1.636,-0.651,13.0
14.053,-1.539,-0.688,1.0
22.467,-2.458,-0.472,23.0
19.811,-2.165,-0.521,18.0
18.123,-1.979,-0.573,17.0
16.522,-1.802,-0.612,14.0
15.132,-1.649,-0.641,13.0
14.311,-1.558,-0.682,4.0
23.156,-2.519,-0.457,27.0
20.541,-2.232,-0.514,17.0
18.464,-2.004,-0.56,17.0
17.112,-1.856,-0.612,19.0
15.454,-1.674,-0.635,13.0
14.447,-1.563,-0.671,4.0
23.662,-2.559,-0.438,42.0
20.931,-2.261,-0.498,16.0
19.015,-2.051,-0.553,17.0
17.386,-1.873,-0.6,16.0
15.78,-1.698,-0.628,14.0
14.93,-1.605,-0.674,2.0
24.612,-2.644,-0.424,21.0
22.048,-2.366,-0.497,21.0
19.526,-2.093,-0.544,17.0
17.836,-1.909,-0.594,17.0
16.111,-1.722,-0.622,13.0
15.278,-1.631,-0.671,4.0
0.0,0.0,0.0,0.0
22.609,-2.409,-0.482,26.0
20.106,-2.139,-0.535,17.0
18.21,-1.935,-0.583,16.0
16.615,-1.763,-0.621,15.0
15.435,-1.636,-0.659,9.0
27.881,-2.953,-0.412,32.0
23.162,-2.45,-0.465,9.0
20.694,-2.185,-0.526,18.0
18.621,-1.964,-0.574,17.0
17.063,-1.797,-0.616,15.0
15.871,-1.669,-0.658,5.0
29.294,-3.078,-0.397,28.0
23.495,-2.465,-0.443,1.0
21.401,-2.242,-0.517,19.0
19.15,-2.003,-0.567,20.0
17.416,-1.819,-0.608,16.0
16.225,-1.692,-0.653,9.0
30.375,-3.166,-0.375,24.0
23.557,-2.451,-0.416,1.0
22.012,-2.286,-0.506,20.0
19.705,-2.043,-0.559,18.0
17.785,-1.841,-0.599,16.0
16.482,-1.704,-0.643,13.0
0.0,0.0,0.0,0.0
23.578,-2.431,-0.388,0.0
22.575,-2.324,-0.491,16.0
20.188,-2.074,-0.549,16.0
18.278,-1.875,-0.594,17.0
16.821,-1.722,-0.636,12.0
35.503,-3.634,-0.353,15.0
29.518,-3.015,-0.451,3.0
23.549,-2.401,-0.485,86.0
20.843,-2.121,-0.542,19.0
18.712,-1.901,-0.586,16.0
17.267,-1.751,-0.633,11.0
36.472,-3.696,-0.32,13.0
29.91,-3.025,-0.422,23.0
23.542,-2.377,-0.457,19.0
21.574,-2.173,-0.536,19.0
18.991,-1.909,-0.573,17.0
17.686,-1.775,-0.628,12.0
38.086,-3.82,-0.291,20.0
30.251,-3.028,-0.391,24.0
23.563,-2.353,-0.43,3.0
21.657,-2.158,-0.513,19.0
19.592,-1.949,-0.568,18.0
18.149,-1.802,-0.623,12.0
38.958,-3.865,-0.252,15.0
31.187,-3.087,-0.368,10.0
23.591,-2.33,-0.404,0.0
22.652,-2.233,-0.51,20.0
20.082,-1.975,-0.56,16.0
18.594,-1.825,-0.617,12.0
41.258,-4.047,-0.22,17.0
35.524,-3.477,-0.379,12.0
23.692,-2.313,-0.379,1.0
23.35,-2.275,-0.5,20.0
20.387,-1.981,-0.545,19.0
19.079,-1.85,-0.612,10.0
43.434,-4.21,-0.184,19.0
35.95,-3.476,-0.344,12.0
29.449,-2.841,-0.439,8.0
23.569,-2.268,-0.479,19.0
20.834,-2.0,-0.534,18.0
19.279,-1.846,-0.597,5.0
44.655,-4.275,-0.14,10.0
37.498,-3.581,-0.318,15.0
29.734,-2.832,-0.41,7.0
23.572,-2.24,-0.453,4.0
21.837,-2.07,-0.537,18.0
20.116,-1.902,-0.602,4.0
47.32,-4.472,-0.097,22.0
38.757,-3.653,-0.287,14.0
29.852,-2.806,-0.38,6.0
23.593,-2.212,-0.428,0.0
22.568,-2.11,-0.53,20.0
20.872,-1.946,-0.602,4.0
48.519,-4.522,-0.048,10.0
40.963,-3.807,-0.259,16.0
29.855,-2.767,-0.348,5.0
28.258,-2.612,-0.483,8.0
22.836,-2.105,-0.513,13.0
21.332,-1.961,-0.593,4.0
51.35,-4.718,0.001,17.0
0.0,0.0,0.0,0.0
36.083,-3.296,-0.384,1.0
28.812,-2.624,-0.463,22.0
22.945,-2.084,-0.491,10.0
21.832,-1.978,-0.584,3.0
55.358,-5.011,0.058,1.0
44.717,-4.036,-0.191,19.0
30.004,-2.7,-0.289,2.0
29.525,-2.648,-0.445,17.0
24.644,-2.204,-0.503,24.0
22.385,-1.996,-0.577,3.0
67.731,-6.037,0.138,2.0
47.115,-4.186,-0.155,21.0
39.274,-3.479,-0.339,5.0
29.842,-2.635,-0.42,39.0
25.55,-2.249,-0.496,25.0
23.194,-2.035,-0.575,5.0
67.864,-5.952,0.205,3.0
0.0,0.0,0.0,0.0
41.725,-3.635,-0.32,6.0
29.883,-2.595,-0.392,137.0
26.61,-2.303,-0.491,25.0
23.663,-2.042,-0.564,3.0
81.57,-7.034,0.324,6.0
50.77,-4.363,-0.069,25.0
42.533,-3.643,-0.286,17.0
35.628,-3.041,-0.434,2.0
27.737,-2.36,-0.486,24.0
24.319,-2.062,-0.557,3.0
83.278,-7.057,0.408,11.0
51.618,-4.358,-0.023,6.0
44.064,-3.707,-0.256,18.0
35.368,-2.965,-0.398,44.0
28.786,-2.405,-0.479,25.0
25.36,-2.112,-0.558,3.0
84.903,-7.065,0.492,10.0
56.363,-4.672,0.024,5.0
0.0,0.0,0.0,0.0
35.633,-2.932,-0.37,22.0
29.948,-2.455,-0.471,18.0
26.708,-2.182,-0.564,2.0
86.667,-7.075,0.578,8.0
67.489,-5.488,0.088,6.0
48.955,-3.966,-0.198,20.0
35.644,-2.876,-0.339,1.0
31.742,-2.551,-0.472,4.0
28.56,-2.287,-0.578,1.0
93.182,-7.456,0.702,3.0
67.709,-5.397,0.146,14.0
50.626,-4.018,-0.162,18.0
0.0,0.0,0.0,0.0
32.013,-2.521,-0.45,2.0
30.479,-2.391,-0.592,1.0
67.87,-5.32,0.567,91.0
67.829,-5.295,0.202,64.0
51.904,-4.035,-0.124,5.0
0.0,0.0,0.0,0.0
33.135,-2.555,-0.439,1.0
32.471,-2.494,-0.605,0.0
67.868,-5.208,0.62,8.0
82.889,-6.334,0.311,9.0
45.287,-3.446,-0.073,6.0
40.54,-3.071,-0.288,15.0
35.292,-2.663,-0.44,2.0
0.0,0.0,0.0,0.0
20.011,-1.502,0.198,0.0
83.049,-6.206,0.375,12.0
0.0,0.0,0.0,0.0
45.144,-3.343,-0.286,9.0
38.644,-2.85,-0.453,1.0
33.738,-2.477,-0.578,0.0
20.032,-1.469,0.213,29.0
20.016,-1.461,0.105,11.0
52.064,-3.783,-0.007,1.0
44.891,-3.247,-0.253,0.0
42.818,-3.083,-0.472,0.0
33.736,-2.418,-0.554,0.0
20.042,-1.434,0.227,34.0
20.02,-1.426,0.119,7.0
59.046,-4.186,0.032,0.0
0.0,0.0,0.0,0.0
0.0,0.0,0.0,0.0
0.0,0.0,0.0,0.0
20.049,-1.399,0.241,1.0
95.428,-6.628,0.632,5.0
20.032,-1.384,0.024,0.0
20.001,-1.375,-0.085,15.0
20.019,-1.369,-0.193,19.0
20.045,-1.365,-0.302,17.0
20.007,-1.36,0.253,2.0
19.998,-1.352,0.145,16.0
19.987,-1.344,0.037,18.0
19.994,-1.338,-0.072,26.0
20.003,-1.332,-0.181,31.0
20.037,-1.328,-0.289,28.0
19.958,-1.32,0.265,27.0
19.983,-1.315,0.157,22.0
19.992,-1.308,0.049,26.0
19.982,-1.3,-0.061,27.0
19.998,-1.295,-0.169,32.0
20.026,-1.29,-0.278,27.0
19.958,-1.283,0.276,30.0
19.968,-1.277,0.168,20.0
19.986,-1.27,0.06,25.0
19.972,-1.263,-0.049,18.0
20.033,-1.26,-0.158,26.0
20.042,-1.253,-0.267,18.0
19.936,-1.244,0.287,28.0
19.993,-1.241,0.179,22.0
19.996,-1.234,0.071,26.0
19.991,-1.226,-0.039,151.0
19.986,-1.219,-0.147,150.0
19.974,-1.211,-0.255,150.0
19.938,-1.207,0.297,25.0
19.988,-1.202,0.189,151.0
19.99,-1.195,0.081,151.0
19.992,-1.188,-0.029,150.0
20.003,-1.182,-0.138,151.0
20.008,-1.175,-0.246,71.0
19.954,-1.169,0.307,21.0
20.141,-1.173,0.2,3.0
20.116,-1.164,0.091,8.0
20.089,-1.156,-0.02,0.0
50.254,-2.873,-0.323,0.0
0.0,0.0,0.0,0.0
19.945,-1.13,0.316,19.0
19.993,-1.126,0.207,19.0
20.005,-1.119,0.099,24.0
19.979,-1.111,-0.011,16.0
20.025,-1.106,-0.12,2.0
42.653,-2.341,-0.489,0.0
19.957,-1.092,0.324,18.0
20.003,-1.087,0.216,26.0
19.986,-1.079,0.107,23.0
19.973,-1.071,-0.003,24.0
19.988,-1.065,-0.112,22.0
20.031,-1.06,-0.222,18.0
19.972,-1.054,0.332,14.0
20.012,-1.048,0.223,28.0
19.994,-1.04,0.114,16.0
19.961,-1.031,0.003,19.0
19.982,-1.025,-0.105,28.0
19.988,-1.018,-0.214,30.0
20.158,-1.023,0.341,24.0
20.168,-1.016,0.232,29.0
20.065,-1.004,0.121,2.0
20.003,-0.993,0.009,11.0
19.977,-0.985,-0.099,26.0
19.986,-0.978,-0.208,32.0
20.142,-0.982,0.347,20.0
20.158,-0.976,0.237,1.0
138.181,-6.638,0.875,10.0
19.936,-0.95,0.015,0.0
19.999,-0.945,-0.093,14.0
20.014,-0.939,-0.203,21.0
20.176,-0.943,0.353,0.0
194.538,-9.02,2.347,18.0
138.188,-6.355,0.911,10.0
0.0,0.0,0.0,0.0
0.0,0.0,0.0,0.0
44.694,-2.006,-0.443,0.0
138.073,-6.174,2.453,10.0
0.0,0.0,0.0,0.0
138.012,-6.066,0.94,22.0
0.0,0.0,0.0,0.0
0.0,0.0,0.0,0.0
0.0,0.0,0.0,0.0
192.475,-8.209,3.456,25.0
0.0,0.0,0.0,0.0
138.376,-5.799,0.968,16.0
0.0,0.0,0.0,0.0
0.0,0.0,0.0,0.0
0.0,0.0,0.0,0.0
193.24,-7.845,3.5,13.0
0.0,0.0,0.0,0.0
138.412,-5.514,0.988,16.0
0.0,0.0,0.0,0.0
0.0,0.0,0.0,0.0
46.219,-1.79,-0.435,0.0
193.643,-7.46,3.531,24.0
0.0,0.0,0.0,0.0
138.534,-5.234,1.004,21.0
0.0,0.0,0.0,0.0
0.0,0.0,0.0,0.0
0.0,0.0,0.0,0.0
193.693,-7.06,3.548,17.0
0.0,0.0,0.0,0.0
138.557,-4.945,1.014,16.0
0.0,0.0,0.0,0.0
0.0,0.0,0.0,0.0
44.479,-1.538,-0.412,0.0
187.44,-6.439,3.442,51.0
0.0,0.0,0.0,0.0
138.623,-4.656,1.019,21.0
0.0,0.0,0.0,0.0
0.0,0.0,0.0,0.0
47.591,-1.545,-0.44,0.0
193.595,-6.241,3.556,16.0
0.0,0.0,0.0,0.0
138.692,-4.368,1.019,14.0
0.0,0.0,0.0,0.0
0.0,0.0,0.0,0.0
44.495,-1.351,-0.413,0.0
194.252,-5.852,3.563,8.0
138.537,-4.122,1.776,3.0
138.385,-4.068,1.011,23.0
0.0,0.0,0.0,0.0
59.394,-1.702,-0.227,0.0
44.503,-1.259,-0.415,1.0
0.0,0.0,0.0,0.0
0.0,0.0,0.0,0.0
138.819,-3.788,1.003,15.0
0.0,0.0,0.0,0.0
0.0,0.0,0.0,0.0
44.228,-1.158,-0.417,1.0
193.214,-5.009,3.51,17.0
193.393,-4.939,2.444,9.0
138.84,-3.495,0.987,16.0
0.0,0.0,0.0,0.0
0.0,0.0,0.0,0.0
43.992,-1.059,-0.421,0.0
192.986,-4.595,3.479,20.0
0.0,0.0,0.0,0.0
138.921,-3.204,0.966,17.0
0.0,0.0,0.0,0.0
0.0,0.0,0.0,0.0
44.721,-0.982,-0.436,1.0
193.409,-4.196,3.451,17.0
0.0,0.0,0.0,0.0
138.966,-2.91,0.939,16.0
81.534,-1.676,0.091,1.0
0.0,0.0,0.0,0.0
45.016,-0.893,-0.448,1.0
193.084,-3.776,3.403,24.0
0.0,0.0,0.0,0.0
138.994,-2.617,0.908,16.0
0.0,0.0,0.0,0.0
0.0,0.0,0.0,0.0
0.0,0.0,0.0,0.0
193.774,-3.38,3.365,20.0
0.0,0.0,0.0,0.0
139.043,-2.324,0.871,10.0
0.0,0.0,0.0,0.0
0.0,0.0,0.0,0.0
0.0,0.0,0.0,0.0
0.0,0.0,0.0,0.0
138.923,-2.079,1.599,11.0
138.806,-2.026,0.826,14.0
0.0,0.0,0.0,0.0
0.0,0.0,0.0,0.0
41.251,-0.557,-0.446,0.0
204.389,-2.697,3.421,7.0
139.36,-1.788,1.557,6.0
139.368,-1.737,0.782,3.0
0.0,0.0,0.0,0.0
0.0,0.0,0.0,0.0
0.0,0.0,0.0,0.0
119.745,-1.326,1.959,76.0
119.769,-1.283,1.293,151.0
119.771,-1.241,0.626,22.0
0.0,0.0,0.0,0.0
0.0,0.0,0.0,0.0
0.0,0.0,0.0,0.0
119.761,-1.074,1.911,81.0
119.726,-1.03,1.243,17.0
0.0,0.0,0.0,0.0
0.0,0.0,0.0,0.0
0.0,0.0,0.0,0.0
39.661,-0.285,-0.476,0.0
119.873,-0.824,1.86,2.0
119.716,-0.779,1.189,15.0
110.966,-0.682,0.482,2.0
0.0,0.0,0.0,0.0
0.0,0.0,0.0,0.0
38.583,-0.196,-0.481,0.0
113.021,-0.539,1.699,5.0
119.718,-0.529,1.131,16.0
103.265,-0.419,0.398,3.0
0.0,0.0,0.0,0.0
0.0,0.0,0.0,0.0
0.0,0.0,0.0,0.0
112.403,-0.3,1.631,21.0
114.434,-0.265,1.02,2.0
99.379,-0.197,0.331,2.0
0.0,0.0,0.0,0.0
45.596,-0.058,-0.362,0.0
37.533,-0.035,-0.508,0.0
117.35,-0.07,1.638,15.0
111.108,-0.028,0.929,7.0
95.606,0.007,0.264,5.0
0.0,0.0,0.0,0.0
45.705,0.035,-0.389,1.0
0.0,0.0,0.0,0.0
111.133,0.162,1.485,21.0
110.904,0.201,0.861,9.0
92.526,0.199,0.2,1.0
0.0,0.0,0.0,0.0
44.538,0.126,-0.407,0.0
0.0,0.0,0.0,0.0
111.173,0.394,1.415,21.0
110.816,0.431,0.789,7.0
87.982,0.371,0.133,4.0
0.0,0.0,0.0,0.0
42.893,0.21,-0.42,1.0
35.597,0.186,-0.548,0.0
111.1,0.622,1.34,1.0
104.733,0.622,0.675,7.0
85.99,0.539,0.072,2.0
54.946,0.363,-0.267,0.0
42.879,0.298,-0.449,1.0
35.112,0.255,-0.565,0.0
104.776,0.8,1.191,6.0
98.077,0.78,0.564,13.0
0.0,0.0,0.0,0.0
54.306,0.467,-0.303,0.0
41.191,0.368,-0.461,0.0
33.395,0.31,-0.561,0.0
98.614,0.95,1.049,26.0
85.545,0.852,0.429,6.0
70.955,0.731,-0.043,0.0
0.0,0.0,0.0,0.0
41.128,0.451,-0.491,0.0
32.483,0.366,-0.571,0.0
98.481,1.147,0.972,28.0
85.167,1.02,0.361,13.0
75.184,0.924,-0.103,0.0
0.0,0.0,0.0,0.0
0.0,0.0,0.0,0.0
0.0,0.0,0.0,0.0
98.612,1.344,0.894,23.0
81.017,1.129,0.278,4.0
0.0,0.0,0.0,0.0
46.919,0.685,-0.372,0.0
38.383,0.572,-0.52,0.0
0.0,0.0,0.0,0.0
91.847,1.433,0.756,23.0
77.759,1.238,0.201,4.0
0.0,0.0,0.0,0.0
45.912,0.76,-0.403,1.0
36.303,0.613,-0.523,0.0
30.156,0.518,-0.605,0.0
91.815,1.613,0.675,17.0
0.0,0.0,0.0,0.0
0.0,0.0,0.0,0.0
45.802,0.847,-0.442,0.0
35.276,0.664,-0.54,0.0
29.299,0.561,-0.614,0.0
85.225,1.663,0.549,12.0
70.793,1.403,0.057,4.0
0.0,0.0,0.0,0.0
0.0,0.0,0.0,0.0
0.0,0.0,0.0,0.0
28.691,0.603,-0.627,0.0
84.846,1.818,0.468,10.0
68.913,1.497,-0.008,1.0
0.0,0.0,0.0,0.0
0.0,0.0,0.0,0.0
0.0,0.0,0.0,0.0
27.852,0.639,-0.636,0.0
72.151,1.683,0.328,7.0
66.785,1.577,-0.073,6.0
49.121,1.174,-0.331,0.0
0.0,0.0,0.0,0.0
0.0,0.0,0.0,0.0
26.935,0.668,-0.641,0.0
71.715,1.805,0.255,11.0
65.458,1.668,-0.137,5.0
0.0,0.0,0.0,0.0
0.0,0.0,0.0,0.0
31.144,0.821,-0.597,0.0
26.437,0.704,-0.656,0.0
71.357,1.927,0.181,13.0
57.183,1.561,-0.178,10.0
0.0,0.0,0.0,0.0
35.719,0.996,-0.519,0.0
29.774,0.839,-0.602,0.0
25.841,0.736,-0.669,0.0
70.239,2.027,0.103,7.0
0.0,0.0,0.0,0.0
0.0,0.0,0.0,0.0
34.784,1.033,-0.543,0.0
28.624,0.858,-0.609,2.0
0.0,0.0,0.0,0.0
64.702,1.983,0.025,9.0
55.247,1.709,-0.291,0.0
0.0,0.0,0.0,0.0
0.0,0.0,0.0,0.0
28.571,0.907,-0.639,1.0
24.466,0.784,-0.687,0.0
60.459,1.96,-0.043,3.0
0.0,0.0,0.0,0.0
39.611,1.306,-0.477,0.0
31.897,1.06,-0.569,0.0
0.0,0.0,0.0,0.0
23.762,0.803,-0.694,0.0
59.309,2.026,-0.11,5.0
0.0,0.0,0.0,0.0
37.622,1.306,-0.497,0.0
0.0,0.0,0.0,0.0
26.614,0.938,-0.657,0.0
22.863,0.812,-0.694,0.0
57.996,2.081,-0.175,1.0
44.687,1.615,-0.389,1.0
36.063,1.313,-0.519,0.0
29.704,1.089,-0.599,0.0
25.851,0.955,-0.668,0.0
22.55,0.839,-0.711,0.0
56.798,2.134,-0.239,1.0
44.672,1.69,-0.442,1.0
34.146,1.301,-0.532,0.0
29.02,1.113,-0.62,0.0
24.842,0.959,-0.672,0.0
21.756,0.846,-0.713,0.0
52.692,2.067,-0.286,0.0
40.478,1.599,-0.45,0.0
0.0,0.0,0.0,0.0
27.947,1.118,-0.632,0.0
24.219,0.975,-0.686,0.0
21.319,0.864,-0.725,0.0
0.0,0.0,0.0,0.0
39.117,1.608,-0.484,0.0
31.262,1.293,-0.565,0.0
26.752,1.114,-0.639,0.0
23.363,0.978,-0.691,0.0
20.768,0.875,-0.732,0.0
44.716,1.899,-0.355,0.0
37.245,1.591,-0.508,0.0
30.379,1.305,-0.588,0.0
25.936,1.12,-0.652,0.0
22.777,0.989,-0.702,0.0
20.38,0.891,-0.745,0.0
43.88,1.932,-0.405,1.0
34.873,1.544,-0.521,0.0
29.171,1.298,-0.602,0.0
25.096,1.123,-0.664,0.0
22.215,1.0,-0.714,0.0
19.699,0.891,-0.746,0.0
41.131,1.874,-0.434,0.0
33.765,1.547,-0.549,0.0
28.372,1.307,-0.623,0.0
0.0,0.0,0.0,0.0
21.432,0.997,-0.718,0.0
19.105,0.893,-0.749,0.0
39.828,1.875,-0.473,0.0
0.0,0.0,0.0,0.0
27.054,1.286,-0.63,0.0
23.571,1.126,-0.686,0.0
20.907,1.003,-0.728,0.0
18.694,0.902,-0.758,0.0
37.042,1.799,-0.491,0.0
30.424,1.484,-0.577,0.0
26.297,1.288,-0.648,0.0
22.913,1.128,-0.698,0.0
20.195,0.999,-0.731,0.0
18.269,0.908,-0.766,0.0
35.274,1.763,-0.516,0.0
29.453,1.479,-0.599,0.0
25.553,1.288,-0.666,0.0
22.184,1.124,-0.707,0.0
19.748,1.005,-0.743,0.0
17.88,0.914,-0.775,0.0
33.663,1.73,-0.539,0.0
28.216,1.456,-0.613,0.0
24.59,1.275,-0.675,0.0
21.504,1.119,-0.716,0.0
19.162,1.001,-0.748,0.0
17.343,0.91,-0.776,0.0
32.094,1.693,-0.56,0.0
27.184,1.44,-0.629,0.0
23.647,1.258,-0.683,0.0
20.87,1.114,-0.724,0.0
18.583,0.996,-0.751,0.0
16.953,0.912,-0.783,0.0
30.815,1.667,-0.582,0.0
26.328,1.43,-0.647,0.0
22.776,1.241,-0.691,0.0
20.337,1.113,-0.735,0.0
18.268,1.003,-0.765,0.0
16.611,0.916,-0.791,0.0
29.165,1.616,-0.593,0.0
25.258,1.404,-0.658,0.0
22.201,1.239,-0.706,0.0
19.696,1.103,-0.741,0.0
17.881,1.005,-0.775,0.0
16.231,0.915,-0.797,0.0
28.275,1.601,-0.616,0.0
24.534,1.394,-0.675,0.0
21.553,1.229,-0.717,0.0
19.171,1.097,-0.749,0.0
17.282,0.992,-0.775,0.0
15.848,0.913,-0.801,0.0
27.2,1.574,-0.633,0.0
23.43,1.36,-0.679,0.0
20.782,1.21,-0.722,0.0
18.619,1.088,-0.755,0.0
17.004,0.997,-0.788,0.0
15.557,0.915,-0.81,0.0
26.018,1.536,-0.644,0.0
22.721,1.346,-0.693,0.0
20.229,1.202,-0.733,0.0
18.156,1.082,-0.764,0.0
16.523,0.988,-0.79,0.0
15.169,0.91,-0.813,0.0
25.102,1.511,-0.659,0.0
22.166,1.338,-0.709,0.0
19.67,1.191,-0.742,0.0
17.698,1.075,-0.771,0.0
16.251,0.99,-0.802,0.0
14.881,0.909,-0.82,0.0
24.042,1.473,-0.668,0.0
21.326,1.311,-0.714,0.0
19.128,1.179,-0.751,0.0
17.166,1.061,-0.774,0.0
15.834,0.981,-0.805,0.0
14.522,0.903,-0.822,0.0
23.254,1.45,-0.681,0.0
20.669,1.292,-0.724,0.0
18.51,1.16,-0.755,0.0
16.871,1.06,-0.786,0.0
15.364,0.968,-0.805,0.0
14.208,0.898,-0.826,0.0
22.54,1.428,-0.695,0.0
19.829,1.26,-0.725,0.0
18.057,1.15,-0.764,0.0
16.42,1.049,-0.791,0.0
15.063,0.965,-0.812,0.0
13.931,0.894,-0.832,0.0
21.729,1.398,-0.703,0.0
19.51,1.259,-0.744,0.0
17.552,1.135,-0.77,0.0
16.061,1.041,-0.799,0.0
14.651,0.952,-0.813,0.0
13.68,0.891,-0.838,0.0
21.11,1.378,-0.716,0.0
18.885,1.236,-0.749,0.0
17.157,1.126,-0.78,0.0
15.653,1.029,-0.803,0.0
14.445,0.952,-0.824,0.0
13.423,0.887,-0.843,0.0
20.442,1.353,-0.725,0.0
18.408,1.221,-0.759,0.0
16.753,1.114,-0.787,0.0
15.328,1.022,-0.81,0.0
14.101,0.942,-0.827,0.0
13.099,0.877,-0.844,0.0
19.824,1.33,-0.735,0.0
17.92,1.204,-0.767,0.0
16.341,1.101,-0.794,0.0
14.953,1.009,-0.814,0.0
13.857,0.937,-0.834,0.0
12.843,0.871,-0.847,0.0
19.172,1.302,-0.741,0.0
17.373,1.182,-0.771,0.0
15.957,1.088,-0.8,0.0
14.639,1.0,-0.82,0.0
13.552,0.927,-0.837,0.0
12.541,0.86,-0.847,0.0
18.714,1.285,-0.752,0.0
16.944,1.165,-0.779,0.0
15.377,1.06,-0.795,0.0
14.359,0.992,-0.827,0.0
13.349,0.923,-0.846,0.0
12.278,0.851,-0.849,0.0
18.18,1.262,-0.759,0.0
16.613,1.155,-0.79,0.0
15.156,1.055,-0.808,0.0
13.978,0.975,-0.827,0.0
13.021,0.91,-0.846,0.0
12.043,0.843,-0.852,0.0
17.737,1.243,-0.769,0.0
16.198,1.137,-0.795,0.0
14.849,1.044,-0.815,0.0
13.706,0.965,-0.833,0.0
12.851,0.907,-0.855,0.0
11.782,0.833,-0.852,0.0
17.26,1.221,-0.775,0.0
15.723,1.114,-0.797,0.0
14.517,1.03,-0.819,0.0
13.382,0.951,-0.834,0.0
12.477,0.888,-0.85,0.0
11.563,0.825,-0.855,0.0
16.864,1.203,-0.784,0.0
15.373,1.098,-0.803,0.0
14.181,1.015,-0.823,0.0
13.211,0.947,-0.844,0.0
12.196,0.876,-0.85,0.0
11.352,0.816,-0.857,0.0
16.409,1.18,-0.789,0.0
15.056,1.084,-0.81,0.0
13.847,0.999,-0.825,0.0
12.927,0.933,-0.846,0.0
11.916,0.862,-0.849,0.0
11.167,0.809,-0.861,0.0
16.076,1.164,-0.798,0.0
14.624,1.061,-0.81,0.0
13.653,0.991,-0.835,0.0
12.74,0.927,-0.854,0.0
11.693,0.852,-0.852,0.0
10.984,0.801,-0.864,0.0
15.606,1.138,-0.799,0.0
14.408,1.052,-0.821,0.0
13.324,0.974,-0.836,0.0
12.424,0.909,-0.853,0.0
11.515,0.844,-0.857,0.0
10.819,0.794,-0.868,0.0
15.235,1.117,-0.804,0.0
14.064,1.033,-0.823,0.0
13.102,0.963,-0.843,0.0
12.135,0.893,-0.852,0.0
11.274,0.831,-0.857,0.0
10.639,0.785,-0.87,0.0
15.013,1.107,-0.815,0.0
13.819,1.02,-0.83,0.0
12.853,0.95,-0.846,0.0
11.81,0.874,-0.847,0.0
11.113,0.823,-0.862,0.0
10.495,0.778,-0.875,0.0
14.535,1.077,-0.812,0.0
13.592,1.008,-0.837,0.0
12.597,0.935,-0.849,0.0
11.642,0.865,-0.853,0.0
10.948,0.814,-0.866,0.0
10.355,0.771,-0.879,0.0
14.29,1.063,-0.82,0.0
13.264,0.987,-0.838,0.0
12.277,0.915,-0.846,0.0
11.377,0.849,-0.851,0.0
10.784,0.805,-0.869,0.0
10.208,0.763,-0.882,0.0
14.024,1.047,-0.826,0.0
13.022,0.973,-0.842,0.0
11.999,0.897,-0.845,0.0
11.18,0.837,-0.853,0.0
10.62,0.796,-0.872,0.0
10.099,0.757,-0.888,0.0
13.734,1.028,-0.83,0.0
12.878,0.965,-0.853,0.0
11.783,0.883,-0.848,0.0
11.035,0.828,-0.859,0.0
10.461,0.786,-0.875,0.0
9.961,0.749,-0.891,0.0
13.489,1.012,-0.835,0.0
12.493,0.938,-0.846,0.0
11.581,0.87,-0.851,0.0
10.907,0.82,-0.866,0.0
10.33,0.777,-0.88,0.0
9.803,0.738,-0.892,0.0
13.253,0.996,-0.841,0.0
12.226,0.92,-0.846,0.0
11.393,0.858,-0.854,0.0
10.716,0.807,-0.867,0.0
10.2,0.769,-0.884,0.0
9.67,0.729,-0.894,0.0
13.004,0.979,-0.844,0.0
11.967,0.901,-0.846,0.0
11.199,0.844,-0.856,0.0
10.571,0.797,-0.871,0.0
10.075,0.76,-0.888,0.0
9.551,0.721,-0.898,0.0
12.793,0.963,-0.849,0.0
11.816,0.89,-0.853,0.0
11.028,0.831,-0.86,0.0
10.453,0.789,-0.876,0.0
9.931,0.75,-0.89,0.0
9.472,0.715,-0.904,0.0
12.391,0.933,-0.841,0.0
11.555,0.871,-0.851,0.0
10.87,0.819,-0.863,0.0
10.288,0.776,-0.877,0.0
9.771,0.737,-0.89,0.0
9.316,0.703,-0.903,0.0
12.202,0.919,-0.845,0.0
11.342,0.854,-0.851,0.0
10.753,0.81,-0.869,0.0
10.18,0.767,-0.883,0.0
9.669,0.729,-0.895,0.0
9.22,0.696,-0.907,0.0
11.955,0.899,-0.845,0.0
11.201,0.843,-0.857,0.0
10.595,0.797,-0.871,0.0
10.083,0.759,-0.889,0.0
9.598,0.723,-0.902,0.0
9.126,0.688,-0.91,0.0
11.75,0.882,-0.847,0.0
11.031,0.829,-0.859,0.0
10.418,0.783,-0.871,0.0
9.92,0.746,-0.888,0.0
9.459,0.711,-0.902,0.0
8.971,0.675,-0.907,0.0
11.579,0.868,-0.85,0.0
10.887,0.816,-0.863,0.0
10.298,0.772,-0.875,0.0
9.821,0.736,-0.893,0.0
9.415,0.706,-0.91,0.0
8.91,0.668,-0.913,0.0
11.372,0.85,-0.851,0.0
10.723,0.802,-0.864,0.0
10.239,0.765,-0.884,0.0
9.708,0.726,-0.896,0.0
9.257,0.692,-0.908,0.0
8.84,0.661,-0.918,0.0
11.202,0.835,-0.853,0.0
10.599,0.79,-0.868,0.0
10.073,0.751,-0.883,0.0
9.591,0.715,-0.897,0.0
9.191,0.685,-0.913,0.0
8.716,0.65,-0.917,0.0
11.074,0.822,-0.857,0.0
10.511,0.78,-0.875,0.0
9.936,0.738,-0.884,0.0
9.511,0.706,-0.902,0.0
9.045,0.671,-0.911,0.0
8.643,0.642,-0.92,0.0
10.963,0.811,-0.863,0.0
10.343,0.765,-0.874,0.0
9.838,0.727,-0.888,0.0
9.416,0.696,-0.905,0.0
8.918,0.659,-0.909,0.0
8.58,0.634,-0.925,0.0
10.794,0.794,-0.863,0.0
10.237,0.753,-0.878,0.0
9.721,0.715,-0.89,0.0
9.277,0.682,-0.904,0.0
8.871,0.652,-0.916,0.0
8.473,0.623,-0.924,0.0
10.673,0.781,-0.867,0.0
10.167,0.744,-0.884,0.0
9.633,0.705,-0.893,0.0
9.175,0.671,-0.905,0.0
8.717,0.637,-0.91,0.0
8.356,0.611,-0.921,0.0
10.538,0.767,-0.868,0.0
10.035,0.73,-0.885,0.0
9.508,0.691,-0.893,0.0
9.127,0.664,-0.911,0.0
8.66,0.629,-0.915,0.0
8.287,0.602,-0.924,0.0
10.456,0.756,-0.874,0.0
9.902,0.716,-0.885,0.0
9.481,0.685,-0.902,0.0
9.042,0.653,-0.913,0.0
8.618,0.622,-0.92,0.0
8.221,0.593,-0.926,0.0
10.311,0.741,-0.874,0.0
9.857,0.708,-0.892,0.0
9.416,0.675,-0.907,0.0
8.97,0.643,-0.916,0.0
8.545,0.612,-0.922,0.0
8.15,0.584,-0.927,0.0
10.223,0.729,-0.878,0.0
9.739,0.694,-0.892,0.0
9.22,0.656,-0.898,0.0
0.0,0.0,0.0,0.0
8.458,0.602,-0.922,0.0
8.096,0.576,-0.93,0.0
10.147,0.718,-0.882,0.0
9.656,0.682,-0.895,0.0
9.164,0.647,-0.902,0.0
8.725,0.616,-0.911,0.0
8.347,0.589,-0.919,0.0
8.025,0.566,-0.93,0.0
10.044,0.704,-0.884,0.0
9.606,0.673,-0.901,0.0
0.0,0.0,0.0,0.0
8.732,0.611,-0.92,0.0
8.268,0.578,-0.919,0.0
8.012,0.56,-0.937,0.0
9.938,0.691,-0.885,0.0
9.448,0.656,-0.896,0.0
9.029,0.627,-0.908,0.0
8.64,0.599,-0.919,0.0
8.222,0.57,-0.923,0.0
7.913,0.548,-0.934,0.0
9.889,0.681,-0.89,0.0
9.462,0.651,-0.906,0.0
8.978,0.617,-0.912,0.0
0.0,0.0,0.0,0.0
8.193,0.562,-0.927,0.0
7.864,0.539,-0.936,0.0
9.819,0.669,-0.893,0.0
9.348,0.636,-0.904,0.0
8.973,0.61,-0.92,0.0
8.468,0.575,-0.918,0.0
8.16,0.554,-0.931,0.0
7.793,0.528,-0.935,0.0
9.727,0.656,-0.894,0.0
9.246,0.623,-0.903,0.0
8.779,0.591,-0.908,0.0
8.444,0.567,-0.923,0.0
8.127,0.545,-0.935,0.0
7.736,0.519,-0.935,0.0
9.607,0.64,-0.892,0.0
9.203,0.613,-0.907,0.0
8.756,0.582,-0.913,0.0
8.354,0.555,-0.92,0.0
8.063,0.535,-0.935,0.0
7.719,0.512,-0.94,0.0
9.561,0.63,-0.895,0.0
9.101,0.599,-0.905,0.0
8.692,0.571,-0.914,0.0
8.304,0.545,-0.922,0.0
7.997,0.524,-0.934,0.0
7.627,0.499,-0.935,0.0
9.489,0.617,-0.897,0.0
9.114,0.592,-0.913,0.0
8.701,0.564,-0.922,0.0
8.234,0.533,-0.921,0.0
7.964,0.515,-0.936,0.0
7.616,0.492,-0.939,0.0
9.438,0.606,-0.899,0.0
9.01,0.578,-0.91,0.0
8.633,0.553,-0.921,0.0
0.0,0.0,0.0,0.0
7.876,0.503,-0.932,0.0
7.615,0.485,-0.945,0.0
9.39,0.595,-0.902,0.0
8.978,0.568,-0.913,0.0
8.55,0.54,-0.919,0.0
0.0,0.0,0.0,0.0
7.868,0.495,-0.937,0.0
7.531,0.473,-0.94,0.0
9.322,0.582,-0.902,0.0
8.875,0.553,-0.909,0.0
8.453,0.526,-0.914,0.0
8.102,0.503,-0.924,0.0
7.832,0.486,-0.938,0.0
7.517,0.466,-0.944,0.0
9.272,0.57,-0.903,0.0
8.854,0.544,-0.913,0.0
8.491,0.521,-0.924,0.0
8.109,0.496,-0.93,0.0
7.814,0.477,-0.941,0.0
0.0,0.0,0.0,0.0
9.175,0.556,-0.899,0.0
8.784,0.531,-0.911,0.0
8.419,0.508,-0.921,0.0
8.069,0.486,-0.93,0.0
7.703,0.463,-0.932,0.0
7.384,0.443,-0.936,0.0
9.165,0.546,-0.904,0.0
8.765,0.521,-0.914,0.0
8.366,0.497,-0.921,0.0
8.037,0.476,-0.931,0.0
7.706,0.456,-0.937,0.0
7.407,0.437,-0.943,0.0
9.115,0.534,-0.904,0.0
8.724,0.51,-0.915,0.0
8.302,0.484,-0.918,0.0
8.012,0.467,-0.932,0.0
7.671,0.446,-0.937,0.0
7.421,0.43,-0.949,0.0
9.108,0.525,-0.908,0.0
8.71,0.501,-0.918,0.0
8.318,0.477,-0.924,0.0
7.945,0.455,-0.929,0.0
7.642,0.436,-0.937,0.0
7.313,0.417,-0.939,0.0
9.047,0.512,-0.906,0.0
8.665,0.489,-0.917,0.0
8.272,0.466,-0.923,0.0
7.955,0.447,-0.933,0.0
7.62,0.427,-0.938,0.0
7.357,0.411,-0.948,0.0
9.032,0.501,-0.908,0.0
8.616,0.477,-0.915,0.0
8.288,0.458,-0.928,0.0
7.907,0.436,-0.931,0.0
7.602,0.418,-0.939,0.0
7.29,0.4,-0.942,0.0
9.0,0.49,-0.908,0.0
8.672,0.471,-0.925,0.0
8.27,0.448,-0.929,0.0
7.922,0.428,-0.936,0.0
7.605,0.41,-0.942,0.0
7.282,0.391,-0.943,0.0
9.021,0.481,-0.914,0.0
8.645,0.46,-0.924,0.0
8.242,0.437,-0.928,0.0
7.849,0.415,-0.929,0.0
7.584,0.4,-0.941,0.0
7.268,0.382,-0.944,0.0
8.95,0.468,-0.909,0.0
8.49,0.442,-0.91,0.0
8.243,0.428,-0.931,0.0
0.0,0.0,0.0,0.0
7.555,0.39,-0.94,0.0
7.297,0.376,-0.949,0.0
8.928,0.456,-0.909,0.0
8.568,0.437,-0.921,0.0
8.221,0.418,-0.93,0.0
0.0,0.0,0.0,0.0
7.542,0.381,-0.94,0.0
7.26,0.366,-0.946,0.0
8.928,0.446,-0.911,0.0
8.53,0.425,-0.918,0.0
8.21,0.408,-0.93,0.0
0.0,0.0,0.0,0.0
7.505,0.371,-0.937,0.0
7.265,0.358,-0.948,0.0
8.87,0.433,-0.906,0.0
8.491,0.413,-0.916,0.0
8.159,0.396,-0.926,0.0
7.833,0.379,-0.934,0.0
7.482,0.361,-0.935,0.0
7.233,0.347,-0.945,0.0
8.893,0.424,-0.91,0.0
8.51,0.404,-0.919,0.0
8.2,0.388,-0.932,0.0
7.807,0.368,-0.932,0.0
7.532,0.354,-0.942,0.0
7.243,0.339,-0.947,0.0
8.864,0.412,-0.907,0.0
8.472,0.392,-0.915,0.0
8.164,0.377,-0.928,0.0
7.818,0.36,-0.933,0.0
7.542,0.346,-0.943,0.0
7.218,0.33,-0.944,0.0
8.884,0.403,-0.91,0.0
8.491,0.383,-0.917,0.0
8.134,0.366,-0.925,0.0
7.832,0.351,-0.935,0.0
7.527,0.336,-0.942,0.0
7.187,0.32,-0.94,0.0
8.918,0.394,-0.913,0.0
8.48,0.373,-0.916,0.0
8.188,0.358,-0.93,0.0
7.808,0.34,-0.932,0.0
7.545,0.328,-0.943,0.0
7.268,0.314,-0.95,0.0
8.874,0.381,-0.908,0.0
8.528,0.365,-0.92,0.0
8.166,0.348,-0.927,0.0
7.815,0.331,-0.932,0.0
7.505,0.317,-0.938,0.0
7.274,0.306,-0.95,0.0
8.92,0.372,-0.912,0.0
8.548,0.355,-0.922,0.0
8.184,0.338,-0.928,0.0
7.811,0.322,-0.931,0.0
7.513,0.308,-0.938,0.0
7.281,0.297,-0.95,0.0
8.961,0.363,-0.915,0.0
8.546,0.345,-0.92,0.0
8.149,0.327,-0.923,0.0
7.853,0.314,-0.934,0.0
7.57,0.301,-0.943,0.0
7.249,0.287,-0.944,0.0
8.961,0.352,-0.913,0.0
8.596,0.336,-0.924,0.0
8.155,0.317,-0.922,0.0
7.86,0.304,-0.934,0.0
7.535,0.29,-0.937,0.0
7.277,0.279,-0.946,0.0
8.949,0.341,-0.909,0.0
8.587,0.325,-0.921,0.0
8.201,0.309,-0.925,0.0
7.82,0.293,-0.927,0.0
7.556,0.282,-0.938,0.0
7.286,0.271,-0.945,0.0
8.984,0.331,-0.91,0.0
8.58,0.314,-0.917,0.0
8.251,0.301,-0.928,0.0
7.903,0.287,-0.934,0.0
7.593,0.274,-0.94,0.0
7.317,0.263,-0.947,0.0
9.001,0.32,-0.909,0.0
8.612,0.305,-0.918,0.0
8.29,0.292,-0.93,0.0
7.894,0.276,-0.93,0.0
7.604,0.265,-0.939,0.0
7.308,0.253,-0.943,0.0
9.05,0.311,-0.911,0.0
8.599,0.294,-0.913,0.0
8.299,0.282,-0.927,0.0
7.964,0.269,-0.935,0.0
7.629,0.256,-0.938,0.0
7.301,0.244,-0.939,0.0
9.108,0.302,-0.913,0.0
8.663,0.285,-0.916,0.0
8.308,0.272,-0.925,0.0
7.987,0.26,-0.934,0.0
7.689,0.249,-0.942,0.0
7.355,0.236,-0.943,0.0
9.091,0.29,-0.907,0.0
8.713,0.276,-0.917,0.0
8.343,0.263,-0.925,0.0
7.954,0.249,-0.926,0.0
7.729,0.241,-0.943,0.0
7.395,0.229,-0.944,0.0
9.136,0.281,-0.906,0.0
8.761,0.267,-0.918,0.0
8.391,0.254,-0.925,0.0
0.0,0.0,0.0,0.0
7.689,0.23,-0.934,0.0
7.401,0.22,-0.94,0.0
9.17,0.27,-0.905,0.0
8.763,0.256,-0.913,0.0
8.419,0.245,-0.924,0.0
8.067,0.233,-0.93,0.0
7.783,0.223,-0.941,0.0
7.469,0.213,-0.944,0.0
9.239,0.261,-0.906,0.0
8.861,0.248,-0.918,0.0
8.443,0.235,-0.921,0.0
0.0,0.0,0.0,0.0
7.792,0.214,-0.937,0.0
7.493,0.204,-0.943,0.0
9.304,0.252,-0.906,0.0
8.838,0.237,-0.909,0.0
8.478,0.226,-0.919,0.0
0.0,0.0,0.0,0.0
7.786,0.204,-0.931,0.0
7.541,0.196,-0.943,0.0
9.381,0.242,-0.907,0.0
8.958,0.229,-0.915,0.0
8.585,0.218,-0.924,0.0
0.0,0.0,0.0,0.0
7.863,0.197,-0.934,0.0
7.566,0.188,-0.941,0.0
9.394,0.231,-0.901,0.0
9.018,0.22,-0.915,0.0
8.585,0.208,-0.918,0.0
8.213,0.197,-0.924,0.0
7.934,0.189,-0.937,0.0
7.627,0.18,-0.943,0.0
9.444,0.221,-0.899,0.0
9.041,0.21,-0.91,0.0
8.609,0.198,-0.914,0.0
8.341,0.19,-0.932,0.0
7.941,0.18,-0.931,0.0
7.647,0.172,-0.939,0.0
9.541,0.212,-0.9,0.0
9.14,0.202,-0.912,0.0
8.771,0.192,-0.923,0.0
8.311,0.18,-0.921,0.0
8.04,0.173,-0.936,0.0
7.71,0.164,-0.94,0.0
9.667,0.204,-0.904,0.0
9.213,0.193,-0.911,0.0
8.834,0.183,-0.922,0.0
8.389,0.172,-0.923,0.0
8.064,0.164,-0.931,0.0
7.764,0.156,-0.939,0.0
9.728,0.194,-0.9,0.0
9.241,0.182,-0.906,0.0
8.867,0.173,-0.917,0.0
8.44,0.163,-0.92,0.0
8.107,0.155,-0.928,0.0
7.76,0.147,-0.931,0.0
9.789,0.184,-0.897,0.0
9.339,0.174,-0.906,0.0
8.904,0.164,-0.913,0.0
0.0,0.0,0.0,0.0
8.183,0.147,-0.929,0.0
7.852,0.14,-0.934,0.0
9.847,0.174,-0.892,0.0
9.408,0.164,-0.903,0.0
0.0,0.0,0.0,0.0
0.0,0.0,0.0,0.0
8.24,0.139,-0.927,0.0
7.9,0.132,-0.932,0.0
9.945,0.165,-0.891,0.0
9.467,0.155,-0.899,0.0
9.086,0.147,-0.912,0.0
0.0,0.0,0.0,0.0
8.373,0.132,-0.933,0.0
7.984,0.124,-0.933,0.0
10.063,0.155,-0.891,0.0
9.614,0.147,-0.903,0.0
9.177,0.138,-0.911,0.0
0.0,0.0,0.0,0.0
8.39,0.123,-0.925,0.0
8.087,0.117,-0.936,0.0
10.178,0.146,-0.889,0.0
9.719,0.138,-0.902,0.0
9.222,0.129,-0.905,0.0
0.0,0.0,0.0,0.0
8.494,0.115,-0.927,0.0
8.089,0.108,-0.927,0.0
10.275,0.137,-0.886,0.0
9.81,0.128,-0.899,0.0
9.344,0.121,-0.906,0.0
0.0,0.0,0.0,0.0
8.545,0.107,-0.922,0.0
8.212,0.101,-0.931,0.0
10.346,0.127,-0.88,0.0
9.888,0.119,-0.894,0.0
9.494,0.113,-0.909,0.0
9.019,0.105,-0.913,0.0
8.625,0.099,-0.92,0.0
8.258,0.093,-0.926,0.0
10.425,0.117,-0.873,0.0
10.006,0.11,-0.892,0.0
9.603,0.104,-0.908,0.0
9.17,0.098,-0.917,0.0
8.699,0.091,-0.917,0.0
8.37,0.086,-0.928,0.0
10.578,0.108,-0.873,0.0
10.144,0.102,-0.891,0.0
9.715,0.096,-0.906,0.0
9.238,0.089,-0.912,0.0
8.843,0.084,-0.921,0.0
8.451,0.078,-0.925,0.0
10.713,0.099,-0.87,0.0
10.242,0.093,-0.886,0.0
9.766,0.087,-0.898,0.0
9.319,0.081,-0.907,0.0
8.929,0.076,-0.918,0.0
8.516,0.071,-0.921,0.0
10.872,0.09,-0.868,0.0
10.352,0.084,-0.882,0.0
9.921,0.078,-0.898,0.0
9.455,0.073,-0.908,0.0
9.041,0.068,-0.916,0.0
8.659,0.064,-0.924,0.0
11.011,0.081,-0.864,0.0
10.464,0.075,-0.877,0.0
10.004,0.07,-0.892,0.0
9.626,0.065,-0.91,0.0
9.137,0.06,-0.913,0.0
8.758,0.056,-0.922,0.0
11.227,0.072,-0.865,0.0
10.624,0.066,-0.875,0.0
10.139,0.061,-0.889,0.0
9.712,0.057,-0.905,0.0
9.247,0.053,-0.911,0.0
8.85,0.049,-0.919,0.0
11.362,0.063,-0.859,0.0
10.782,0.058,-0.872,0.0
10.256,0.053,-0.884,0.0
9.795,0.049,-0.898,0.0
9.403,0.045,-0.912,0.0
8.95,0.042,-0.916,0.0
11.534,0.053,-0.854,0.0
10.983,0.049,-0.872,0.0
10.371,0.045,-0.878,0.0
9.94,0.041,-0.896,0.0
9.598,0.038,-0.916,0.0
9.074,0.034,-0.915,0.0
11.721,0.044,-0.85,0.0
11.09,0.04,-0.863,0.0
10.518,0.036,-0.875,0.0
10.074,0.033,-0.892,0.0
9.678,0.03,-0.909,0.0
9.204,0.027,-0.913,0.0
11.981,0.036,-0.85,0.0
11.321,0.032,-0.863,0.0
10.736,0.028,-0.876,0.0
10.225,0.025,-0.889,0.0
9.747,0.023,-0.9,0.0
9.341,0.02,-0.912,0.0
12.26,0.027,-0.851,0.0
11.476,0.023,-0.857,0.0
10.898,0.02,-0.872,0.0
10.339,0.018,-0.883,0.0
9.923,0.015,-0.9,0.0
9.416,0.013,-0.904,0.0
12.542,0.018,-0.85,0.0
11.649,0.015,-0.851,0.0
11.085,0.012,-0.868,0.0
10.486,0.01,-0.878,0.0
10.037,0.008,-0.894,0.0
9.627,0.006,-0.908,0.0
12.793,0.009,-0.846,0.0
11.905,0.006,-0.85,0.0
11.281,0.004,-0.865,0.0
10.693,0.003,-0.877,0.0
10.22,0.001,-0.893,0.0
9.765,0.0,-0.905,0.0
13.154,0.0,-0.848,0.0
12.243,-0.001,-0.854,0.0
11.445,-0.002,-0.858,0.0
10.875,-0.004,-0.874,0.0
10.351,-0.005,-0.887,0.0
9.873,-0.006,-0.898,0.0
13.455,-0.008,-0.845,0.0
12.522,-0.009,-0.852,0.0
11.662,-0.01,-0.855,0.0
11.04,-0.011,-0.868,0.0
10.504,-0.012,-0.882,0.0
10.063,-0.013,-0.898,0.0
13.655,-0.017,-0.834,0.0
12.854,-0.018,-0.852,0.0
11.894,-0.018,-0.851,0.0
11.278,-0.018,-0.867,0.0
10.686,-0.019,-0.878,0.0
10.194,-0.019,-0.891,0.0
14.126,-0.026,-0.837,0.0
13.206,-0.026,-0.852,0.0
12.216,-0.026,-0.852,0.0
11.461,-0.026,-0.861,0.0
10.887,-0.026,-0.875,0.0
10.384,-0.026,-0.889,0.0
14.355,-0.035,-0.825,0.0
13.424,-0.034,-0.842,0.0
12.511,-0.033,-0.85,0.0
11.664,-0.033,-0.855,0.0
11.087,-0.032,-0.871,0.0
10.513,-0.032,-0.881,0.0
14.695,-0.044,-0.818,0.0
13.772,-0.043,-0.839,0.0
12.921,-0.041,-0.855,0.0
11.946,-0.04,-0.854,0.0
11.273,-0.039,-0.865,0.0
10.734,-0.038,-0.88,0.0
15.185,-0.053,-0.818,0.0
14.18,-0.051,-0.837,0.0
13.192,-0.049,-0.848,0.0
12.285,-0.047,-0.855,0.0
11.524,-0.045,-0.862,0.0
10.893,-0.044,-0.872,0.0
15.564,-0.062,-0.809,0.0
14.477,-0.059,-0.828,0.0
13.532,-0.057,-0.844,0.0
12.591,-0.054,-0.853,0.0
11.722,-0.052,-0.855,0.0
11.094,-0.05,-0.867,0.0
15.978,-0.071,-0.8,0.0
14.784,-0.067,-0.818,0.0
13.904,-0.064,-0.841,0.0
12.855,-0.061,-0.846,0.0
12.06,-0.058,-0.857,0.0
11.351,-0.056,-0.866,0.0
16.514,-0.08,-0.796,0.0
15.231,-0.075,-0.813,0.0
14.205,-0.072,-0.832,0.0
13.324,-0.068,-0.852,0.0
12.404,-0.065,-0.858,0.0
11.558,-0.061,-0.859,0.0
17.054,-0.089,-0.789,0.0
15.745,-0.084,-0.811,0.0
14.58,-0.079,-0.827,0.0
13.616,-0.075,-0.844,0.0
12.666,-0.07,-0.851,0.0
11.801,-0.067,-0.855,0.0
17.54,-0.098,-0.778,0.0
16.164,-0.091,-0.801,0.0
14.996,-0.086,-0.821,0.0
13.882,-0.081,-0.833,0.0
13.132,-0.077,-0.857,0.0
12.19,-0.073,-0.859,0.0
18.186,-0.107,-0.771,0.0
16.732,-0.1,-0.796,0.0
15.432,-0.093,-0.814,0.0
14.329,-0.087,-0.832,0.0
13.417,-0.083,-0.849,0.0
12.504,-0.078,-0.856,0.0
18.839,-0.116,-0.762,0.0
17.218,-0.107,-0.785,0.0
15.806,-0.099,-0.803,0.0
14.692,-0.093,-0.824,0.0
13.706,-0.088,-0.84,0.0
12.712,-0.082,-0.845,0.0
19.548,-0.125,-0.751,0.0
17.773,-0.115,-0.775,0.0
16.459,-0.107,-0.803,0.0
15.125,-0.099,-0.818,0.0
14.138,-0.094,-0.838,0.0
13.251,-0.088,-0.854,0.0
20.262,-0.134,-0.738,0.0
18.463,-0.123,-0.768,0.0
16.87,-0.113,-0.789,0.0
15.635,-0.105,-0.814,0.0
14.498,-0.099,-0.83,0.0
13.602,-0.093,-0.849,0.0
21.137,-0.143,-0.728,0.0
19.028,-0.13,-0.753,0.0
17.476,-0.12,-0.782,0.0
16.157,-0.111,-0.808,0.0
14.935,-0.103,-0.825,0.0
13.925,-0.097,-0.841,0.0
22.096,-0.152,-0.716,0.0
19.933,-0.138,-0.749,0.0
18.071,-0.126,-0.772,0.0
16.595,-0.116,-0.797,0.0
15.363,-0.108,-0.817,0.0
14.327,-0.101,-0.836,0.0
23.05,-0.161,-0.7,0.0
20.674,-0.145,-0.734,0.0
18.763,-0.132,-0.764,0.0
17.065,-0.121,-0.784,0.0
15.824,-0.112,-0.809,0.0
14.733,-0.105,-0.83,0.0
24.509,-0.172,-0.694,0.0
21.505,-0.152,-0.72,0.0
19.42,-0.137,-0.751,0.0
17.675,-0.125,-0.776,0.0
16.393,-0.117,-0.804,0.0
15.113,-0.108,-0.82,0.0
25.367,-0.179,-0.666,0.0
22.604,-0.16,-0.71,0.0
20.392,-0.144,-0.746,0.0
18.373,-0.13,-0.769,0.0
16.894,-0.12,-0.794,0.0
15.576,-0.111,-0.813,0.0
26.796,-0.188,-0.649,0.0
23.542,-0.166,-0.691,0.0
21.061,-0.148,-0.727,0.0
19.096,-0.135,-0.759,0.0
17.502,-0.123,-0.786,0.0
16.213,-0.114,-0.812,0.0
28.484,-0.199,-0.631,0.0
24.819,-0.173,-0.677,0.0
22.16,-0.154,-0.719,0.0
19.889,-0.139,-0.749,0.0
18.144,-0.126,-0.777,0.0
16.69,-0.116,-0.801,0.0
0.0,0.0,0.0,0.0
26.268,-0.18,-0.662,0.0
23.098,-0.158,-0.701,0.0
20.65,-0.141,-0.735,0.0
18.705,-0.128,-0.762,0.0
17.19,-0.117,-0.789,0.0
32.801,-0.221,-0.589,0.0
27.927,-0.188,-0.645,0.0
24.58,-0.165,-0.694,0.0
21.6,-0.145,-0.724,0.0
19.554,-0.13,-0.756,0.0
17.84,-0.119,-0.782,0.0
0.0,0.0,0.0,0.0
29.279,-0.192,-0.615,0.0
25.514,-0.166,-0.667,0.0
22.459,-0.146,-0.705,0.0
20.338,-0.132,-0.744,0.0
18.451,-0.119,-0.77,0.0
37.797,-0.24,-0.521,0.0
31.272,-0.198,-0.592,0.0
27.106,-0.171,-0.652,0.0
23.875,-0.149,-0.699,0.0
21.218,-0.132,-0.731,0.0
19.218,-0.119,-0.761,0.0
0.0,0.0,0.0,0.0
0.0,0.0,0.0,0.0
28.879,-0.174,-0.634,0.0
24.897,-0.149,-0.677,0.0
22.18,-0.132,-0.717,0.0
19.969,-0.118,-0.749,0.0
0.0,0.0,0.0,0.0
0.0,0.0,0.0,0.0
30.62,-0.175,-0.608,0.0
26.321,-0.15,-0.661,0.0
23.275,-0.131,-0.704,0.0
20.947,-0.117,-0.741,0.0
0.0,0.0,0.0,0.0
0.0,0.0,0.0,0.0
0.0,0.0,0.0,0.0
27.846,-0.149,-0.641,0.0
24.507,-0.129,-0.69,0.0
21.966,-0.115,-0.731,0.0
0.0,0.0,0.0,0.0
0.0,0.0,0.0,0.0
0.0,0.0,0.0,0.0
29.528,-0.146,-0.617,0.0
25.815,-0.126,-0.672,0.0
22.655,-0.109,-0.707,0.0
0.0,0.0,0.0,0.0
45.863,-0.214,-0.385,0.0
0.0,0.0,0.0,0.0
0.0,0.0,0.0,0.0
27.471,-0.122,-0.658,0.0
23.994,-0.105,-0.698,0.0
0.0,0.0,0.0,0.0
51.02,-0.215,-0.322,1.0
0.0,0.0,0.0,0.0
0.0,0.0,0.0,0.0
29.2,-0.116,-0.638,0.0
25.388,-0.099,-0.686,0.0
0.0,0.0,0.0,0.0
0.0,0.0,0.0,0.0
45.18,-0.165,-0.423,1.0
0.0,0.0,0.0,0.0
0.0,0.0,0.0,0.0
26.575,-0.09,-0.663,0.0
102.921,-0.34,0.306,2.0
0.0,0.0,0.0,0.0
0.0,0.0,0.0,0.0
0.0,0.0,0.0,0.0
32.837,-0.096,-0.581,0.0
0.0,0.0,0.0,0.0
110.947,-0.305,0.561,4.0
73.782,-0.196,-0.006,0.0
0.0,0.0,0.0,0.0
44.785,-0.11,-0.47,1.0
35.563,-0.084,-0.556,0.0
0.0,0.0,0.0,0.0
114.475,-0.248,0.813,63.0
0.0,0.0,0.0,0.0
0.0,0.0,0.0,0.0
45.454,-0.084,-0.384,1.0
0.0,0.0,0.0,0.0
32.168,-0.053,-0.603,0.0
117.408,-0.181,1.075,8.0
103.471,-0.148,0.415,1.0
0.0,0.0,0.0,0.0
0.0,0.0,0.0,0.0
0.0,0.0,0.0,0.0
33.947,-0.033,-0.567,0.0
117.406,-0.104,1.315,20.0
110.911,-0.085,0.671,10.0
0.0,0.0,0.0,0.0
0.0,0.0,0.0,0.0
45.134,-0.019,-0.43,2.0
37.169,-0.011,-0.546,0.0
117.314,-0.022,1.553,13.0
111.298,-0.007,0.9,7.0
96.935,0.005,0.283,1.0
0.0,0.0,0.0,0.0
49.851,0.014,-0.374,0.0
0.0,0.0,0.0,0.0
117.302,0.063,1.791,11.0
111.216,0.074,1.122,16.0
103.855,0.082,0.512,8.0
0.0,0.0,0.0,0.0
0.0,0.0,0.0,0.0
42.888,0.051,-0.456,1.0
117.417,0.154,2.029,21.0
111.123,0.16,1.346,21.0
110.748,0.174,0.767,11.0
93.012,0.159,0.155,2.0
0.0,0.0,0.0,0.0
45.798,0.09,-0.396,0.0
193.543,0.409,3.73,5.0
111.09,0.25,1.567,14.0
111.147,0.266,0.994,15.0
94.515,0.239,0.346,2.0
73.227,0.195,-0.111,0.0
52.914,0.149,-0.353,0.0
119.854,0.354,2.549,7.0
119.86,0.371,1.928,8.0
119.716,0.388,1.306,17.0
104.299,0.354,0.588,8.0
0.0,0.0,0.0,0.0
0.0,0.0,0.0,0.0
119.858,0.459,2.785,23.0
119.872,0.477,2.165,54.0
111.202,0.46,1.433,20.0
110.896,0.475,0.842,15.0
89.461,0.397,0.215,2.0
0.0,0.0,0.0,0.0
119.808,0.567,3.018,11.0
111.114,0.544,2.223,21.0
111.089,0.561,1.646,27.0
111.038,0.579,1.059,23.0
97.016,0.521,0.423,2.0
70.891,0.392,-0.058,0.0
111.072,0.631,3.015,25.0
111.07,0.649,2.438,27.0
111.066,0.667,1.862,34.0
101.656,0.628,1.166,1.0
104.855,0.665,0.658,14.0
86.392,0.562,0.094,5.0
111.06,0.739,3.226,29.0
111.09,0.757,2.649,24.0
111.059,0.776,2.072,10.0
100.479,0.719,1.342,3.0
104.846,0.768,0.856,25.0
85.49,0.641,0.254,4.0
104.728,0.801,3.239,22.0
104.751,0.819,2.695,32.0
0.0,0.0,0.0,0.0
100.055,0.817,1.522,5.0
104.764,0.874,1.049,20.0
98.011,0.835,0.471,9.0
69.831,0.605,2.289,17.0
104.715,0.927,2.887,35.0
104.727,0.945,2.341,4.0
104.718,0.964,1.786,32.0
98.809,0.928,1.171,17.0
98.403,0.942,0.654,16.0
104.569,1.018,3.622,21.0
98.808,0.98,2.907,18.0
98.782,0.998,2.391,17.0
98.694,1.016,1.865,23.0
98.64,1.033,1.349,28.0
98.507,1.052,0.835,20.0
69.857,0.757,2.547,9.0
98.702,1.088,3.084,25.0
98.62,1.107,2.568,23.0
98.571,1.124,2.041,31.0
98.553,1.143,1.527,34.0
98.55,1.162,1.012,31.0
98.626,1.179,3.773,17.0
98.398,1.195,3.25,26.0
98.592,1.217,2.742,27.0
98.537,1.236,2.215,32.0
98.577,1.255,1.701,33.0
98.519,1.274,1.185,32.0
98.265,1.288,3.933,23.0
69.768,0.928,2.427,10.0
98.47,1.329,2.91,31.0
98.544,1.349,2.386,31.0
98.591,1.37,1.872,32.0
98.503,1.389,1.356,28.0
98.198,1.403,4.102,26.0
98.384,1.426,3.595,10.0
98.513,1.447,3.083,12.0
98.586,1.469,2.56,27.0
119.935,1.812,2.486,50.0
92.023,1.409,1.426,16.0
78.755,1.221,3.427,12.0
69.936,1.098,2.676,8.0
70.065,1.115,2.313,7.0
92.018,1.484,2.547,11.0
91.96,1.503,2.064,27.0
91.903,1.521,1.581,35.0
78.773,1.319,3.562,3.0
120.337,2.04,4.809,15.0
120.716,2.073,4.191,25.0
91.863,1.597,2.698,17.0
91.844,1.616,2.214,36.0
91.743,1.634,1.731,19.0
91.698,1.652,4.3,12.0
78.771,1.435,3.279,18.0
70.133,1.293,2.551,9.0
91.795,1.713,2.847,39.0
91.791,1.733,2.365,16.0
88.337,1.687,1.812,4.0
85.448,1.65,4.147,13.0
91.488,1.787,3.959,14.0
91.581,1.809,3.481,16.0
91.791,1.833,2.997,32.0
91.886,1.855,2.515,29.0
87.082,1.777,1.926,17.0
85.139,1.756,4.271,19.0
85.331,1.779,3.829,30.0
78.863,1.661,3.123,23.0
85.299,1.816,2.92,35.0
85.278,1.835,2.469,32.0
85.272,1.854,2.02,34.0
85.307,1.873,4.413,26.0
85.309,1.892,3.962,39.0
85.293,1.911,3.511,35.0
78.889,1.786,2.823,17.0
85.249,1.95,2.601,34.0
85.233,1.969,2.152,35.0
82.967,1.935,4.421,22.0
85.381,2.011,4.097,29.0
85.361,2.03,3.645,27.0
78.879,1.893,2.942,10.0
85.303,2.067,2.731,29.0
85.308,2.086,2.28,27.0
83.692,2.066,4.584,7.0
82.139,2.047,4.064,5.0
78.91,1.985,3.486,10.0
78.869,2.002,3.059,18.0
78.852,2.019,2.641,27.0
78.956,2.041,2.226,22.0
78.786,2.056,4.433,28.0
78.787,2.074,4.014,29.0
78.795,2.093,3.597,38.0
78.789,2.11,3.17,35.0
78.794,2.129,2.753,29.0
78.836,2.149,2.337,32.0
73.176,2.013,4.223,10.0
78.857,2.188,4.131,17.0
78.841,2.205,3.71,22.0
78.834,2.224,3.284,22.0
78.801,2.242,2.864,20.0
78.831,2.261,2.446,24.0
72.06,2.086,4.259,20.0
72.853,2.126,3.919,12.0
65.482,1.927,3.174,3.0
117.747,3.495,5.071,4.0
78.794,2.357,2.973,13.0
78.933,2.38,2.559,21.0
70.961,2.159,4.294,8.0
83.01,2.545,4.58,14.0
82.332,2.543,4.103,8.0
117.387,3.655,5.213,5.0
78.787,2.472,3.08,30.0
190.778,6.032,6.44,16.0
65.587,2.091,4.056,13.0
72.182,2.319,4.079,19.0
65.524,2.121,3.353,18.0
72.393,2.361,3.31,31.0
72.451,2.381,2.927,33.0
72.452,2.399,2.54,35.0
65.642,2.192,4.145,19.0
72.515,2.438,4.191,36.0
72.234,2.446,3.788,28.0
72.326,2.467,3.399,36.0
72.398,2.487,3.016,41.0
72.39,2.505,2.629,33.0
66.42,2.318,4.279,10.0
66.345,2.331,3.918,22.0
72.185,2.554,3.877,19.0
72.374,2.578,3.491,23.0
72.435,2.598,3.107,33.0
72.454,2.617,2.721,27.0
44.881,1.634,2.946,34.0
65.771,2.412,3.965,32.0
0.0,0.0,0.0,0.0
66.155,2.458,3.272,41.0
66.294,2.48,2.923,18.0
190.044,7.158,7.365,16.0
44.853,1.703,2.999,4.0
65.758,2.513,4.043,6.0
84.786,3.261,4.757,10.0
65.445,2.533,3.314,16.0
66.186,2.579,2.996,19.0
66.173,2.594,2.64,26.0
41.192,1.628,2.801,44.0
41.163,1.637,2.578,22.0
65.781,2.632,3.766,40.0
65.582,2.641,3.395,41.0
66.025,2.675,3.063,10.0
66.056,2.694,2.71,25.0
41.144,1.691,2.845,24.0
41.105,1.7,2.621,30.0
65.857,2.739,3.843,22.0
65.636,2.746,3.47,41.0
65.944,2.775,3.131,9.0
52.894,2.239,2.227,17.0
40.645,1.734,2.854,47.0
41.024,1.76,2.659,49.0
42.046,1.815,2.498,27.0
0.0,0.0,0.0,0.0
65.953,2.879,3.2,18.0
66.03,2.898,2.848,10.0
40.7,1.801,2.9,40.0
41.072,1.827,2.704,45.0
41.726,1.867,2.521,16.0
41.799,1.88,2.296,10.0
65.901,2.98,3.263,11.0
52.596,2.392,2.321,18.0
40.601,1.861,2.934,47.0
40.892,1.884,2.733,46.0
40.98,1.899,2.517,28.0
41.717,1.943,2.332,36.0
59.487,2.785,3.004,19.0
52.592,2.476,2.371,9.0
40.517,1.922,2.967,38.0
40.806,1.946,2.766,44.0
40.974,1.964,2.555,44.0
41.695,2.008,2.369,47.0
59.481,2.88,3.058,6.0
59.442,2.893,2.734,17.0
40.582,1.99,3.008,42.0
40.792,2.011,2.802,42.0
41.029,2.033,2.596,44.0
41.77,2.079,2.411,26.0
41.71,2.087,2.181,28.0
59.408,2.988,2.785,8.0
40.589,2.057,3.045,39.0
40.805,2.078,2.839,41.0
41.025,2.099,2.631,39.0
41.428,2.13,2.427,37.0
52.437,2.709,2.787,13.0
59.377,3.082,2.833,16.0
40.552,2.121,3.076,41.0
40.837,2.146,2.875,48.0
41.065,2.168,2.667,36.0
41.016,2.175,2.436,42.0
59.34,3.161,3.202,14.0
59.343,3.176,2.879,8.0
40.543,2.187,3.108,37.0
40.95,2.218,2.915,39.0
40.96,2.228,2.692,46.0
41.083,2.245,2.472,40.0
41.929,2.301,2.294,14.0
52.455,2.892,2.584,20.0
40.552,2.253,3.139,39.0
41.484,2.314,2.984,33.0
40.909,2.292,2.719,45.0
41.265,2.322,2.512,16.0
41.796,2.362,2.317,35.0
52.219,2.963,2.61,25.0
40.576,2.32,3.17,37.0
41.369,2.375,3.005,40.0
41.342,2.383,2.776,32.0
41.575,2.407,2.56,11.0
41.672,2.422,2.338,44.0
52.283,3.052,2.648,17.0
40.915,2.406,3.224,40.0
41.453,2.447,3.038,40.0
41.682,2.47,2.826,40.0
41.547,2.472,2.585,11.0
41.784,2.496,2.371,32.0
41.682,2.5,2.137,16.0
41.318,2.496,3.281,33.0
41.297,2.505,3.052,44.0
41.836,2.547,2.862,16.0
41.775,2.553,2.624,16.0
41.564,2.551,2.383,42.0
41.646,2.566,2.159,6.0
41.93,2.602,3.355,17.0
41.512,2.586,3.093,29.0
41.87,2.618,2.888,26.0
41.546,2.607,2.633,43.0
41.505,2.615,2.403,39.0
52.28,3.306,2.74,8.0
44.136,2.812,3.556,5.0
41.92,2.68,3.145,17.0
52.262,3.353,3.633,10.0
41.629,2.68,2.66,40.0
41.709,2.696,2.436,23.0
52.256,3.389,2.765,19.0
41.873,2.735,3.394,22.0
45.021,2.95,3.4,4.0
52.262,3.437,3.658,7.0
41.55,2.742,2.675,35.0
41.691,2.761,2.454,39.0
52.254,3.473,2.788,31.0
41.874,2.803,3.413,40.0
41.979,2.819,3.19,26.0
42.183,2.842,2.971,17.0
41.491,2.806,2.689,45.0
41.771,2.834,2.477,34.0
52.274,3.559,2.812,17.0
41.679,2.858,3.415,46.0
41.874,2.88,3.198,35.0
41.8,2.885,2.961,38.0
41.602,2.88,2.713,38.0
41.656,2.893,2.486,40.0
52.357,3.648,2.836,11.0
41.655,2.922,3.428,39.0
41.722,2.936,3.202,38.0
41.726,2.946,2.971,29.0
41.767,2.958,2.738,40.0
41.711,2.963,2.504,33.0
71.471,5.094,3.895,4.0
41.568,2.983,3.435,38.0
41.577,2.992,3.205,37.0
41.692,3.01,2.981,30.0
41.808,3.027,2.753,31.0
80.757,5.866,4.872,12.0
80.204,5.845,4.394,13.0
41.519,3.046,3.443,32.0
41.593,3.06,3.217,43.0
41.785,3.083,3.0,16.0
45.987,3.403,3.041,13.0
81.416,6.042,4.932,13.0
79.324,5.904,4.366,17.0
41.434,3.105,3.446,43.0
41.6,3.126,3.227,33.0
41.786,3.148,3.009,41.0
45.949,3.471,3.049,23.0
81.437,6.171,4.95,13.0
79.561,6.045,4.395,23.0
41.37,3.164,3.449,40.0
41.766,3.203,3.248,17.0
41.662,3.204,3.008,48.0
45.925,3.542,3.055,6.0
45.919,3.551,2.799,18.0
45.984,3.565,2.547,26.0
41.431,3.234,3.46,37.0
41.72,3.264,3.251,38.0
41.702,3.271,3.017,36.0
41.963,3.3,2.797,21.0
45.84,3.614,2.801,15.0
45.891,3.628,2.548,13.0
41.331,3.289,3.457,30.0
41.524,3.313,3.241,28.0
41.754,3.339,3.025,39.0
41.783,3.35,2.789,41.0
45.775,3.679,2.8,41.0
45.813,3.692,2.548,40.0
41.324,3.352,3.459,35.0
41.508,3.374,3.242,31.0
41.828,3.408,3.033,31.0
41.777,3.412,2.791,46.0
45.747,3.746,2.801,43.0
45.798,3.759,2.548,39.0
41.348,3.415,3.463,26.0
41.417,3.429,3.236,38.0
45.628,3.786,3.309,3.0
45.72,3.802,3.055,7.0
45.754,3.814,2.801,38.0
45.806,3.828,2.549,39.0
41.345,3.477,3.462,38.0
41.453,3.493,3.238,40.0
41.609,3.514,3.017,29.0
41.757,3.534,2.789,24.0
45.778,3.884,2.801,34.0
45.848,3.899,2.549,30.0
41.361,3.539,3.462,41.0
41.507,3.559,3.24,24.0
41.547,3.57,3.01,35.0
41.75,3.595,2.786,41.0
45.831,3.955,2.801,35.0
78.926,6.827,4.382,16.0
44.468,3.87,3.718,4.0
41.561,3.625,3.24,34.0
41.601,3.636,3.009,39.0
41.725,3.654,2.779,36.0
85.028,7.462,5.187,10.0
85.043,7.479,4.712,49.0
44.3,3.919,3.698,6.0
41.726,3.699,3.248,16.0
41.537,3.689,2.999,40.0
41.679,3.709,2.77,25.0
73.484,6.552,4.472,16.0
84.785,7.575,4.684,31.0
41.619,3.741,3.467,40.0
41.549,3.741,3.227,37.0
41.56,3.749,2.993,39.0
44.653,4.035,2.959,7.0
72.451,6.56,4.395,32.0
84.712,7.685,4.662,30.0
41.577,3.794,3.455,32.0
41.517,3.795,3.215,39.0
41.672,3.816,2.992,36.0
44.585,4.091,2.945,37.0
72.622,6.676,4.388,13.0
84.454,7.778,4.628,40.0
41.598,3.853,3.446,37.0
41.509,3.851,3.204,43.0
55.123,5.123,3.944,12.0
44.669,4.159,2.939,35.0
72.771,6.787,4.377,23.0
84.503,7.896,4.607,29.0
