X,Y,Z,Reflectivity
8.892,0.357,-0.92,0.0
8.44,0.338,-0.921,0.0
8.16,0.325,-0.936,0.0
7.792,0.308,-0.937,0.0
9.797,0.385,-0.9,0.0
9.337,0.365,-0.909,0.0
8.92,0.347,-0.918,0.0
0.0,0.0,0.0,0.0
8.183,0.315,-0.934,0.0
7.826,0.3,-0.936,0.0
9.78,0.372,-0.892,0.0
9.387,0.355,-0.908,0.0
8.974,0.337,-0.918,0.0
8.549,0.32,-0.922,0.0
8.212,0.305,-0.932,0.0
7.88,0.292,-0.938,0.0
9.872,0.363,-0.894,0.0
9.409,0.344,-0.904,0.0
8.955,0.325,-0.91,0.0
8.634,0.312,-0.926,0.0
8.294,0.298,-0.935,0.0
7.931,0.283,-0.938,0.0
9.922,0.352,-0.892,0.0
9.456,0.333,-0.902,0.0
8.994,0.315,-0.907,0.0
8.618,0.3,-0.918,0.0
8.294,0.287,-0.929,0.0
7.955,0.274,-0.935,0.0
9.97,0.341,-0.889,0.0
9.577,0.325,-0.906,0.0
9.098,0.307,-0.911,0.0
8.786,0.295,-0.929,0.0
8.319,0.278,-0.925,0.0
7.986,0.265,-0.932,0.0
10.045,0.331,-0.888,0.0
9.619,0.315,-0.903,0.0
9.138,0.297,-0.908,0.0
8.765,0.283,-0.92,0.0
8.415,0.27,-0.929,0.0
8.052,0.257,-0.933,0.0
10.113,0.32,-0.885,0.0
9.727,0.306,-0.905,0.0
9.184,0.287,-0.904,0.0
8.806,0.273,-0.916,0.0
8.44,0.26,-0.925,0.0
8.106,0.248,-0.933,0.0
10.197,0.31,-0.884,0.0
9.746,0.294,-0.898,0.0
9.263,0.278,-0.904,0.0
8.858,0.264,-0.914,0.0
8.49,0.251,-0.922,0.0
8.16,0.24,-0.931,0.0
10.279,0.3,-0.882,0.0
9.843,0.285,-0.898,0.0
9.388,0.27,-0.907,0.0
8.932,0.255,-0.913,0.0
8.621,0.244,-0.928,0.0
8.258,0.232,-0.935,0.0
10.364,0.29,-0.879,0.0
9.916,0.275,-0.895,0.0
9.444,0.26,-0.904,0.0
9.062,0.248,-0.917,0.0
8.652,0.235,-0.923,0.0
8.291,0.223,-0.93,0.0
10.441,0.279,-0.875,0.0
9.972,0.265,-0.89,0.0
9.515,0.251,-0.901,0.0
9.145,0.239,-0.916,0.0
8.719,0.226,-0.921,0.0
8.382,0.216,-0.931,0.0
10.566,0.27,-0.875,0.0
10.089,0.256,-0.89,0.0
9.625,0.242,-0.901,0.0
9.227,0.23,-0.915,0.0
8.78,0.217,-0.918,0.0
8.454,0.207,-0.93,0.0
10.707,0.261,-0.875,0.0
10.188,0.246,-0.887,0.0
9.705,0.233,-0.898,0.0
9.284,0.22,-0.91,0.0
8.863,0.209,-0.917,0.0
8.491,0.198,-0.925,0.0
10.838,0.251,-0.873,0.0
10.284,0.236,-0.884,0.0
9.827,0.224,-0.898,0.0
9.381,0.212,-0.909,0.0
8.925,0.2,-0.913,0.0
8.565,0.19,-0.923,0.0
10.984,0.242,-0.872,0.0
10.39,0.227,-0.881,0.0
9.899,0.214,-0.893,0.0
9.448,0.202,-0.904,0.0
9.041,0.192,-0.914,0.0
8.679,0.182,-0.925,0.0
11.119,0.232,-0.87,0.0
10.452,0.216,-0.874,0.0
10.008,0.205,-0.89,0.0
9.599,0.195,-0.907,0.0
9.158,0.184,-0.915,0.0
8.766,0.174,-0.923,0.0
11.245,0.222,-0.866,0.0
10.617,0.208,-0.874,0.0
10.147,0.197,-0.89,0.0
9.705,0.186,-0.905,0.0
9.248,0.175,-0.912,0.0
8.9,0.167,-0.926,0.0
11.378,0.212,-0.861,0.0
10.771,0.199,-0.873,0.0
10.247,0.187,-0.886,0.0
9.786,0.177,-0.899,0.0
9.373,0.168,-0.912,0.0
8.935,0.158,-0.918,0.0
11.465,0.202,-0.853,0.0
10.938,0.19,-0.872,0.0
10.335,0.178,-0.88,0.0
9.881,0.168,-0.895,0.0
9.467,0.159,-0.908,0.0
9.062,0.151,-0.918,0.0
11.633,0.192,-0.85,0.0
11.137,0.182,-0.873,0.0
10.455,0.169,-0.875,0.0
10.073,0.161,-0.898,0.0
9.589,0.151,-0.907,0.0
9.165,0.143,-0.916,0.0
11.83,0.183,-0.847,0.0
11.247,0.172,-0.866,0.0
10.648,0.161,-0.876,0.0
10.144,0.151,-0.89,0.0
9.692,0.143,-0.903,0.0
9.249,0.134,-0.911,0.0
12.114,0.175,-0.851,0.0
11.397,0.163,-0.861,0.0
10.773,0.152,-0.871,0.0
10.26,0.142,-0.885,0.0
9.84,0.135,-0.902,0.0
9.331,0.126,-0.905,0.0
12.344,0.166,-0.849,0.0
11.527,0.153,-0.854,0.0
10.979,0.144,-0.872,0.0
10.39,0.134,-0.881,0.0
9.961,0.127,-0.898,0.0
9.541,0.12,-0.911,0.0
12.542,0.157,-0.844,0.0
11.71,0.144,-0.85,0.0
11.212,0.136,-0.873,0.0
10.555,0.126,-0.879,0.0
10.103,0.119,-0.895,0.0
9.679,0.112,-0.909,0.0
13.025,0.15,-0.856,0.0
11.946,0.136,-0.848,0.0
11.33,0.127,-0.865,0.0
10.722,0.118,-0.876,0.0
10.253,0.111,-0.893,0.0
9.801,0.104,-0.906,0.0
13.142,0.139,-0.843,0.0
12.241,0.128,-0.85,0.0
11.446,0.117,-0.856,0.0
10.873,0.11,-0.871,0.0
10.371,0.103,-0.886,0.0
9.917,0.097,-0.9,0.0
13.599,0.132,-0.851,0.0
12.515,0.119,-0.849,0.0
11.656,0.109,-0.853,0.0
11.061,0.102,-0.869,0.0
10.495,0.095,-0.88,0.0
10.038,0.089,-0.895,0.0
13.684,0.121,-0.834,0.0
12.817,0.111,-0.849,0.0
11.893,0.101,-0.85,0.0
11.308,0.094,-0.87,0.0
10.701,0.087,-0.879,0.0
10.194,0.082,-0.892,0.0
14.042,0.112,-0.833,0.0
13.097,0.102,-0.846,0.0
12.213,0.094,-0.853,0.0
11.448,0.086,-0.861,0.0
10.894,0.08,-0.877,0.0
10.336,0.074,-0.887,0.0
14.372,0.103,-0.828,0.0
13.443,0.094,-0.845,0.0
12.488,0.085,-0.851,0.0
11.635,0.078,-0.855,0.0
11.085,0.072,-0.873,0.0
10.48,0.067,-0.881,0.0
14.703,0.094,-0.822,0.0
13.66,0.085,-0.835,0.0
12.892,0.078,-0.856,0.0
11.837,0.07,-0.849,0.0
11.317,0.065,-0.871,0.0
10.694,0.06,-0.88,0.0
15.117,0.085,-0.818,0.0
14.039,0.077,-0.834,0.0
13.056,0.069,-0.844,0.0
12.219,0.063,-0.855,0.0
11.456,0.057,-0.862,0.0
10.854,0.053,-0.874,0.0
15.413,0.075,-0.807,0.0
14.386,0.068,-0.829,0.0
13.456,0.062,-0.846,0.0
12.568,0.056,-0.857,1.0
11.637,0.05,-0.854,0.0
11.114,0.046,-0.875,0.0
15.891,0.066,-0.804,0.0
14.696,0.059,-0.82,0.0
13.748,0.054,-0.839,0.0
12.879,0.048,-0.855,0.0
11.909,0.043,-0.853,0.0
11.314,0.039,-0.869,0.0
16.469,0.058,-0.803,0.0
15.18,0.051,-0.819,0.0
14.107,0.046,-0.835,0.0
13.094,0.041,-0.845,0.0
12.27,0.037,-0.856,0.0
11.494,0.033,-0.862,0.0
16.839,0.048,-0.79,0.0
15.548,0.043,-0.81,0.0
14.412,0.038,-0.826,0.0
13.545,0.034,-0.849,0.0
12.556,0.03,-0.852,0.0
11.695,0.026,-0.855,0.0
17.396,0.039,-0.783,0.0
16.105,0.034,-0.809,0.0
14.857,0.03,-0.824,0.0
13.795,0.026,-0.838,0.0
12.95,0.023,-0.855,0.0
12.025,0.02,-0.856,0.0
17.933,0.03,-0.774,0.0
16.523,0.026,-0.799,0.0
15.241,0.022,-0.816,0.0
14.177,0.019,-0.835,0.0
13.229,0.016,-0.848,0.0
12.36,0.014,-0.857,0.0
18.554,0.022,-0.765,0.0
16.931,0.018,-0.786,0.0
15.652,0.015,-0.808,0.0
14.537,0.012,-0.828,0.0
13.593,0.01,-0.845,0.0
12.552,0.008,-0.846,0.0
19.286,0.013,-0.758,0.0
17.59,0.01,-0.783,0.0
16.192,0.007,-0.805,0.0
14.936,0.005,-0.822,0.0
13.913,0.003,-0.838,0.0
13.019,0.002,-0.852,0.0
19.921,0.004,-0.745,0.0
18.123,0.002,-0.771,0.0
16.641,0.0,-0.794,0.0
15.403,-0.001,-0.817,0.0
14.301,-0.002,-0.833,0.0
13.394,-0.003,-0.85,0.0
20.796,-0.004,-0.736,0.0
18.761,-0.006,-0.761,0.0
17.308,-0.007,-0.792,0.0
15.801,-0.007,-0.807,0.0
14.715,-0.008,-0.828,0.0
13.735,-0.009,-0.844,0.0
21.519,-0.013,-0.719,0.0
19.462,-0.013,-0.751,0.0
17.714,-0.014,-0.775,0.0
16.386,-0.014,-0.804,0.0
15.158,-0.014,-0.822,0.0
14.148,-0.014,-0.841,0.0
22.635,-0.022,-0.711,0.0
20.401,-0.021,-0.746,0.0
18.463,-0.021,-0.771,0.0
16.95,-0.02,-0.797,0.0
15.514,-0.02,-0.81,0.0
14.503,-0.019,-0.833,0.0
23.757,-0.031,-0.698,0.0
20.984,-0.029,-0.725,0.0
19.306,-0.028,-0.767,0.0
17.665,-0.027,-0.795,0.0
16.145,-0.025,-0.81,0.0
14.891,-0.024,-0.824,0.0
24.705,-0.04,-0.676,0.0
21.936,-0.037,-0.713,0.0
19.947,-0.035,-0.751,0.0
18.066,-0.032,-0.776,0.0
16.664,-0.031,-0.802,0.0
15.384,-0.029,-0.82,0.0
26.152,-0.049,-0.661,0.0
22.907,-0.044,-0.697,0.0
20.829,-0.041,-0.742,0.0
18.844,-0.038,-0.77,0.0
17.235,-0.036,-0.793,0.0
15.814,-0.034,-0.81,0.0
27.689,-0.058,-0.642,0.0
24.201,-0.052,-0.686,0.0
21.656,-0.048,-0.726,0.0
19.532,-0.044,-0.758,0.0
17.727,-0.041,-0.779,0.0
16.335,-0.038,-0.802,0.0
0.0,0.0,0.0,0.0
25.755,-0.06,-0.677,0.0
22.506,-0.053,-0.707,0.0
20.277,-0.049,-0.744,0.0
18.535,-0.045,-0.776,0.0
16.945,-0.042,-0.797,0.0
31.279,-0.076,-0.596,0.0
0.0,0.0,0.0,0.0
23.952,-0.06,-0.703,0.0
21.188,-0.054,-0.733,0.0
19.23,-0.049,-0.764,0.0
17.507,-0.045,-0.786,0.0
0.0,0.0,0.0,0.0
28.826,-0.074,-0.637,0.0
24.948,-0.065,-0.679,0.0
22.063,-0.058,-0.716,0.0
20.094,-0.053,-0.756,0.0
18.173,-0.049,-0.777,0.0
0.0,0.0,0.0,0.0
30.434,-0.081,-0.607,0.0
26.422,-0.071,-0.663,0.0
0.0,0.0,0.0,0.0
20.779,-0.056,-0.738,0.0
18.877,-0.051,-0.767,0.0
0.0,0.0,0.0,0.0
32.55,-0.087,-0.581,0.0
0.0,0.0,0.0,0.0
24.59,-0.066,-0.694,0.0
21.951,-0.06,-0.733,0.0
19.622,-0.053,-0.756,0.0
45.196,-0.121,-0.477,0.0
0.0,0.0,0.0,0.0
29.386,-0.079,-0.613,0.0
25.783,-0.069,-0.673,0.0
22.645,-0.061,-0.708,0.0
20.482,-0.055,-0.746,0.0
45.168,-0.119,-0.382,0.0
0.0,0.0,0.0,0.0
0.0,0.0,0.0,0.0
27.227,-0.071,-0.653,0.0
23.759,-0.062,-0.692,0.0
21.526,-0.056,-0.737,0.0
0.0,0.0,0.0,0.0
0.0,0.0,0.0,0.0
0.0,0.0,0.0,0.0
29.221,-0.074,-0.638,0.0
25.356,-0.064,-0.684,0.0
22.25,-0.056,-0.715,0.0
0.0,0.0,0.0,0.0
44.991,-0.11,-0.419,1.0
0.0,0.0,0.0,0.0
30.718,-0.074,-0.606,0.0
26.634,-0.063,-0.662,0.0
23.57,-0.055,-0.707,0.0
0.0,0.0,0.0,0.0
0.0,0.0,0.0,0.0
39.822,-0.09,-0.492,0.0
0.0,0.0,0.0,0.0
28.154,-0.062,-0.64,0.0
24.618,-0.053,-0.686,0.0
0.0,0.0,0.0,0.0
0.0,0.0,0.0,0.0
45.205,-0.093,-0.463,0.0
35.916,-0.072,-0.555,0.0
29.927,-0.059,-0.617,0.0
26.111,-0.051,-0.673,0.0
0.0,0.0,0.0,0.0
0.0,0.0,0.0,0.0
45.55,-0.083,-0.369,0.0
38.592,-0.068,-0.515,0.0
0.0,0.0,0.0,0.0
27.643,-0.046,-0.653,0.0
0.0,0.0,0.0,0.0
0.0,0.0,0.0,0.0
48.273,-0.074,-0.288,0.0
41.37,-0.061,-0.463,0.0
34.45,-0.049,-0.562,0.0
29.251,-0.04,-0.628,0.0
110.897,-0.147,0.715,11.0
0.0,0.0,0.0,0.0
0.0,0.0,0.0,0.0
45.464,-0.053,-0.413,1.0
0.0,0.0,0.0,0.0
0.0,0.0,0.0,0.0
117.344,-0.116,1.004,14.0
99.008,-0.092,0.338,2.0
0.0,0.0,0.0,0.0
0.0,0.0,0.0,0.0
0.0,0.0,0.0,0.0
33.929,-0.023,-0.585,0.0
117.379,-0.072,1.253,17.0
110.681,-0.06,0.612,7.0
0.0,0.0,0.0,0.0
57.991,-0.023,-0.281,1.0
44.899,-0.015,-0.448,1.0
35.936,-0.009,-0.544,0.0
111.134,-0.022,1.421,11.0
111.126,-0.014,0.849,7.0
95.692,-0.005,0.239,1.0
0.0,0.0,0.0,0.0
0.0,0.0,0.0,0.0
38.599,0.006,-0.503,0.0
111.131,0.027,1.654,10.0
111.203,0.036,1.083,11.0
104.288,0.042,0.478,1.0
0.0,0.0,0.0,0.0
0.0,0.0,0.0,0.0
44.905,0.029,-0.492,0.0
117.348,0.085,1.993,10.0
111.141,0.09,1.313,18.0
110.74,0.1,0.738,8.0
92.421,0.091,0.13,1.0
0.0,0.0,0.0,0.0
45.622,0.053,-0.405,1.0
117.443,0.146,2.237,5.0
111.099,0.148,1.542,18.0
111.226,0.159,0.971,9.0
0.0,0.0,0.0,0.0
0.0,0.0,0.0,0.0
50.182,0.086,-0.342,0.0
112.594,0.203,2.379,7.0
111.069,0.211,1.772,6.0
111.109,0.223,1.201,20.0
103.892,0.219,0.576,11.0
0.0,0.0,0.0,0.0
0.0,0.0,0.0,0.0
119.854,0.288,2.781,9.0
119.855,0.301,2.162,27.0
111.208,0.29,1.43,15.0
111.004,0.302,0.844,14.0
92.421,0.262,0.226,1.0
0.0,0.0,0.0,0.0
119.84,0.363,3.025,16.0
193.899,0.61,3.894,9.0
119.856,0.391,1.788,24.0
119.782,0.404,1.157,14.0
103.993,0.363,0.468,4.0
0.0,0.0,0.0,0.0
119.908,0.444,3.274,14.0
119.852,0.458,2.654,28.0
119.876,0.473,2.035,77.0
111.163,0.452,1.3,17.0
110.795,0.464,0.723,6.0
89.256,0.385,0.122,1.0
70.091,0.309,2.056,18.0
119.852,0.543,2.895,8.0
111.124,0.518,2.11,17.0
111.108,0.532,1.523,26.0
111.006,0.545,0.948,16.0
90.767,0.458,0.306,3.0
70.192,0.361,2.2,7.0
111.133,0.586,2.908,21.0
111.065,0.6,2.33,24.0
111.059,0.615,1.745,29.0
111.057,0.63,1.168,26.0
104.467,0.607,0.559,5.0
69.977,0.413,2.332,7.0
111.023,0.671,3.125,27.0
111.049,0.686,2.55,29.0
111.069,0.702,1.964,28.0
111.084,0.718,1.387,17.0
104.917,0.693,0.768,22.0
69.928,0.469,2.469,7.0
111.045,0.761,3.344,18.0
111.059,0.777,2.767,17.0
104.864,0.749,2.059,15.0
0.0,0.0,0.0,0.0
104.867,0.78,0.971,13.0
70.022,0.528,2.608,9.0
104.688,0.805,3.357,22.0
104.757,0.821,2.814,27.0
104.734,0.837,2.26,20.0
100.614,0.819,1.648,1.0
100.382,0.833,1.124,3.0
104.798,0.882,4.108,12.0
69.638,0.596,2.367,9.0
104.693,0.913,3.015,37.0
104.729,0.93,2.46,18.0
100.075,0.904,1.831,4.0
104.751,0.964,1.374,10.0
97.824,0.911,4.023,22.0
104.562,0.99,3.755,36.0
69.8,0.672,2.143,10.0
104.735,1.027,2.662,23.0
104.782,1.044,2.117,17.0
98.71,1.0,1.481,22.0
98.699,1.011,4.246,13.0
98.076,1.021,3.708,25.0
69.74,0.737,2.273,12.0
98.685,1.06,2.692,23.0
98.648,1.077,2.178,29.0
98.598,1.092,1.662,27.0
98.571,1.105,4.424,21.0
98.655,1.123,3.914,22.0
69.757,0.806,2.404,9.0
98.646,1.156,2.874,22.0
98.577,1.173,2.359,27.0
98.554,1.19,1.845,30.0
98.612,1.204,4.611,17.0
98.636,1.221,4.095,18.0
69.897,0.878,2.537,9.0
98.431,1.254,3.05,33.0
98.528,1.274,2.54,30.0
98.564,1.291,2.025,32.0
78.761,1.042,3.826,7.0
98.201,1.317,4.257,25.0
98.247,1.336,3.745,22.0
98.419,1.356,3.227,18.0
98.518,1.376,2.716,29.0
98.625,1.396,2.205,25.0
98.05,1.401,4.94,13.0
78.758,1.14,3.555,12.0
98.262,1.44,3.922,18.0
70.057,1.04,2.422,6.0
98.533,1.481,2.891,18.0
98.645,1.502,2.379,5.0
85.658,1.317,4.469,5.0
115.653,1.8,5.425,8.0
120.465,1.897,5.019,12.0
120.232,1.917,4.368,12.0
120.084,1.938,3.733,21.0
91.962,1.501,2.377,15.0
91.427,1.507,4.929,19.0
85.559,1.427,4.164,11.0
78.738,1.328,3.417,16.0
120.314,2.054,4.579,5.0
92.036,1.589,3.02,10.0
91.825,1.603,2.53,21.0
81.066,1.427,4.509,5.0
91.441,1.628,4.604,16.0
91.671,1.65,4.134,21.0
91.9,1.672,3.651,2.0
91.823,1.689,3.165,26.0
91.807,1.708,2.683,29.0
80.211,1.505,4.596,7.0
91.478,1.735,4.759,7.0
85.459,1.637,3.996,16.0
78.786,1.525,3.26,22.0
91.651,1.793,3.31,25.0
91.827,1.815,2.835,31.0
74.65,1.489,4.4,9.0
82.042,1.653,4.403,16.0
85.381,1.737,4.131,27.0
85.351,1.754,3.671,28.0
85.35,1.772,3.221,19.0
85.345,1.789,2.772,24.0
70.433,1.489,4.265,7.0
81.233,1.734,4.49,10.0
85.316,1.839,4.266,33.0
85.301,1.857,3.805,36.0
78.883,1.734,3.103,14.0
85.274,1.892,2.905,32.0
85.184,1.906,5.295,9.0
80.956,1.828,4.603,3.0
85.268,1.944,4.398,11.0
85.334,1.964,3.942,35.0
85.314,1.982,3.491,29.0
78.873,1.849,2.81,23.0
72.117,1.705,4.596,10.0
78.702,1.877,4.599,5.0
83.438,2.008,4.433,10.0
85.509,2.076,4.082,7.0
115.7,2.835,4.912,4.0
78.849,1.95,2.93,5.0
70.669,1.762,4.613,9.0
72.806,1.831,4.366,8.0
78.838,1.999,4.309,14.0
78.841,2.016,3.883,26.0
78.839,2.034,3.465,31.0
78.834,2.051,3.047,29.0
78.822,2.067,5.263,12.0
0.0,0.0,0.0,0.0
78.789,2.1,4.422,28.0
78.789,2.118,3.996,33.0
78.81,2.136,3.579,32.0
78.809,2.154,3.162,29.0
65.3,1.799,4.456,16.0
70.846,1.967,4.457,7.0
73.134,2.047,4.212,3.0
79.171,2.234,4.131,13.0
79.136,2.25,3.708,11.0
79.168,2.27,3.289,11.0
79.504,2.298,5.54,9.0
65.425,1.905,4.209,10.0
72.015,2.113,4.249,31.0
72.814,2.153,3.902,12.0
65.485,1.951,3.161,12.0
117.975,3.542,5.065,11.0
65.415,1.979,4.65,6.0
65.466,1.995,4.303,16.0
71.022,2.181,4.289,6.0
82.993,2.567,4.561,7.0
65.473,2.04,3.249,9.0
72.516,2.276,3.212,3.0
45.077,1.426,3.265,2.0
79.738,2.54,5.348,18.0
65.624,2.105,4.05,13.0
72.164,2.331,4.061,15.0
65.539,2.132,3.338,12.0
72.402,2.372,3.301,27.0
59.617,1.968,4.397,15.0
66.558,2.213,4.552,28.0
65.621,2.196,4.136,17.0
72.503,2.444,4.174,35.0
72.241,2.452,3.773,27.0
72.327,2.472,3.391,35.0
40.836,1.406,3.064,29.0
45.002,1.56,3.135,32.0
66.451,2.319,4.273,31.0
66.377,2.332,3.906,21.0
72.184,2.553,3.861,22.0
72.376,2.576,3.483,23.0
40.757,1.461,3.109,40.0
40.766,1.471,2.891,25.0
44.716,1.624,2.93,12.0
65.757,2.403,3.949,31.0
0.0,0.0,0.0,0.0
66.16,2.449,3.263,41.0
40.539,1.512,3.142,43.0
40.692,1.527,2.934,35.0
44.687,1.687,2.981,37.0
65.799,2.5,4.03,8.0
64.732,2.475,3.616,6.0
65.786,2.53,3.321,20.0
40.44,1.567,3.181,44.0
40.628,1.584,2.977,42.0
41.156,1.613,2.793,21.0
44.725,1.764,2.79,3.0
65.844,2.613,3.752,34.0
0.0,0.0,0.0,0.0
40.393,1.624,3.223,44.0
40.7,1.646,3.028,41.0
44.781,1.821,3.089,17.0
44.767,1.831,2.842,10.0
0.0,0.0,0.0,0.0
65.509,2.711,3.453,41.0
40.377,1.683,3.266,36.0
40.602,1.702,3.065,47.0
40.97,1.727,2.871,35.0
40.992,1.738,2.646,28.0
65.458,2.79,3.872,16.0
65.827,2.822,3.539,21.0
40.333,1.742,3.305,39.0
40.508,1.759,3.1,33.0
40.584,1.771,2.886,44.0
40.986,1.799,2.688,37.0
44.699,1.972,2.69,4.0
52.97,2.35,2.901,18.0
40.369,1.804,3.349,40.0
40.431,1.816,3.135,38.0
40.655,1.835,2.931,42.0
41.021,1.862,2.731,44.0
41.481,1.892,2.537,28.0
59.478,2.727,3.315,16.0
40.646,1.877,3.412,27.0
40.389,1.875,3.17,40.0
40.559,1.893,2.963,46.0
40.859,1.916,2.759,47.0
41.077,1.936,2.55,37.0
59.456,2.816,3.37,22.0
40.433,1.929,3.432,28.0
40.479,1.941,3.215,35.0
40.488,1.951,2.995,35.0
40.749,1.973,2.789,37.0
40.931,1.992,2.579,44.0
41.525,2.03,2.391,20.0
40.261,1.983,3.453,43.0
40.27,1.993,3.234,40.0
40.562,2.016,3.036,43.0
40.776,2.036,2.826,40.0
40.973,2.056,2.616,44.0
41.499,2.092,2.424,31.0
40.714,2.067,3.527,39.0
40.272,2.054,3.268,38.0
40.577,2.079,3.071,40.0
40.752,2.097,2.857,40.0
40.935,2.116,2.647,41.0
41.376,2.149,2.45,32.0
40.817,2.135,3.569,29.0
40.501,2.128,3.319,42.0
40.453,2.134,3.094,38.0
40.842,2.164,2.896,46.0
40.881,2.176,2.675,46.0
40.968,2.19,2.457,34.0
40.815,2.197,3.6,57.0
40.73,2.202,3.369,21.0
40.404,2.194,3.12,35.0
40.874,2.229,2.929,35.0
40.9,2.24,2.707,40.0
41.002,2.255,2.489,40.0
41.081,2.276,3.653,42.0
40.479,2.251,3.377,36.0
40.531,2.263,3.159,39.0
41.225,2.311,2.982,28.0
40.897,2.302,2.734,39.0
41.161,2.326,2.526,32.0
41.41,2.357,3.711,41.0
40.45,2.311,3.402,39.0
40.546,2.326,3.186,35.0
41.204,2.373,3.008,38.0
40.991,2.37,2.767,38.0
41.489,2.408,2.573,16.0
41.376,2.419,3.734,47.0
40.453,2.374,3.427,40.0
40.611,2.392,3.217,40.0
41.402,2.448,3.047,36.0
41.608,2.47,2.834,28.0
41.453,2.47,2.596,22.0
41.528,2.492,3.773,16.0
40.605,2.445,3.464,41.0
41.184,2.49,3.286,29.0
41.275,2.504,3.062,43.0
41.644,2.536,2.86,22.0
41.591,2.542,2.627,32.0
45.22,2.783,4.133,18.0
41.724,2.577,3.582,36.0
41.458,2.57,3.33,38.0
41.424,2.577,3.095,33.0
41.834,2.612,2.895,37.0
52.32,3.278,3.332,6.0
45.496,2.871,4.181,8.0
42.039,2.662,3.63,32.0
41.959,2.665,3.391,9.0
41.734,2.66,3.138,24.0
52.268,3.343,3.641,15.0
41.453,2.66,2.659,36.0
42.428,2.742,3.919,18.0
41.935,2.719,3.641,16.0
43.948,2.859,3.572,10.0
51.528,3.363,3.897,25.0
52.258,3.422,3.663,10.0
52.197,3.43,3.371,6.0
41.977,2.777,3.895,33.0
41.84,2.776,3.649,36.0
41.937,2.791,3.425,24.0
46.02,3.073,3.499,3.0
41.973,2.812,2.958,16.0
41.643,2.799,2.705,36.0
42.012,2.843,3.914,32.0
41.873,2.842,3.668,36.0
41.687,2.838,3.42,26.0
41.91,2.862,3.201,29.0
41.897,2.87,2.968,16.0
41.544,2.855,2.713,40.0
42.002,2.906,3.927,41.0
41.924,2.909,3.686,23.0
41.642,2.899,3.429,39.0
41.869,2.923,3.211,22.0
41.968,2.939,2.985,16.0
41.631,2.924,2.73,32.0
44.967,3.179,4.218,8.0
41.371,2.933,3.649,42.0
41.627,2.959,3.439,35.0
41.893,2.987,3.224,19.0
41.745,2.985,2.98,24.0
41.722,2.992,2.747,41.0
41.436,2.991,3.897,12.0
41.339,2.992,3.656,35.0
41.397,3.005,3.43,41.0
41.596,3.027,3.21,34.0
41.706,3.044,2.987,35.0
41.819,3.061,2.762,42.0
41.313,3.044,3.893,14.0
41.319,3.052,3.663,32.0
41.477,3.072,3.444,35.0
41.589,3.089,3.217,40.0
41.698,3.105,2.993,41.0
45.959,3.431,3.043,34.0
41.349,3.108,3.903,35.0
41.409,3.12,3.677,37.0
41.499,3.135,3.452,31.0
41.518,3.144,3.218,45.0
41.686,3.165,2.998,35.0
45.93,3.496,3.047,36.0
41.309,3.165,3.904,28.0
41.359,3.177,3.677,16.0
41.401,3.188,3.449,28.0
41.573,3.209,3.226,42.0
41.662,3.224,3.0,41.0
45.949,3.565,3.052,5.0
204.374,-2.255,3.591,15.0
0.0,0.0,0.0,0.0
139.225,-1.631,0.952,11.0
0.0,0.0,0.0,0.0
0.0,0.0,0.0,0.0
0.0,0.0,0.0,0.0
0.0,0.0,0.0,0.0
0.0,0.0,0.0,0.0
138.846,-1.9,1.063,21.0
0.0,0.0,0.0,0.0
0.0,0.0,0.0,0.0
46.75,-0.686,-0.397,1.0
0.0,0.0,0.0,0.0
139.086,-2.128,1.927,3.0
139.099,-2.176,1.183,11.0
113.462,-1.811,0.346,1.0
0.0,0.0,0.0,0.0
47.105,-0.783,-0.359,0.0
193.851,-3.277,3.891,20.0
139.097,-2.398,2.048,8.0
139.06,-2.443,1.304,23.0
0.0,0.0,0.0,0.0
0.0,0.0,0.0,0.0
0.0,0.0,0.0,0.0
193.589,-3.651,4.062,19.0
138.922,-2.665,2.173,4.0
138.997,-2.713,1.432,12.0
0.0,0.0,0.0,0.0
54.781,-1.104,-0.026,1.0
0.0,0.0,0.0,0.0
193.817,-4.024,4.248,8.0
193.068,-4.071,3.201,9.0
139.05,-2.978,1.564,3.0
138.891,-3.018,0.807,9.0
0.0,0.0,0.0,0.0
54.632,-1.224,-0.264,0.0
118.228,-2.679,2.705,6.0
193.215,-4.439,3.392,18.0
0.0,0.0,0.0,0.0
138.823,-3.28,0.944,11.0
0.0,0.0,0.0,0.0
0.0,0.0,0.0,0.0
118.24,-2.899,2.823,16.0
193.047,-4.794,3.582,9.0
0.0,0.0,0.0,0.0
138.828,-3.537,1.085,21.0
0.0,0.0,0.0,0.0
56.522,-1.475,-0.159,0.0
205.53,-5.418,5.119,12.0
0.0,0.0,0.0,0.0
138.664,-3.744,1.979,6.0
138.548,-3.785,1.228,23.0
0.0,0.0,0.0,0.0
0.0,0.0,0.0,0.0
194.266,-5.477,5.046,8.0
194.865,-5.554,4.025,16.0
138.595,-3.994,2.127,5.0
138.52,-4.037,1.377,12.0
0.0,0.0,0.0,0.0
0.0,0.0,0.0,0.0
193.914,-5.818,5.249,24.0
194.345,-5.892,4.23,19.0
193.534,-5.923,3.182,12.0
138.736,-4.29,1.532,10.0
138.732,-4.331,0.796,2.0
0.0,0.0,0.0,0.0
193.412,-6.143,5.45,24.0
193.969,-6.217,4.435,22.0
193.088,-6.249,3.392,24.0
0.0,0.0,0.0,0.0
138.579,-4.567,0.951,15.0
0.0,0.0,0.0,0.0
187.454,-6.28,5.496,42.0
187.397,-6.335,4.502,14.0
193.541,-6.599,3.623,6.0
0.0,0.0,0.0,0.0
138.584,-4.806,1.112,15.0
0.0,0.0,0.0,0.0
193.11,-6.8,5.887,23.0
193.373,-6.864,4.87,15.0
193.826,-6.937,3.855,13.0
138.5,-4.999,2.008,6.0
138.527,-5.042,1.277,23.0
0.0,0.0,0.0,0.0
193.481,-7.14,6.13,15.0
192.881,-7.175,5.091,25.0
194.389,-7.287,4.102,20.0
138.364,-5.226,2.175,5.0
138.478,-5.271,1.444,15.0
138.433,-5.311,0.714,4.0
193.85,-7.475,6.378,19.0
192.876,-7.495,5.329,20.0
193.163,-7.56,4.315,13.0
192.884,-7.602,3.27,16.0
138.488,-5.499,1.617,2.0
138.44,-5.538,0.887,11.0
41.5,0.096,3.646,48.0
41.604,0.099,3.412,42.0
45.864,0.112,3.492,6.0
50.307,0.126,3.531,5.0
60.371,0.155,3.886,9.0
71.443,0.189,4.182,2.0
41.567,0.12,3.578,44.0
41.757,0.123,3.349,40.0
45.726,0.137,3.4,23.0
67.295,0.207,4.602,13.0
60.32,0.19,3.773,10.0
73.804,0.237,4.185,13.0
41.507,0.142,3.497,49.0
41.859,0.146,3.281,37.0
45.695,0.162,3.314,12.0
60.409,0.218,4.022,14.0
67.913,0.249,4.124,3.0
73.942,0.275,4.059,3.0
41.703,0.164,3.436,43.0
41.921,0.168,3.208,20.0
47.89,0.194,3.384,3.0
60.351,0.248,3.905,13.0
73.44,0.306,4.324,7.0
81.004,0.341,4.296,7.0
41.753,0.185,3.362,43.0
45.725,0.205,3.414,16.0
60.784,0.275,4.181,20.0
60.234,0.275,3.785,12.0
80.538,0.373,4.59,13.0
78.689,0.368,4.025,9.0
48.05,0.234,3.778,13.0
45.714,0.225,3.326,15.0
66.73,0.331,4.465,10.0
71.729,0.36,4.371,6.0
80.351,0.406,4.427,15.0
80.708,0.411,3.976,10.0
41.904,0.222,3.214,10.0
47.91,0.255,3.394,16.0
60.496,0.325,3.931,5.0
70.272,0.38,4.148,3.0
81.133,0.442,4.315,4.0
80.523,0.441,3.812,9.0
44.964,0.255,3.363,3.0
47.887,0.273,3.301,19.0
60.138,0.345,3.792,2.0
80.319,0.463,4.588,11.0
78.674,0.456,4.034,11.0
80.44,0.468,3.654,8.0
44.906,0.27,3.271,8.0
60.629,0.366,4.061,7.0
74.507,0.452,4.554,4.0
80.714,0.492,4.453,9.0
80.828,0.494,3.987,5.0
104.796,0.644,4.556,18.0
47.759,0.302,3.385,19.0
60.459,0.383,3.93,4.0
73.945,0.471,4.374,2.0
81.355,0.519,4.327,13.0
80.645,0.516,3.817,7.0
104.783,0.673,4.347,24.0
47.894,0.316,3.299,8.0
60.004,0.396,3.781,10.0
80.619,0.533,4.608,7.0
78.642,0.522,4.026,12.0
97.626,0.65,4.428,12.0
70.084,0.467,2.769,18.0
60.571,0.413,4.051,7.0
74.26,0.508,4.531,4.0
81.321,0.557,4.485,11.0
70.297,0.482,3.458,3.0
104.75,0.72,4.541,14.0
70.02,0.481,2.627,8.0
60.077,0.422,3.897,5.0
78.418,0.551,4.627,4.0
81.331,0.572,4.322,20.0
80.572,0.567,3.803,11.0
70.073,0.493,2.897,9.0
69.78,0.491,2.478,6.0
74.155,0.532,4.661,8.0
80.667,0.579,4.597,12.0
78.672,0.565,4.023,8.0
97.616,0.701,4.41,21.0
70.118,0.503,2.757,10.0
104.687,0.751,3.504,17.0
71.659,0.523,4.358,3.0
81.427,0.594,4.475,12.0
80.74,0.588,3.963,3.0
70.002,0.51,3.019,21.0
69.868,0.508,2.605,9.0
104.741,0.762,3.293,21.0
78.458,0.579,4.61,10.0
81.331,0.6,4.303,21.0
80.569,0.593,3.79,10.0
70.081,0.516,2.88,8.0
69.718,0.512,2.457,14.0
104.764,0.768,3.08,25.0
14.493,-1.498,-0.731,1.0
14.417,-1.493,-0.806,0.0
13.796,-1.433,-0.847,0.0
12.759,-1.328,-0.854,0.0
11.97,-1.249,-0.867,0.0
11.319,-1.184,-0.882,0.0
14.256,-1.489,-0.71,1.0
14.112,-1.477,-0.78,0.0
13.878,-1.456,-0.843,0.0
12.873,-1.354,-0.854,0.0
12.022,-1.267,-0.864,0.0
11.399,-1.204,-0.881,0.0
14.03,-1.481,-0.69,1.0
13.863,-1.466,-0.758,0.0
13.729,-1.455,-0.825,0.0
13.058,-1.387,-0.858,0.0
12.123,-1.291,-0.863,0.0
11.452,-1.222,-0.878,0.0
14.005,-1.493,-0.679,1.0
13.568,-1.449,-0.732,1.0
13.503,-1.445,-0.803,0.0
13.22,-1.418,-0.859,0.0
12.208,-1.312,-0.86,0.0
11.486,-1.237,-0.872,0.0
14.153,-1.523,-0.677,1.0
13.344,-1.438,-0.711,1.0
13.285,-1.435,-0.78,0.0
13.207,-1.429,-0.849,0.0
12.468,-1.352,-0.87,0.0
11.6,-1.261,-0.873,0.0
14.325,-1.555,-0.675,4.0
13.249,-1.441,-0.696,1.0
13.059,-1.423,-0.757,0.0
13.125,-1.433,-0.834,0.0
12.614,-1.38,-0.87,0.0
11.715,-1.284,-0.872,0.0
14.357,-1.572,-0.665,9.0
13.293,-1.458,-0.688,1.0
12.818,-1.408,-0.734,0.0
12.756,-1.404,-0.801,0.0
12.621,-1.392,-0.861,0.0
11.785,-1.302,-0.868,0.0
14.406,-1.59,-0.656,14.0
13.411,-1.483,-0.684,1.0
12.651,-1.401,-0.714,1.0
12.546,-1.392,-0.777,0.0
12.527,-1.393,-0.845,0.0
11.874,-1.323,-0.865,0.0
14.445,-1.607,-0.646,14.0
13.617,-1.517,-0.683,1.0
12.592,-1.405,-0.7,1.0
12.379,-1.384,-0.757,0.0
12.355,-1.384,-0.823,0.0
12.095,-1.357,-0.871,0.0
14.479,-1.622,-0.636,14.0
13.854,-1.555,-0.683,2.0
12.683,-1.426,-0.695,1.0
12.224,-1.376,-0.737,0.0
12.203,-1.376,-0.802,0.0
12.148,-1.372,-0.865,0.0
14.551,-1.642,-0.627,13.0
13.875,-1.568,-0.672,8.0
12.842,-1.453,-0.692,1.0
12.133,-1.375,-0.721,0.0
12.057,-1.369,-0.782,0.0
12.061,-1.372,-0.848,0.0
15.048,-1.709,-0.635,14.0
13.87,-1.577,-0.66,13.0
13.012,-1.482,-0.69,1.0
12.136,-1.384,-0.71,0.0
11.904,-1.36,-0.761,0.0
11.883,-1.36,-0.824,0.0
15.204,-1.737,-0.627,18.0
13.855,-1.585,-0.646,12.0
13.258,-1.519,-0.69,1.0
12.239,-1.404,-0.705,1.0
11.766,-1.352,-0.741,0.0
11.725,-1.349,-0.802,0.0
15.361,-1.765,-0.619,19.0
13.969,-1.607,-0.639,12.0
13.415,-1.546,-0.686,4.0
12.322,-1.422,-0.698,2.0
11.711,-1.353,-0.727,0.0
11.627,-1.345,-0.785,0.0
15.509,-1.792,-0.61,17.0
14.077,-1.629,-0.63,10.0
13.405,-1.553,-0.672,9.0
12.429,-1.442,-0.692,1.0
11.749,-1.364,-0.717,0.0
11.515,-1.339,-0.765,0.0
15.711,-1.825,-0.603,17.0
14.375,-1.671,-0.629,11.0
13.468,-1.568,-0.662,10.0
12.661,-1.475,-0.692,1.0
11.834,-1.381,-0.711,0.0
11.395,-1.331,-0.746,0.0
15.985,-1.865,-0.597,16.0
14.62,-1.708,-0.625,12.0
13.608,-1.591,-0.655,11.0
12.953,-1.516,-0.695,2.0
12.002,-1.406,-0.709,0.0
11.353,-1.332,-0.732,0.0
16.175,-1.895,-0.588,16.0
14.869,-1.744,-0.621,12.0
13.603,-1.597,-0.641,10.0
13.009,-1.529,-0.684,7.0
12.18,-1.433,-0.706,0.0
11.417,-1.345,-0.724,0.0
16.395,-1.929,-0.579,17.0
15.201,-1.79,-0.619,16.0
14.068,-1.658,-0.648,11.0
13.081,-1.543,-0.674,11.0
12.345,-1.457,-0.703,2.0
11.507,-1.36,-0.717,0.0
16.638,-1.964,-0.57,16.0
15.299,-1.807,-0.606,17.0
14.241,-1.684,-0.641,11.0
13.165,-1.558,-0.665,11.0
12.426,-1.472,-0.694,4.0
11.65,-1.381,-0.714,0.0
16.99,-2.012,-0.564,15.0
15.458,-1.832,-0.596,16.0
14.402,-1.708,-0.633,13.0
13.233,-1.57,-0.654,9.0
12.552,-1.491,-0.688,5.0
11.83,-1.406,-0.712,0.0
17.466,-2.074,-0.561,16.0
15.795,-1.877,-0.592,15.0
14.633,-1.74,-0.627,13.0
13.315,-1.584,-0.643,10.0
12.721,-1.515,-0.683,8.0
12.023,-1.433,-0.71,0.0
17.844,-2.124,-0.553,17.0
16.016,-1.907,-0.582,14.0
14.939,-1.78,-0.623,17.0
13.549,-1.615,-0.639,10.0
12.912,-1.54,-0.679,12.0
12.199,-1.456,-0.707,1.0
18.231,-2.174,-0.545,18.0
16.311,-1.946,-0.575,14.0
15.109,-1.803,-0.613,21.0
13.724,-1.639,-0.632,10.0
12.985,-1.552,-0.668,11.0
12.323,-1.473,-0.7,4.0
18.411,-2.199,-0.529,18.0
16.693,-1.995,-0.569,14.0
15.273,-1.826,-0.603,20.0
13.939,-1.667,-0.626,10.0
13.117,-1.569,-0.66,11.0
12.397,-1.484,-0.69,7.0
18.7,-2.237,-0.516,19.0
17.103,-2.046,-0.564,14.0
15.49,-1.854,-0.593,15.0
14.419,-1.726,-0.631,13.0
13.333,-1.597,-0.655,10.0
12.599,-1.509,-0.686,9.0
19.212,-2.3,-0.508,26.0
17.58,-2.105,-0.559,15.0
15.765,-1.888,-0.586,13.0
14.713,-1.762,-0.627,15.0
13.428,-1.609,-0.644,9.0
12.782,-1.532,-0.681,10.0
19.445,-2.329,-0.492,31.0
17.926,-2.147,-0.549,16.0
16.101,-1.929,-0.579,13.0
14.952,-1.791,-0.619,21.0
13.9,-1.666,-0.65,11.0
12.91,-1.548,-0.673,11.0
19.936,-2.388,-0.481,23.0
18.254,-2.186,-0.538,17.0
16.48,-1.974,-0.574,14.0
15.17,-1.817,-0.611,20.0
14.075,-1.686,-0.642,11.0
13.029,-1.561,-0.664,11.0
20.648,-2.472,-0.474,21.0
18.531,-2.219,-0.524,17.0
16.89,-2.022,-0.568,14.0
15.353,-1.838,-0.6,17.0
14.326,-1.715,-0.636,12.0
13.201,-1.581,-0.657,11.0
21.181,-2.534,-0.461,22.0
18.922,-2.264,-0.513,19.0
17.395,-2.081,-0.564,14.0
15.589,-1.865,-0.59,13.0
14.552,-1.741,-0.629,14.0
13.599,-1.627,-0.66,11.0
21.766,-2.602,-0.447,20.0
19.39,-2.317,-0.502,25.0
17.809,-2.128,-0.556,16.0
15.941,-1.904,-0.584,13.0
14.897,-1.779,-0.626,18.0
13.82,-1.651,-0.654,11.0
22.388,-2.672,-0.433,21.0
19.79,-2.361,-0.489,20.0
18.183,-2.169,-0.546,16.0
16.309,-1.945,-0.578,14.0
15.118,-1.802,-0.617,23.0
14.022,-1.672,-0.647,12.0
22.964,-2.736,-0.417,22.0
20.433,-2.433,-0.48,19.0
18.487,-2.201,-0.533,17.0
16.713,-1.989,-0.572,14.0
15.305,-1.821,-0.606,19.0
14.298,-1.701,-0.643,12.0
23.614,-2.807,-0.4,23.0
21.037,-2.499,-0.469,20.0
18.848,-2.238,-0.52,16.0
17.185,-2.04,-0.568,14.0
15.605,-1.852,-0.599,15.0
14.498,-1.72,-0.634,13.0
24.472,-2.901,-0.385,23.0
21.608,-2.56,-0.455,19.0
19.266,-2.282,-0.509,15.0
17.685,-2.093,-0.563,16.0
16.004,-1.893,-0.595,14.0
14.885,-1.76,-0.633,14.0
25.264,-2.986,-0.367,18.0
22.274,-2.631,-0.443,19.0
19.832,-2.341,-0.5,17.0
18.065,-2.131,-0.553,16.0
16.317,-1.924,-0.587,16.0
15.16,-1.787,-0.626,15.0
0.0,0.0,0.0,0.0
22.892,-2.694,-0.427,19.0
20.332,-2.391,-0.488,18.0
18.391,-2.162,-0.541,16.0
16.65,-1.956,-0.579,15.0
15.355,-1.803,-0.616,15.0
29.025,-3.406,-0.353,19.0
23.511,-2.757,-0.411,21.0
20.735,-2.429,-0.473,18.0
18.779,-2.198,-0.53,17.0
17.084,-1.998,-0.573,15.0
15.615,-1.825,-0.607,15.0
30.415,-3.554,-0.333,24.0
24.333,-2.841,-0.396,25.0
21.574,-2.516,-0.466,18.0
19.151,-2.232,-0.518,20.0
17.571,-2.046,-0.569,15.0
16.074,-1.87,-0.606,15.0
35.283,-4.104,-0.344,2.0
25.2,-2.928,-0.38,19.0
22.144,-2.57,-0.452,20.0
19.632,-2.277,-0.507,20.0
18.029,-2.089,-0.562,19.0
16.364,-1.894,-0.598,16.0
35.521,-4.111,-0.304,22.0
0.0,0.0,0.0,0.0
22.829,-2.636,-0.439,21.0
20.174,-2.327,-0.498,17.0
18.368,-2.117,-0.551,17.0
16.729,-1.926,-0.591,15.0
36.315,-4.18,-0.268,13.0
28.913,-3.324,-0.368,18.0
23.349,-2.681,-0.422,22.0
20.771,-2.382,-0.488,17.0
18.88,-2.163,-0.544,20.0
17.249,-1.974,-0.589,16.0
37.583,-4.3,-0.234,21.0
30.184,-3.449,-0.348,26.0
24.388,-2.783,-0.412,21.0
21.614,-2.464,-0.482,21.0
19.173,-2.183,-0.53,24.0
17.596,-2.001,-0.58,17.0
38.584,-4.387,-0.195,14.0
30.786,-3.496,-0.32,11.0
25.346,-2.874,-0.399,18.0
22.187,-2.512,-0.469,21.0
19.207,-2.172,-0.509,23.0
18.011,-2.034,-0.573,18.0
0.0,0.0,0.0,0.0
35.434,-3.996,-0.327,20.0
0.0,0.0,0.0,0.0
22.797,-2.563,-0.456,20.0
19.993,-2.245,-0.507,20.0
18.407,-2.064,-0.565,18.0
42.257,-4.738,-0.116,18.0
35.999,-4.03,-0.291,16.0
28.713,-3.209,-0.385,25.0
23.572,-2.631,-0.444,22.0
20.873,-2.326,-0.505,24.0
18.795,-2.091,-0.555,20.0
45.224,-5.032,-0.074,22.0
37.316,-4.145,-0.259,15.0
29.894,-3.315,-0.368,32.0
24.441,-2.706,-0.433,20.0
21.636,-2.392,-0.499,21.0
19.158,-2.115,-0.544,19.0
46.587,-5.141,-0.023,21.0
38.401,-4.231,-0.224,17.0
30.823,-3.39,-0.344,13.0
24.871,-2.731,-0.413,19.0
22.251,-2.439,-0.489,23.0
19.56,-2.141,-0.534,19.0
48.028,-5.256,0.028,22.0
0.0,0.0,0.0,0.0
32.498,-3.543,-0.327,12.0
0.0,0.0,0.0,0.0
22.866,-2.484,-0.477,22.0
20.193,-2.19,-0.529,19.0
33.132,-3.593,0.055,43.0
33.128,-3.586,-0.121,27.0
33.095,-3.576,-0.298,14.0
0.0,0.0,0.0,0.0
23.34,-2.512,-0.462,26.0
20.882,-2.244,-0.525,20.0
33.107,-3.557,0.09,83.0
33.102,-3.549,-0.086,76.0
33.103,-3.542,-0.263,58.0
29.523,-3.153,-0.395,27.0
23.629,-2.518,-0.442,2.0
21.418,-2.278,-0.516,20.0
33.105,-3.521,0.126,89.0
33.1,-3.513,-0.05,80.0
33.089,-3.505,-0.227,80.0
30.507,-3.225,-0.376,23.0
23.551,-2.484,-0.416,0.0
22.067,-2.323,-0.508,20.0
33.122,-3.486,0.16,73.0
33.114,-3.478,-0.016,71.0
33.101,-3.469,-0.193,72.0
31.851,-3.331,-0.36,28.0
28.053,-2.927,-0.467,0.0
22.608,-2.354,-0.497,21.0
33.15,-3.452,0.194,1.0
33.126,-3.441,0.017,10.0
33.116,-3.432,-0.16,40.0
32.893,-3.401,-0.338,45.0
29.529,-3.047,-0.462,3.0
23.23,-2.391,-0.488,19.0
87.217,-8.979,0.6,7.0
0.0,0.0,0.0,0.0
43.403,-4.446,-0.166,18.0
35.869,-3.666,-0.333,13.0
29.785,-3.037,-0.436,11.0
23.562,-2.397,-0.471,31.0
87.481,-8.899,0.688,11.0
63.915,-6.485,0.159,2.0
44.907,-4.545,-0.128,19.0
37.353,-3.772,-0.311,16.0
30.109,-3.033,-0.412,26.0
23.554,-2.367,-0.449,9.0
87.801,-8.821,0.774,5.0
79.741,-7.99,0.276,4.0
46.622,-4.659,-0.088,21.0
38.533,-3.841,-0.284,18.0
30.751,-3.057,-0.391,21.0
23.581,-2.338,-0.426,1.0
111.219,-11.029,1.086,6.0
79.974,-7.908,0.351,10.0
47.924,-4.726,-0.046,22.0
0.0,0.0,0.0,0.0
35.304,-3.463,-0.417,2.0
23.633,-2.312,-0.406,0.0
111.328,-10.891,1.189,16.0
84.879,-8.28,0.45,7.0
48.997,-4.766,-0.002,6.0
41.668,-4.042,-0.23,17.0
35.38,-3.422,-0.386,20.0
29.253,-2.822,-0.476,3.0
111.783,-10.782,1.294,10.0
85.232,-8.196,0.528,14.0
51.458,-4.934,0.042,11.0
43.438,-4.153,-0.201,19.0
36.127,-3.444,-0.362,12.0
29.372,-2.792,-0.452,12.0
119.085,-11.317,1.483,7.0
85.41,-8.091,0.604,10.0
55.169,-5.211,0.093,3.0
45.109,-4.248,-0.17,20.0
37.466,-3.517,-0.343,14.0
29.597,-2.771,-0.43,15.0
119.118,-11.149,1.584,15.0
87.213,-8.138,0.69,8.0
67.168,-6.247,0.169,3.0
46.81,-4.34,-0.138,21.0
38.111,-3.523,-0.318,14.0
29.853,-2.751,-0.41,31.0
135.588,-12.491,1.914,131.0
111.201,-10.21,0.969,4.0
71.929,-6.583,0.24,7.0
48.341,-4.409,-0.103,22.0
38.137,-3.467,-0.287,4.0
29.872,-2.707,-0.386,8.0
135.592,-12.285,2.023,54.0
111.564,-10.074,1.062,9.0
80.654,-7.258,0.332,5.0
50.451,-4.524,-0.068,24.0
41.165,-3.679,-0.278,16.0
29.899,-2.663,-0.363,1.0
135.653,-12.08,2.127,124.0
114.624,-10.17,1.179,5.0
84.425,-7.465,0.412,2.0
51.444,-4.533,-0.031,20.0
0.0,0.0,0.0,0.0
29.971,-2.622,-0.341,0.0
135.71,-11.871,2.228,150.0
114.686,-9.997,1.263,10.0
83.585,-7.259,0.468,6.0
51.828,-4.485,0.005,4.0
44.301,-3.82,-0.235,19.0
35.632,-3.061,-0.381,5.0
119.276,-10.244,2.042,20.0
119.123,-10.192,1.396,10.0
86.619,-7.382,0.547,8.0
56.469,-4.795,0.045,4.0
45.345,-3.836,-0.208,8.0
35.664,-3.006,-0.357,50.0
126.485,-10.656,2.252,42.0
119.168,-9.999,1.476,16.0
87.624,-7.324,0.612,4.0
67.61,-5.629,0.099,6.0
47.575,-3.946,-0.188,21.0
35.694,-2.949,-0.334,18.0
126.492,-10.445,2.335,134.0
119.208,-9.804,1.553,17.0
92.824,-7.603,0.707,4.0
67.458,-5.503,0.142,10.0
49.249,-4.002,-0.163,23.0
40.606,-3.286,-0.354,1.0
126.487,-10.23,2.412,40.0
119.195,-9.6,1.627,16.0
114.252,-9.164,0.939,3.0
67.768,-5.412,0.183,15.0
50.675,-4.031,-0.137,24.0
39.956,-3.165,-0.325,21.0
67.914,-5.375,1.335,13.0
67.889,-5.351,0.966,43.0
67.852,-5.325,0.597,83.0
67.849,-5.302,0.221,78.0
51.976,-4.044,-0.112,5.0
40.303,-3.123,-0.305,15.0
67.904,-5.257,1.372,77.0
67.911,-5.234,1.004,43.0
67.901,-5.209,0.635,5.0
82.874,-6.33,0.315,9.0
45.298,-3.444,-0.073,5.0
40.585,-3.072,-0.286,10.0
72.433,-5.479,1.502,20.0
119.359,-8.986,1.825,26.0
20.07,-1.504,0.197,1.0
20.02,-1.493,0.086,0.0
48.885,-3.63,-0.055,0.0
45.092,-3.333,-0.295,6.0
20.028,-1.479,0.425,2.0
20.019,-1.471,0.315,8.0
20.027,-1.464,0.207,33.0
20.012,-1.456,0.096,8.0
52.058,-3.77,-0.033,0.0
43.58,-3.141,-0.265,0.0
20.015,-1.441,0.434,11.0
20.011,-1.434,0.324,11.0
20.043,-1.429,0.216,26.0
20.016,-1.419,0.104,1.0
59.02,-4.165,-0.012,1.0
48.225,-3.387,-0.272,1.0
20.018,-1.404,0.442,10.0
20.045,-1.398,0.333,7.0
119.295,-8.281,1.336,13.0
95.53,-6.597,0.539,6.0
20.032,-1.376,0.003,2.0
20.009,-1.367,-0.105,20.0
20.071,-1.37,0.451,2.0
119.436,-8.111,2.035,81.0
19.963,-1.348,0.231,11.0
19.974,-1.342,0.12,18.0
19.989,-1.336,0.011,16.0
19.979,-1.328,-0.098,29.0
19.957,-1.325,0.456,11.0
19.936,-1.316,0.346,16.0
19.956,-1.31,0.237,29.0
19.983,-1.305,0.126,24.0
19.99,-1.298,0.017,26.0
19.98,-1.29,-0.091,33.0
19.929,-1.285,0.461,19.0
19.931,-1.277,0.352,20.0
19.965,-1.272,0.244,29.0
19.985,-1.266,0.132,23.0
20.001,-1.26,0.023,25.0
20.016,-1.254,-0.086,25.0
19.933,-1.246,0.467,24.0
19.922,-1.238,0.358,23.0
19.951,-1.233,0.249,22.0
19.991,-1.228,0.138,151.0
19.983,-1.22,0.028,150.0
19.976,-1.213,-0.08,150.0
19.948,-1.208,0.472,21.0
19.928,-1.2,0.362,19.0
19.955,-1.194,0.253,26.0
19.999,-1.189,0.142,56.0
20.013,-1.183,0.033,29.0
20.024,-1.177,-0.076,25.0
19.95,-1.17,0.476,25.0
19.936,-1.161,0.367,23.0
19.959,-1.155,0.257,23.0
20.029,-1.152,0.146,10.0
20.016,-1.144,0.036,8.0
0.0,0.0,0.0,0.0
19.959,-1.131,0.48,25.0
19.964,-1.124,0.37,25.0
19.972,-1.117,0.261,24.0
20.001,-1.111,0.149,23.0
19.982,-1.103,0.039,24.0
20.01,-1.097,-0.07,22.0
19.966,-1.092,0.483,23.0
19.963,-1.084,0.373,19.0
19.988,-1.078,0.263,25.0
19.967,-1.069,0.151,22.0
19.972,-1.062,0.041,33.0
19.964,-1.055,-0.067,24.0
19.971,-1.052,0.485,17.0
19.966,-1.044,0.375,13.0
20.002,-1.039,0.265,19.0
20.002,-1.031,0.153,16.0
19.978,-1.023,0.043,18.0
19.979,-1.015,-0.066,27.0
20.108,-1.019,0.49,18.0
20.146,-1.013,0.379,26.0
20.161,-1.006,0.268,26.0
20.163,-0.999,0.155,1.0
20.023,-0.985,0.044,4.0
20.002,-0.977,-0.066,23.0
20.133,-0.979,0.491,23.0
20.147,-0.972,0.38,19.0
20.168,-0.966,0.269,0.0
138.222,-6.568,1.068,20.0
0.0,0.0,0.0,0.0
20.04,-0.937,-0.066,2.0
20.154,-0.939,0.491,12.0
193.478,-8.942,3.646,16.0
138.077,-6.328,1.839,12.0
138.277,-6.285,1.063,16.0
0.0,0.0,0.0,0.0
0.0,0.0,0.0,0.0
193.847,-8.632,4.714,23.0
192.936,-8.517,3.624,24.0
138.112,-6.045,1.831,23.0
138.008,-5.988,1.052,25.0
0.0,0.0,0.0,0.0
0.0,0.0,0.0,0.0
192.892,-8.192,4.673,22.0
192.605,-8.106,3.599,26.0
187.227,-7.81,2.461,8.0
138.403,-5.722,1.04,15.0
0.0,0.0,0.0,0.0
0.0,0.0,0.0,0.0
192.82,-7.788,4.645,18.0
193.507,-7.744,3.59,16.0
0.0,0.0,0.0,0.0
138.406,-5.436,1.018,14.0
0.0,0.0,0.0,0.0
58.153,-2.241,-0.216,0.0
192.637,-7.386,4.608,19.0
193.381,-7.342,3.554,15.0
0.0,0.0,0.0,0.0
138.511,-5.154,0.994,22.0
0.0,0.0,0.0,0.0
0.0,0.0,0.0,0.0
193.344,-7.009,4.585,23.0
194.392,-6.973,3.53,6.0
0.0,0.0,0.0,0.0
138.559,-4.867,0.962,16.0
0.0,0.0,0.0,0.0
0.0,0.0,0.0,0.0
187.427,-6.403,4.398,51.0
193.057,-6.522,3.456,15.0
0.0,0.0,0.0,0.0
138.569,-4.579,0.926,12.0
0.0,0.0,0.0,0.0
0.0,0.0,0.0,0.0
194.027,-6.229,4.498,24.0
193.667,-6.145,3.412,21.0
0.0,0.0,0.0,0.0
138.594,-4.295,0.885,9.0
0.0,0.0,0.0,0.0
53.476,-1.619,-0.253,0.0
194.682,-5.846,4.451,20.0
0.0,0.0,0.0,0.0
138.5,-4.057,1.623,10.0
138.407,-4.003,0.837,12.0
0.0,0.0,0.0,0.0
0.0,0.0,0.0,0.0
195.177,-5.454,4.392,5.0
0.0,0.0,0.0,0.0
138.883,-3.778,1.575,2.0
138.684,-3.723,0.786,9.0
0.0,0.0,0.0,0.0
0.0,0.0,0.0,0.0
207.296,-5.363,4.582,5.0
192.764,-4.913,3.184,13.0
138.886,-3.488,1.518,4.0
138.844,-3.437,0.728,3.0
0.0,0.0,0.0,0.0
0.0,0.0,0.0,0.0
0.0,0.0,0.0,0.0
193.188,-4.524,3.106,7.0
138.92,-3.203,1.457,10.0
138.685,-3.147,0.665,4.0
0.0,0.0,0.0,0.0
0.0,0.0,0.0,0.0
193.879,-4.21,4.108,14.0
138.944,-2.965,2.166,4.0
138.951,-2.917,1.39,15.0
0.0,0.0,0.0,0.0
0.0,0.0,0.0,0.0
0.0,0.0,0.0,0.0
193.484,-3.802,4.001,15.0
138.95,-2.681,2.095,6.0
139.068,-2.634,1.318,22.0
0.0,0.0,0.0,0.0
0.0,0.0,0.0,0.0
47.168,-0.843,-0.349,0.0
193.934,-3.412,3.904,8.0
139.037,-2.397,2.019,7.0
139.097,-2.349,1.241,19.0
113.45,-1.876,0.365,3.0
0.0,0.0,0.0,0.0
46.67,-0.739,-0.372,0.0
194.608,-3.024,3.803,11.0
138.892,-2.11,1.935,16.0
138.882,-2.059,1.155,23.0
0.0,0.0,0.0,0.0
0.0,0.0,0.0,0.0
46.735,-0.644,-0.402,0.0
0.0,0.0,0.0,0.0
0.0,0.0,0.0,0.0
139.229,-1.781,1.07,23.0
0.0,0.0,0.0,0.0
0.0,0.0,0.0,0.0
45.476,-0.534,-0.42,1.0
119.785,-1.374,2.188,10.0
119.752,-1.331,1.514,69.0
119.749,-1.289,0.84,150.0
0.0,0.0,0.0,0.0
55.276,-0.557,-0.238,0.0
0.0,0.0,0.0,0.0
119.748,-1.128,2.103,96.0
119.674,-1.088,1.429,17.0
114.288,-1.0,0.722,11.0
0.0,0.0,0.0,0.0
0.0,0.0,0.0,0.0
0.0,0.0,0.0,0.0
119.821,-0.888,2.016,29.0
119.693,-0.847,1.341,17.0
111.129,-0.749,0.619,4.0
0.0,0.0,0.0,0.0
0.0,0.0,0.0,0.0
40.476,-0.232,-0.461,0.0
119.824,-0.649,1.925,13.0
119.685,-0.608,1.249,16.0
105.298,-0.499,0.505,1.0
0.0,0.0,0.0,0.0
50.614,-0.205,-0.332,0.0
0.0,0.0,0.0,0.0
114.627,-0.391,1.749,6.0
114.474,-0.352,1.101,150.0
0.0,0.0,0.0,0.0
0.0,0.0,0.0,0.0
0.0,0.0,0.0,0.0
0.0,0.0,0.0,0.0
111.023,-0.158,1.601,7.0
117.296,-0.127,1.029,8.0
95.39,-0.072,0.298,1.0
0.0,0.0,0.0,0.0
45.759,-0.005,-0.377,1.0
0.0,0.0,0.0,0.0
111.127,0.06,1.505,20.0
110.917,0.096,0.876,10.0
93.12,0.111,0.209,2.0
44.129,0.067,-0.154,0.0
43.066,0.079,-0.394,0.0
35.956,0.077,-0.532,0.0
111.261,0.277,1.406,9.0
110.858,0.312,0.774,6.0
0.0,0.0,0.0,0.0
0.0,0.0,0.0,0.0
42.821,0.162,-0.431,1.0
34.477,0.141,-0.542,0.0
111.072,0.491,1.299,25.0
104.511,0.497,0.63,5.0
0.0,0.0,0.0,0.0
54.679,0.294,-0.294,0.0
42.766,0.243,-0.472,0.0
0.0,0.0,0.0,0.0
104.962,0.664,1.126,4.0
97.545,0.648,0.494,7.0
0.0,0.0,0.0,0.0
0.0,0.0,0.0,0.0
0.0,0.0,0.0,0.0
32.493,0.257,-0.575,0.0
104.751,0.863,1.017,8.0
84.654,0.724,0.342,8.0
0.0,0.0,0.0,0.0
46.595,0.427,-0.344,0.0
0.0,0.0,0.0,0.0
0.0,0.0,0.0,0.0
98.461,0.997,0.853,16.0
85.365,0.89,0.256,3.0
0.0,0.0,0.0,0.0
46.254,0.51,-0.39,1.0
37.075,0.42,-0.523,0.0
0.0,0.0,0.0,0.0
98.41,1.178,0.748,11.0
81.154,0.996,0.156,1.0
0.0,0.0,0.0,0.0
43.861,0.564,-0.417,1.0
35.549,0.467,-0.539,0.0
29.429,0.396,-0.614,0.0
92.093,1.271,0.599,11.0
76.183,1.074,0.063,1.0
0.0,0.0,0.0,0.0
41.542,0.61,-0.441,0.0
0.0,0.0,0.0,0.0
28.591,0.436,-0.628,0.0
84.974,1.326,0.457,5.0
74.231,1.18,-0.022,0.0
0.0,0.0,0.0,0.0
41.506,0.684,-0.488,0.0
0.0,0.0,0.0,0.0
27.703,0.472,-0.641,0.0
84.495,1.469,0.357,7.0
72.348,1.279,-0.105,0.0
0.0,0.0,0.0,0.0
0.0,0.0,0.0,0.0
31.627,0.586,-0.589,0.0
26.589,0.5,-0.646,0.0
77.732,1.489,0.235,4.0
0.0,0.0,0.0,0.0
0.0,0.0,0.0,0.0
0.0,0.0,0.0,0.0
30.193,0.612,-0.599,0.0
25.998,0.535,-0.663,0.0
71.687,1.498,0.13,9.0
0.0,0.0,0.0,0.0
43.972,0.943,-0.421,0.0
34.552,0.751,-0.531,0.0
29.299,0.645,-0.617,0.0
25.401,0.566,-0.679,0.0
67.937,1.537,0.038,4.0
0.0,0.0,0.0,0.0
40.063,0.927,-0.433,0.0
33.818,0.792,-0.562,0.0
0.0,0.0,0.0,0.0
24.355,0.584,-0.682,0.0
66.35,1.613,-0.047,2.0
0.0,0.0,0.0,0.0
0.0,0.0,0.0,0.0
31.883,0.8,-0.571,0.0
27.042,0.686,-0.638,0.0
23.591,0.605,-0.691,0.0
65.057,1.689,-0.13,3.0
0.0,0.0,0.0,0.0
0.0,0.0,0.0,0.0
0.0,0.0,0.0,0.0
26.362,0.712,-0.657,0.0
22.722,0.62,-0.696,0.0
57.227,1.579,-0.19,14.0
0.0,0.0,0.0,0.0
0.0,0.0,0.0,0.0
28.639,0.812,-0.588,0.0
25.382,0.726,-0.666,0.0
22.373,0.646,-0.715,0.0
55.578,1.623,-0.26,0.0
0.0,0.0,0.0,0.0
33.967,1.009,-0.546,0.0
28.588,0.856,-0.626,4.0
24.572,0.742,-0.678,0.0
21.535,0.656,-0.718,0.0
0.0,0.0,0.0,0.0
0.0,0.0,0.0,0.0
32.234,1.008,-0.563,0.0
28.432,0.896,-0.662,0.0
23.754,0.754,-0.689,0.0
20.919,0.669,-0.727,0.0
0.0,0.0,0.0,0.0
37.43,1.219,-0.492,0.0
30.814,1.01,-0.581,0.0
26.54,0.877,-0.655,0.0
23.104,0.768,-0.702,0.0
20.327,0.681,-0.734,0.0
45.394,1.535,-0.402,0.0
0.0,0.0,0.0,0.0
29.765,1.02,-0.604,0.0
25.267,0.872,-0.66,0.0
22.256,0.774,-0.709,0.0
19.902,0.697,-0.748,0.0
0.0,0.0,0.0,0.0
33.976,1.207,-0.544,0.0
28.034,1.002,-0.609,0.0
24.429,0.879,-0.673,0.0
21.556,0.781,-0.718,0.0
18.98,0.692,-0.741,0.0
0.0,0.0,0.0,0.0
0.0,0.0,0.0,0.0
0.0,0.0,0.0,0.0
23.636,0.884,-0.686,0.0
20.991,0.79,-0.73,0.0
18.635,0.706,-0.755,0.0
36.543,1.394,-0.483,0.0
30.167,1.158,-0.572,0.0
26.183,1.011,-0.647,0.0
22.828,0.886,-0.697,0.0
20.232,0.79,-0.734,0.0
18.238,0.716,-0.766,0.0
35.018,1.385,-0.516,0.0
29.372,1.168,-0.601,0.0
25.293,1.011,-0.663,0.0
22.138,0.89,-0.709,0.0
19.555,0.79,-0.739,0.0
17.742,0.721,-0.772,0.0
33.606,1.374,-0.546,0.0
28.289,1.162,-0.622,0.0
0.0,0.0,0.0,0.0
21.438,0.89,-0.719,0.0
19.04,0.794,-0.748,0.0
17.203,0.721,-0.775,0.0
31.768,1.34,-0.565,0.0
27.061,1.147,-0.636,0.0
23.391,0.996,-0.684,0.0
20.779,0.889,-0.729,0.0
18.55,0.798,-0.757,0.0
16.943,0.732,-0.789,0.0
30.098,1.307,-0.581,0.0
26.037,1.136,-0.652,0.0
22.704,0.995,-0.699,0.0
20.21,0.89,-0.74,0.0
18.098,0.801,-0.767,0.0
16.543,0.735,-0.797,0.0
28.984,1.295,-0.605,0.0
24.9,1.117,-0.662,0.0
21.922,0.988,-0.709,0.0
19.454,0.88,-0.743,0.0
17.647,0.802,-0.776,0.0
16.048,0.733,-0.798,0.0
27.658,1.269,-0.621,0.0
23.965,1.104,-0.676,0.0
21.309,0.986,-0.723,0.0
18.987,0.882,-0.756,0.0
17.21,0.803,-0.784,0.0
15.643,0.733,-0.803,0.0
26.734,1.258,-0.643,0.0
23.054,1.088,-0.686,0.0
20.458,0.97,-0.727,0.0
18.309,0.871,-0.758,0.0
16.727,0.799,-0.788,0.0
15.27,0.732,-0.808,0.0
25.418,1.224,-0.651,0.0
22.488,1.087,-0.706,0.0
19.806,0.961,-0.735,0.0
17.88,0.871,-0.769,0.0
16.106,0.787,-0.785,0.0
14.94,0.733,-0.815,0.0
24.598,1.211,-0.67,0.0
21.579,1.066,-0.712,0.0
19.278,0.956,-0.747,0.0
17.408,0.866,-0.777,0.0
15.886,0.793,-0.8,0.0
14.624,0.733,-0.821,0.0
23.556,1.184,-0.68,0.0
20.85,1.052,-0.722,0.0
18.705,0.947,-0.755,0.0
16.891,0.858,-0.781,0.0
15.431,0.787,-0.803,0.0
14.306,0.732,-0.827,0.0
22.682,1.163,-0.692,0.0
20.151,1.037,-0.731,0.0
18.046,0.932,-0.758,0.0
16.552,0.857,-0.793,0.0
15.123,0.786,-0.811,0.0
14.042,0.732,-0.835,0.0
21.896,1.144,-0.704,0.0
19.465,1.02,-0.738,0.0
17.626,0.927,-0.77,0.0
16.102,0.849,-0.798,0.0
14.766,0.781,-0.817,0.0
13.669,0.725,-0.835,0.0
21.141,1.124,-0.714,0.0
19.04,1.015,-0.753,0.0
17.173,0.919,-0.778,0.0
15.693,0.842,-0.803,0.0
14.474,0.779,-0.824,0.0
13.471,0.727,-0.845,0.0
20.415,1.104,-0.723,0.0
18.393,0.997,-0.758,0.0
16.673,0.906,-0.783,0.0
15.187,0.828,-0.803,0.0
14.116,0.772,-0.828,0.0
13.11,0.719,-0.845,0.0
19.865,1.091,-0.737,0.0
17.862,0.984,-0.766,0.0
16.27,0.898,-0.791,0.0
14.908,0.825,-0.813,0.0
13.793,0.765,-0.832,0.0
12.848,0.715,-0.849,0.0
19.275,1.074,-0.747,0.0
17.245,0.963,-0.768,0.0
15.859,0.888,-0.798,0.0
14.483,0.813,-0.814,0.0
13.526,0.761,-0.838,0.0
12.571,0.709,-0.852,0.0
18.535,1.047,-0.75,0.0
16.962,0.96,-0.784,0.0
15.384,0.873,-0.8,0.0
14.203,0.808,-0.822,0.0
13.251,0.756,-0.843,0.0
12.27,0.701,-0.852,0.0
18.105,1.036,-0.763,0.0
16.529,0.948,-0.792,0.0
15.149,0.871,-0.813,0.0
13.903,0.801,-0.828,0.0
13.034,0.753,-0.852,0.0
11.967,0.692,-0.851,0.0
17.619,1.02,-0.772,0.0
16.07,0.933,-0.797,0.0
14.743,0.857,-0.816,0.0
13.611,0.793,-0.833,0.0
12.702,0.742,-0.851,0.0
11.726,0.686,-0.854,0.0
17.001,0.996,-0.773,0.0
15.577,0.914,-0.798,0.0
14.36,0.844,-0.819,0.0
13.283,0.782,-0.836,0.0
12.357,0.729,-0.849,0.0
11.498,0.68,-0.857,0.0
16.575,0.98,-0.781,0.0
15.175,0.899,-0.803,0.0
14.104,0.837,-0.828,0.0
13.088,0.778,-0.846,0.0
12.097,0.721,-0.852,0.0
11.28,0.674,-0.86,0.0
16.19,0.967,-0.79,0.0
14.844,0.888,-0.811,0.0
13.772,0.825,-0.832,0.0
12.722,0.764,-0.843,0.0
11.778,0.708,-0.849,0.0
11.086,0.668,-0.863,0.0
15.695,0.945,-0.793,0.0
14.488,0.874,-0.815,0.0
13.513,0.816,-0.839,0.0
12.465,0.754,-0.847,0.0
11.579,0.702,-0.854,0.0
10.874,0.661,-0.865,0.0
15.398,0.935,-0.803,0.0
14.145,0.86,-0.82,0.0
13.138,0.8,-0.837,0.0
12.219,0.745,-0.851,0.0
11.376,0.695,-0.858,0.0
10.7,0.655,-0.869,0.0
15.049,0.92,-0.81,0.0
13.952,0.854,-0.832,0.0
12.908,0.791,-0.844,0.0
11.888,0.73,-0.847,0.0
11.151,0.686,-0.86,0.0
10.574,0.651,-0.877,0.0
14.699,0.904,-0.815,0.0
13.607,0.838,-0.833,0.0
12.546,0.774,-0.841,0.0
11.654,0.72,-0.85,0.0
10.965,0.678,-0.863,0.0
10.389,0.644,-0.879,0.0
14.289,0.884,-0.816,0.0
13.323,0.825,-0.838,0.0
12.327,0.765,-0.847,0.0
11.49,0.714,-0.857,0.0
10.776,0.67,-0.866,0.0
10.217,0.636,-0.881,0.0
14.036,0.873,-0.825,0.0
13.074,0.814,-0.844,0.0
12.048,0.751,-0.847,0.0
11.212,0.7,-0.855,0.0
10.648,0.665,-0.874,0.0
10.09,0.631,-0.886,0.0
13.7,0.855,-0.827,0.0
12.745,0.797,-0.843,0.0
11.787,0.738,-0.848,0.0
11.036,0.691,-0.859,0.0
10.446,0.655,-0.874,0.0
9.999,0.628,-0.895,0.0
13.497,0.846,-0.837,0.0
12.464,0.782,-0.845,0.0
11.571,0.726,-0.851,0.0
10.865,0.683,-0.863,0.0
10.31,0.649,-0.879,0.0
9.847,0.62,-0.897,0.0
13.23,0.831,-0.841,0.0
12.228,0.769,-0.848,0.0
11.375,0.716,-0.855,0.0
10.708,0.675,-0.868,0.0
10.171,0.641,-0.884,0.0
9.688,0.612,-0.898,0.0
12.956,0.816,-0.844,0.0
11.908,0.75,-0.845,0.0
11.151,0.703,-0.856,0.0
10.556,0.666,-0.873,0.0
10.039,0.634,-0.888,0.0
9.596,0.607,-0.905,0.0
12.694,0.801,-0.847,0.0
11.672,0.737,-0.847,0.0
11.018,0.696,-0.863,0.0
10.383,0.656,-0.875,0.0
9.918,0.627,-0.893,0.0
9.44,0.598,-0.905,0.0
12.354,0.78,-0.844,0.0
11.512,0.727,-0.853,0.0
10.831,0.685,-0.865,0.0
10.245,0.648,-0.879,0.0
9.784,0.619,-0.896,0.0
9.317,0.59,-0.908,0.0
12.131,0.766,-0.847,0.0
11.282,0.713,-0.853,0.0
10.677,0.675,-0.869,0.0
10.152,0.642,-0.887,0.0
9.725,0.616,-0.906,0.0
9.115,0.577,-0.902,0.0
11.851,0.748,-0.846,0.0
11.101,0.701,-0.857,0.0
10.49,0.663,-0.87,0.0
9.991,0.631,-0.888,0.0
9.542,0.603,-0.903,0.0
9.044,0.572,-0.909,0.0
11.644,0.734,-0.849,0.0
10.969,0.692,-0.863,0.0
10.386,0.655,-0.877,0.0
9.853,0.622,-0.89,0.0
9.361,0.591,-0.9,0.0
8.919,0.564,-0.91,0.0
11.493,0.723,-0.855,0.0
10.806,0.68,-0.866,0.0
10.262,0.646,-0.882,0.0
9.732,0.613,-0.894,0.0
9.314,0.587,-0.909,0.0
8.857,0.559,-0.916,0.0
11.224,0.705,-0.851,0.0
10.686,0.671,-0.872,0.0
10.124,0.636,-0.885,0.0
9.643,0.606,-0.9,0.0
9.169,0.576,-0.909,0.0
8.755,0.551,-0.919,0.0
11.098,0.695,-0.857,0.0
10.481,0.656,-0.87,0.0
9.951,0.623,-0.884,0.0
9.536,0.597,-0.903,0.0
9.086,0.569,-0.913,0.0
8.65,0.542,-0.92,0.0
10.932,0.682,-0.86,0.0
10.369,0.647,-0.876,0.0
9.863,0.616,-0.89,0.0
9.463,0.591,-0.91,0.0
8.97,0.56,-0.915,0.0
8.593,0.536,-0.926,0.0
10.79,0.671,-0.864,0.0
10.231,0.636,-0.878,0.0
9.808,0.609,-0.899,0.0
0.0,0.0,0.0,0.0
8.903,0.553,-0.92,0.0
8.436,0.524,-0.921,0.0
10.659,0.659,-0.868,0.0
10.126,0.626,-0.883,0.0
9.644,0.596,-0.897,0.0
9.195,0.568,-0.909,0.0
8.769,0.542,-0.918,0.0
8.415,0.52,-0.93,0.0
10.507,0.646,-0.87,0.0
10.056,0.618,-0.89,0.0
9.521,0.585,-0.898,0.0
9.059,0.557,-0.908,0.0
8.646,0.531,-0.917,0.0
8.302,0.51,-0.929,0.0
10.385,0.635,-0.873,0.0
9.899,0.605,-0.89,0.0
9.384,0.573,-0.898,0.0
8.976,0.548,-0.912,0.0
8.593,0.525,-0.923,0.0
8.195,0.5,-0.928,0.0
10.283,0.625,-0.878,0.0
9.803,0.595,-0.894,0.0
9.375,0.569,-0.909,0.0
8.876,0.538,-0.913,0.0
8.508,0.516,-0.924,0.0
8.122,0.492,-0.93,0.0
10.153,0.612,-0.88,0.0
9.709,0.585,-0.897,0.0
9.281,0.559,-0.912,0.0
8.786,0.529,-0.915,0.0
8.415,0.506,-0.925,0.0
8.044,0.484,-0.931,0.0
