X,Y,Z,Reflectivity
40.471,1.164,4.91,16.0
40.525,1.172,4.685,27.0
40.675,1.182,4.471,32.0
40.921,1.203,5.658,38.0
41.302,1.221,5.473,17.0
40.534,1.203,5.139,39.0
40.71,1.215,4.924,26.0
40.667,1.22,4.686,42.0
40.602,1.223,4.448,35.0
40.834,1.244,5.629,44.0
40.905,1.252,5.404,16.0
41.102,1.264,5.193,36.0
40.993,1.267,4.941,16.0
40.622,1.261,4.664,39.0
40.711,1.269,4.442,32.0
41.28,1.301,5.672,32.0
40.638,1.287,5.35,34.0
41.113,1.308,5.176,29.0
40.807,1.303,4.899,20.0
40.644,1.304,4.647,31.0
40.692,1.311,4.421,39.0
41.542,1.353,5.688,38.0
40.587,1.327,5.323,45.0
41.103,1.35,5.154,29.0
40.658,1.34,4.861,36.0
41.473,1.373,4.721,26.0
40.699,1.353,4.4,34.0
41.537,1.396,5.665,23.0
40.655,1.371,5.31,39.0
41.342,1.4,5.161,38.0
41.109,1.397,4.892,31.0
41.628,1.42,4.715,49.0
40.871,1.4,4.396,16.0
44.243,1.531,6.008,7.0
40.785,1.416,5.303,32.0
41.304,1.439,5.132,18.0
41.176,1.44,4.875,22.0
41.377,1.453,4.662,21.0
40.595,1.43,4.341,42.0
40.952,1.458,5.535,28.0
40.976,1.464,5.302,17.0
41.019,1.47,5.071,28.0
41.115,1.479,4.842,24.0
40.862,1.475,4.577,30.0
40.578,1.47,4.313,43.0
40.969,1.499,5.51,12.0
40.993,1.504,5.276,16.0
40.873,1.505,5.025,32.0
41.104,1.518,4.812,32.0
40.694,1.507,4.53,31.0
40.519,1.506,4.279,41.0
40.926,1.536,5.476,39.0
41.134,1.548,5.265,18.0
40.954,1.546,5.006,21.0
56.742,2.148,6.603,8.0
40.657,1.544,4.497,46.0
40.581,1.546,4.256,38.0
40.891,1.573,5.44,42.0
40.821,1.575,5.194,16.0
40.926,1.583,4.971,35.0
42.597,1.653,4.924,27.0
40.658,1.582,4.465,22.0
40.548,1.582,4.221,38.0
40.991,1.614,5.421,40.0
40.916,1.615,5.174,31.0
40.909,1.619,4.936,29.0
42.565,1.689,4.886,32.0
40.647,1.617,4.431,38.0
40.531,1.617,4.186,39.0
41.149,1.657,5.408,16.0
41.052,1.656,5.157,16.0
60.744,2.458,7.279,7.0
45.286,1.836,5.16,14.0
40.537,1.648,4.385,40.0
40.579,1.654,4.156,31.0
40.942,1.684,5.345,13.0
41.697,1.719,5.201,16.0
44.272,1.829,5.266,18.0
40.711,1.685,4.603,12.0
40.542,1.683,4.35,37.0
40.974,1.704,4.16,16.0
46.019,1.931,5.965,8.0
41.515,1.746,5.14,4.0
41.666,1.756,4.918,3.0
40.65,1.716,4.558,35.0
40.617,1.719,4.32,36.0
41.413,1.756,4.167,16.0
45.674,1.954,5.877,20.0
41.612,1.783,5.113,7.0
41.77,1.794,4.89,16.0
40.71,1.751,4.526,41.0
40.598,1.75,4.279,37.0
41.348,1.786,4.12,16.0
45.209,1.969,5.773,13.0
41.655,1.818,5.077,36.0
45.243,1.978,5.251,8.0
40.62,1.779,4.475,43.0
41.073,1.802,4.288,35.0
40.987,1.802,4.043,36.0
41.45,1.838,5.25,25.0
41.687,1.851,5.037,33.0
47.689,2.121,5.486,2.0
45.087,2.008,4.921,5.0
41.322,1.844,4.271,36.0
40.777,1.823,3.979,41.0
41.489,1.87,5.211,30.0
41.633,1.879,4.986,40.0
47.702,2.156,5.436,3.0
40.782,1.846,4.407,23.0
41.034,1.86,4.197,38.0
40.705,1.848,3.928,38.0
41.486,1.899,5.164,41.0
41.66,1.909,4.944,43.0
40.854,1.875,4.611,13.0
40.787,1.874,4.362,26.0
41.059,1.889,4.154,31.0
40.708,1.876,3.883,37.0
41.876,1.945,5.165,36.0
41.778,1.943,4.91,36.0
45.625,2.125,5.097,7.0
40.817,1.903,4.319,36.0
40.893,1.909,4.09,44.0
40.795,1.907,3.845,33.0
41.59,1.959,5.081,37.0
41.825,1.972,4.866,35.0
45.55,2.15,5.035,4.0
40.975,1.936,4.287,33.0
40.889,1.934,4.041,30.0
40.455,1.916,3.764,35.0
41.579,1.984,5.03,40.0
41.922,2.002,4.827,35.0
45.044,2.153,4.924,4.0
40.927,1.958,4.232,32.0
40.845,1.956,3.988,35.0
40.395,1.936,3.71,39.0
41.594,2.009,4.98,42.0
42.052,2.033,4.79,33.0
40.817,1.974,4.411,28.0
41.11,1.99,4.2,38.0
41.123,1.993,3.963,16.0
40.364,1.958,3.657,33.0
51.751,-4.508,0.031,6.0
43.708,-3.822,-0.211,18.0
29.964,-2.629,-0.307,0.0
28.839,-2.54,-0.456,25.0
24.099,-2.131,-0.512,23.0
21.591,-1.916,-0.576,3.0
55.298,-4.909,0.063,4.0
44.239,-3.941,-0.189,19.0
30.016,-2.683,-0.291,1.0
29.164,-2.617,-0.444,21.0
23.114,-2.081,-0.478,15.0
22.08,-1.995,-0.576,4.0
55.37,-5.005,0.096,2.0
44.891,-4.071,-0.165,19.0
0.0,0.0,0.0,0.0
29.442,-2.689,-0.431,24.0
23.491,-2.153,-0.471,1.0
21.849,-2.009,-0.557,16.0
59.139,-5.439,0.139,3.0
0.0,0.0,0.0,0.0
37.918,-3.51,-0.321,14.0
29.644,-2.753,-0.415,16.0
23.581,-2.198,-0.458,4.0
21.697,-2.029,-0.539,20.0
67.345,-6.299,0.202,1.0
46.507,-4.363,-0.112,21.0
37.787,-3.556,-0.296,14.0
29.766,-2.81,-0.397,4.0
23.579,-2.233,-0.443,4.0
21.659,-2.058,-0.524,19.0
71.737,-6.819,0.263,4.0
47.139,-4.494,-0.082,21.0
38.552,-3.687,-0.276,14.0
30.055,-2.883,-0.38,3.0
23.583,-2.269,-0.426,1.0
22.022,-2.126,-0.517,21.0
79.606,-7.687,0.348,9.0
47.892,-4.637,-0.049,23.0
39.112,-3.798,-0.252,15.0
30.332,-2.955,-0.362,16.0
23.603,-2.306,-0.409,0.0
22.33,-2.188,-0.508,19.0
80.03,-7.844,0.408,11.0
48.139,-4.731,-0.014,22.0
0.0,0.0,0.0,0.0
35.129,-3.473,-0.393,4.0
23.62,-2.342,-0.392,0.0
22.83,-2.27,-0.502,21.0
80.121,-7.968,0.47,4.0
48.556,-4.842,0.022,13.0
41.313,-4.131,-0.203,16.0
35.187,-3.528,-0.367,12.0
29.64,-2.98,-0.469,1.0
22.974,-2.316,-0.488,19.0
83.796,-8.449,0.557,7.0
51.229,-5.179,0.063,5.0
42.435,-4.301,-0.175,17.0
0.0,0.0,0.0,0.0
29.608,-3.017,-0.445,6.0
23.337,-2.385,-0.477,22.0
87.008,-8.891,0.649,7.0
51.064,-5.232,0.105,9.0
43.651,-4.483,-0.145,18.0
33.092,-3.408,-0.292,51.0
29.591,-3.055,-0.42,18.0
23.503,-2.433,-0.46,14.0
86.966,-9.003,0.721,5.0
33.132,-3.438,0.096,20.0
33.108,-3.444,-0.082,67.0
33.09,-3.451,-0.264,70.0
29.62,-3.096,-0.395,27.0
23.534,-2.467,-0.441,1.0
33.138,-3.473,0.303,73.0
33.122,-3.479,0.125,73.0
33.1,-3.485,-0.053,82.0
33.082,-3.491,-0.235,80.0
30.148,-3.189,-0.376,25.0
25.632,-2.718,-0.458,0.0
33.113,-3.512,0.332,86.0
33.108,-3.519,0.154,80.0
33.092,-3.525,-0.023,81.0
33.077,-3.532,-0.205,54.0
30.639,-3.279,-0.355,15.0
24.794,-2.659,-0.421,18.0
33.118,-3.552,0.362,82.0
33.118,-3.559,0.184,76.0
33.12,-3.567,0.005,46.0
38.69,-4.177,-0.205,10.0
31.803,-3.441,-0.339,15.0
25.272,-2.74,-0.405,15.0
33.136,-3.593,0.393,48.0
33.146,-3.601,0.215,27.0
48.458,-5.276,0.053,17.0
0.0,0.0,0.0,0.0
35.483,-3.88,-0.345,2.0
0.0,0.0,0.0,0.0
70.192,-6.496,5.049,45.0
33.186,-3.061,2.202,2.0
70.012,-6.436,4.257,12.0
70.388,-6.448,3.882,14.0
71.382,-6.518,3.541,12.0
71.261,-6.486,3.14,18.0
70.473,-6.417,5.084,33.0
70.708,-6.417,4.707,11.0
71.297,-6.448,4.349,9.0
71.012,-6.401,3.93,37.0
71.399,-6.414,3.555,16.0
72.84,-6.521,3.222,5.0
70.301,-6.297,5.083,40.0
70.689,-6.309,4.717,12.0
71.125,-6.326,4.349,20.0
70.745,-6.27,3.925,34.0
67.971,-6.004,3.393,50.0
67.983,-5.984,3.016,54.0
69.895,-6.156,5.062,10.0
70.575,-6.192,4.717,24.0
71.536,-6.254,4.382,19.0
70.675,-6.156,3.929,26.0
67.964,-5.899,3.4,56.0
67.979,-5.88,3.022,51.0
70.301,-6.082,5.097,28.0
70.444,-6.072,4.714,33.0
71.546,-6.145,4.388,17.0
70.753,-6.054,3.937,44.0
67.953,-5.793,3.403,57.0
67.961,-5.772,3.025,46.0
70.489,-5.989,5.114,12.0
70.138,-5.937,4.697,31.0
71.593,-6.036,4.394,16.0
71.427,-6.0,3.977,29.0
67.947,-5.687,3.404,57.0
67.954,-5.666,3.026,55.0
70.486,-5.878,5.115,27.0
70.124,-5.825,4.696,41.0
71.772,-5.939,4.404,22.0
71.437,-5.888,3.977,17.0
67.939,-5.579,3.403,52.0
67.943,-5.558,3.024,47.0
70.788,-5.791,5.134,8.0
71.022,-5.786,4.752,10.0
71.926,-5.836,4.41,17.0
71.635,-5.789,3.984,14.0
71.242,-5.735,3.564,34.0
71.254,-5.714,3.166,29.0
70.713,-5.671,5.124,31.0
70.997,-5.67,4.745,6.0
71.667,-5.699,4.388,19.0
71.375,-5.653,3.962,10.0
71.112,-5.61,3.55,19.0
67.932,-5.337,3.011,40.0
70.836,-5.564,5.124,15.0
67.978,-5.317,4.535,47.0
67.956,-5.293,4.152,83.0
67.938,-5.269,3.763,86.0
67.941,-5.247,3.382,63.0
67.945,-5.227,3.001,22.0
67.986,-5.228,4.908,22.0
71.114,-5.446,4.733,30.0
72.338,-5.516,4.407,15.0
71.319,-5.415,3.938,9.0
67.911,-5.134,3.368,48.0
67.927,-5.113,2.988,63.0
77.806,-5.855,5.6,14.0
71.899,-5.386,4.77,20.0
75.391,-5.624,4.577,6.0
71.432,-5.305,3.928,26.0
67.902,-5.021,3.353,65.0
67.913,-5.001,2.972,70.0
75.89,-5.585,5.444,7.0
78.581,-5.756,5.194,6.0
71.425,-5.208,4.319,8.0
71.198,-5.168,3.897,26.0
67.906,-4.908,3.334,64.0
67.913,-4.887,2.954,60.0
76.236,-5.482,5.448,11.0
76.606,-5.484,5.041,6.0
71.445,-5.09,4.298,16.0
71.53,-5.073,3.894,40.0
67.886,-4.793,3.313,59.0
67.898,-4.772,2.931,61.0
72.06,-5.061,5.126,8.0
71.612,-5.005,4.689,30.0
71.673,-4.986,4.288,16.0
70.461,-4.879,3.811,17.0
70.898,-4.886,3.435,14.0
72.425,-4.968,3.101,12.0
72.187,-4.947,5.108,6.0
71.633,-4.885,4.663,23.0
71.301,-4.839,4.239,38.0
70.503,-4.762,3.786,35.0
70.85,-4.762,3.405,10.0
70.612,-4.723,2.995,17.0
71.986,-4.81,5.065,14.0
71.742,-4.77,4.641,23.0
71.052,-4.701,4.195,24.0
70.517,-4.643,3.757,36.0
70.831,-4.641,3.373,29.0
72.099,-4.701,3.027,10.0
71.828,-4.678,5.022,14.0
71.54,-4.636,4.595,14.0
75.385,-4.86,4.415,14.0
70.434,-4.518,3.72,21.0
70.918,-4.526,3.344,11.0
20.053,-1.273,0.832,2.0
71.695,-4.547,4.977,13.0
71.495,-4.51,4.557,23.0
71.265,-4.473,4.138,29.0
71.029,-4.435,3.714,13.0
20.036,-1.244,0.934,2.0
20.037,-1.238,0.821,9.0
58.829,-3.629,4.052,26.0
58.862,-3.612,3.719,22.0
71.153,-4.343,4.093,38.0
19.967,-1.212,1.033,16.0
19.986,-1.207,0.921,20.0
20.018,-1.203,0.809,18.0
58.888,-3.533,4.022,29.0
70.983,-4.235,4.445,22.0
71.329,-4.233,4.061,19.0
19.987,-1.179,1.022,25.0
19.973,-1.172,0.908,25.0
20.025,-1.169,0.797,25.0
59.176,-3.448,4.006,22.0
58.849,-3.409,3.648,27.0
19.984,-1.151,1.125,2.0
19.957,-1.143,1.008,23.0
19.983,-1.138,0.896,24.0
20.011,-1.133,0.783,21.0
58.667,-3.317,3.932,28.0
58.692,-3.299,3.599,32.0
19.973,-1.116,1.111,3.0
19.933,-1.107,0.993,18.0
19.987,-1.104,0.882,15.0
20.014,-1.1,0.77,14.0
58.307,-3.197,3.867,28.0
58.638,-3.196,3.554,32.0
20.008,-1.084,1.099,4.0
19.961,-1.075,0.98,19.0
83.838,-4.491,3.643,11.0
20.016,-1.066,0.756,13.0
58.358,-3.1,3.827,31.0
58.43,-3.086,3.499,32.0
73.302,-3.848,3.971,7.0
71.109,-3.71,3.44,30.0
83.609,-4.337,3.57,43.0
20.023,-1.032,0.741,11.0
58.662,-3.016,3.802,33.0
58.473,-2.987,3.455,32.0
73.456,-3.73,3.922,14.0
73.569,-3.713,3.501,28.0
73.393,-3.681,3.074,38.0
20.086,-1.001,0.726,13.0
58.669,-2.915,3.754,33.0
58.33,-2.88,3.398,26.0
73.43,-3.603,3.859,18.0
83.415,-4.068,3.9,26.0
84.965,-4.117,3.487,38.0
20.082,-0.967,0.709,18.0
58.226,-2.794,3.675,26.0
58.509,-2.789,3.358,32.0
79.554,-3.769,4.111,20.0
83.367,-3.924,3.824,27.0
94.593,-4.424,3.799,29.0
20.096,-0.933,0.692,18.0
58.523,-2.71,3.642,26.0
79.081,-3.637,4.468,20.0
80.69,-3.687,4.097,17.0
94.303,-4.281,4.24,11.0
95.086,-4.288,3.732,26.0
20.143,-0.902,0.675,1.0
58.309,-2.601,3.574,16.0
67.186,-2.977,3.732,23.0
80.823,-3.557,4.027,42.0
94.458,-4.128,4.156,18.0
104.226,-4.523,3.989,18.0
117.307,-5.056,3.821,7.0
0.0,0.0,0.0,0.0
59.874,-2.551,3.266,29.0
80.95,-3.425,3.952,33.0
100.172,-4.208,4.307,12.0
104.107,-4.342,3.88,22.0
193.771,-8.027,6.114,22.0
59.697,-2.462,3.538,26.0
59.885,-2.451,3.205,24.0
81.199,-3.3,3.88,33.0
97.189,-3.921,4.077,12.0
104.197,-4.174,3.776,10.0
193.851,-7.711,5.916,21.0
59.672,-2.361,3.473,28.0
66.293,-2.604,3.478,12.0
94.199,-3.672,4.401,14.0
103.706,-4.012,4.24,25.0
0.0,0.0,0.0,0.0
193.334,-7.37,5.691,22.0
59.69,-2.263,3.409,28.0
81.059,-3.051,4.164,16.0
94.291,-3.522,4.302,16.0
103.872,-3.848,4.132,21.0
194.709,-7.16,6.63,22.0
192.962,-7.041,5.464,21.0
66.413,-2.409,3.717,32.0
81.282,-2.925,4.082,28.0
94.255,-3.366,4.192,25.0
101.246,-3.586,3.911,14.0
193.856,-6.813,6.376,27.0
193.206,-6.738,5.249,18.0
66.327,-2.298,3.635,40.0
81.198,-2.79,3.982,22.0
94.329,-3.216,4.085,8.0
101.316,-3.426,3.795,20.0
194.817,-6.533,6.177,17.0
194.03,-6.452,5.037,24.0
71.782,-2.371,3.847,18.0
94.305,-3.088,4.51,16.0
101.111,-3.283,4.254,18.0
101.776,-3.276,3.686,13.0
194.597,-6.211,5.93,10.0
193.978,-6.137,4.796,21.0
80.353,-2.525,4.205,23.0
81.302,-2.532,3.786,33.0
101.335,-3.128,4.136,14.0
105.934,-3.241,3.703,19.0
194.085,-5.886,5.668,16.0
194.53,-5.847,4.564,19.0
80.655,-2.406,4.117,22.0
81.335,-2.404,3.683,38.0
106.1,-3.107,4.192,11.0
120.268,-3.489,4.048,23.0
194.274,-5.584,5.42,14.0
195.199,-5.56,4.323,12.0
81.513,-2.303,4.052,26.0
94.853,-2.654,4.168,17.0
106.032,-2.939,4.049,11.0
120.68,-3.314,3.901,25.0
207.242,-5.636,5.506,6.0
0.0,0.0,0.0,0.0
81.403,-2.174,3.937,22.0
101.799,-2.692,4.337,12.0
106.116,-2.778,3.908,11.0
120.868,-3.133,3.742,19.0
118.122,-3.031,2.976,15.0
193.352,-4.913,3.76,16.0
81.868,-2.061,3.846,9.0
96.637,-2.408,3.983,17.0
113.21,-2.793,4.013,15.0
118.072,-2.882,3.491,3.0
118.07,-2.851,2.81,20.0
193.021,-4.614,3.483,25.0
81.119,-1.92,3.697,11.0
96.636,-2.262,3.845,8.0
112.954,-2.618,3.844,19.0
112.885,-2.587,3.178,3.0
206.535,-4.681,4.621,6.0
193.022,-4.327,3.207,16.0
95.951,-2.128,4.233,17.0
106.407,-2.333,4.079,18.0
112.738,-2.443,3.669,26.0
112.89,-2.42,3.012,2.0
193.843,-4.106,4.053,20.0
138.876,-2.907,2.101,8.0
95.503,-1.978,4.072,8.0
112.985,-2.311,4.163,12.0
112.889,-2.281,3.506,25.0
112.988,-2.256,2.845,9.0
193.313,-3.815,3.753,24.0
138.962,-2.708,1.894,2.0
106.744,-2.056,4.388,19.0
112.65,-2.142,3.98,25.0
112.936,-2.121,3.336,20.0
205.88,-3.816,4.87,18.0
193.52,-3.543,3.462,21.0
0.0,0.0,0.0,0.0
106.531,-1.9,4.215,9.0
112.799,-1.984,3.809,11.0
112.567,-1.954,3.15,19.0
205.952,-3.527,4.552,8.0
193.692,-3.271,3.16,8.0
139.086,-2.318,1.467,9.0
112.777,-1.854,4.285,7.0
212.076,-3.438,6.83,7.0
112.972,-1.803,2.982,18.0
194.609,-3.063,3.994,18.0
139.089,-2.158,2.05,7.0
138.815,-2.122,1.242,19.0
190.568,-2.869,6.934,22.0
0.0,0.0,0.0,0.0
206.099,-3.009,5.11,12.0
0.0,0.0,0.0,0.0
139.069,-1.967,1.823,2.0
139.05,-1.935,1.017,15.0
210.402,-2.883,7.31,8.0
0.0,0.0,0.0,0.0
210.658,-2.793,4.878,6.0
204.248,-2.662,3.525,21.0
139.393,-1.787,1.6,5.0
0.0,0.0,0.0,0.0
0.0,0.0,0.0,0.0
209.153,-2.545,5.709,7.0
210.599,-2.517,4.528,6.0
139.005,-1.631,2.168,4.0
139.272,-1.603,1.365,20.0
0.0,0.0,0.0,0.0
211.081,-2.34,6.628,15.0
119.729,-1.302,3.066,35.0
119.736,-1.277,2.372,150.0
119.758,-1.253,1.668,151.0
119.765,-1.228,0.974,120.0
0.0,0.0,0.0,0.0
119.725,-1.176,3.556,44.0
119.725,-1.152,2.862,127.0
119.73,-1.126,2.167,96.0
119.673,-1.101,1.46,20.0
114.329,-1.029,0.732,8.0
0.0,0.0,0.0,0.0
119.722,-1.026,3.347,88.0
119.74,-1.002,2.652,81.0
119.75,-0.979,1.959,53.0
119.673,-0.953,1.249,19.0
111.372,-0.865,0.517,5.0
0.0,0.0,0.0,0.0
119.748,-0.881,3.137,12.0
119.81,-0.858,2.443,108.0
119.805,-0.834,1.746,12.0
119.698,-0.81,1.038,13.0
0.0,0.0,0.0,0.0
0.0,0.0,0.0,0.0
119.788,-0.739,2.922,9.0
119.83,-0.714,2.225,104.0
119.722,-0.692,1.529,14.0
114.189,-0.638,0.784,7.0
0.0,0.0,0.0,0.0
0.0,0.0,0.0,0.0
119.809,-0.6,2.705,21.0
113.652,-0.548,1.906,2.0
119.678,-0.555,1.313,17.0
110.952,-0.494,0.561,2.0
0.0,0.0,0.0,0.0
0.0,0.0,0.0,0.0
119.941,-0.467,2.49,2.0
112.397,-0.418,1.681,16.0
119.727,-0.423,1.095,9.0
102.03,-0.342,0.33,1.0
0.0,0.0,0.0,0.0
45.147,-0.135,-0.378,1.0
112.62,-0.316,2.13,4.0
119.71,-0.315,1.568,19.0
110.96,-0.271,0.808,13.0
0.0,0.0,0.0,0.0
0.0,0.0,0.0,0.0
0.0,0.0,0.0,0.0
117.413,-0.206,2.003,21.0
117.39,-0.185,1.319,17.0
110.568,-0.155,0.598,2.0
0.0,0.0,0.0,0.0
0.0,0.0,0.0,0.0
0.0,0.0,0.0,0.0
117.324,-0.083,1.776,11.0
111.129,-0.061,1.037,6.0
95.576,-0.036,0.335,2.0
0.0,0.0,0.0,0.0
45.539,-0.002,-0.374,2.0
36.551,0.004,-0.513,0.0
111.147,0.03,1.471,18.0
110.747,0.048,0.822,9.0
0.0,0.0,0.0,0.0
0.0,0.0,0.0,0.0
42.87,0.039,-0.434,1.0
34.594,0.037,-0.551,0.0
111.191,0.136,1.26,20.0
103.486,0.144,0.569,4.0
0.0,0.0,0.0,0.0
49.709,0.084,-0.309,0.0
0.0,0.0,0.0,0.0
31.777,0.063,-0.567,0.0
0.0,0.0,0.0,0.0
92.485,0.213,0.33,1.0
0.0,0.0,0.0,0.0
44.757,0.116,-0.365,0.0
0.0,0.0,0.0,0.0
29.826,0.086,-0.591,0.0
110.77,0.337,0.824,6.0
0.0,0.0,0.0,0.0
0.0,0.0,0.0,0.0
42.846,0.149,-0.434,1.0
33.752,0.122,-0.538,0.0
0.0,0.0,0.0,0.0
104.135,0.406,0.569,2.0
70.692,0.286,-0.024,0.0
48.806,0.204,-0.301,0.0
39.239,0.17,-0.475,0.0
0.0,0.0,0.0,0.0
0.0,0.0,0.0,0.0
88.349,0.417,0.308,3.0
0.0,0.0,0.0,0.0
45.62,0.228,-0.372,1.0
0.0,0.0,0.0,0.0
30.537,0.161,-0.608,0.0
26.008,0.14,-0.67,0.0
86.983,0.48,0.129,1.0
0.0,0.0,0.0,0.0
42.764,0.247,-0.434,1.0
0.0,0.0,0.0,0.0
28.143,0.17,-0.617,0.0
24.412,0.15,-0.678,0.0
0.0,0.0,0.0,0.0
48.625,0.311,-0.309,0.0
39.839,0.26,-0.485,0.0
0.0,0.0,0.0,0.0
26.665,0.18,-0.638,0.0
23.25,0.16,-0.692,0.0
0.0,0.0,0.0,0.0
0.0,0.0,0.0,0.0
35.638,0.257,-0.506,0.0
0.0,0.0,0.0,0.0
0.0,0.0,0.0,0.0
22.226,0.168,-0.707,0.0
0.0,0.0,0.0,0.0
42.538,0.331,-0.442,0.0
33.192,0.262,-0.539,0.0
27.764,0.222,-0.615,0.0
24.124,0.196,-0.675,0.0
21.153,0.174,-0.716,0.0
48.696,0.404,-0.321,0.0
38.604,0.324,-0.479,0.0
31.42,0.267,-0.573,0.0
26.516,0.229,-0.641,0.0
22.96,0.2,-0.689,0.0
20.39,0.18,-0.731,0.0
42.969,0.382,-0.371,0.0
35.56,0.32,-0.514,0.0
29.733,0.271,-0.604,0.0
24.904,0.229,-0.653,0.0
22.008,0.205,-0.706,0.0
19.563,0.184,-0.742,0.0
41.148,0.389,-0.439,0.0
33.121,0.317,-0.547,0.0
27.619,0.267,-0.617,0.0
24.052,0.235,-0.68,0.0
20.954,0.206,-0.715,0.0
18.766,0.187,-0.75,0.0
0.0,0.0,0.0,0.0
30.906,0.312,-0.573,0.0
26.325,0.268,-0.642,0.0
22.817,0.234,-0.692,0.0
20.187,0.209,-0.73,0.0
18.123,0.189,-0.761,0.0
0.0,0.0,0.0,0.0
29.22,0.309,-0.602,0.0
25.102,0.267,-0.664,0.0
21.891,0.235,-0.709,0.0
19.512,0.211,-0.745,0.0
17.572,0.192,-0.774,0.0
32.467,0.355,-0.546,0.0
27.164,0.299,-0.615,0.0
23.713,0.263,-0.675,0.0
20.897,0.233,-0.719,0.0
18.635,0.21,-0.75,0.0
16.941,0.192,-0.781,0.0
30.55,0.346,-0.576,0.0
26.327,0.301,-0.65,0.0
22.7,0.261,-0.693,0.0
20.1,0.232,-0.733,0.0
18.05,0.21,-0.764,0.0
16.476,0.193,-0.794,0.0
28.974,0.34,-0.607,0.0
0.0,0.0,0.0,0.0
21.599,0.256,-0.704,0.0
19.19,0.229,-0.74,0.0
17.445,0.209,-0.775,0.0
15.925,0.192,-0.8,0.0
26.84,0.324,-0.618,0.0
23.501,0.285,-0.678,0.0
20.804,0.253,-0.721,0.0
18.447,0.226,-0.749,0.0
16.831,0.207,-0.782,0.0
15.368,0.19,-0.804,0.0
25.918,0.32,-0.649,0.0
22.481,0.279,-0.694,0.0
19.884,0.248,-0.73,0.0
17.875,0.224,-0.763,0.0
16.388,0.206,-0.795,0.0
15.013,0.19,-0.816,0.0
24.415,0.308,-0.662,0.0
21.422,0.271,-0.706,0.0
19.147,0.244,-0.743,0.0
17.37,0.222,-0.777,0.0
15.792,0.202,-0.799,0.0
14.591,0.188,-0.824,0.0
23.477,0.301,-0.685,0.0
20.388,0.262,-0.713,0.0
18.351,0.237,-0.749,0.0
16.747,0.217,-0.783,0.0
15.353,0.2,-0.808,0.0
14.175,0.185,-0.829,0.0
22.294,0.29,-0.696,0.0
19.802,0.258,-0.733,0.0
17.978,0.235,-0.771,0.0
16.329,0.215,-0.797,0.0
14.833,0.196,-0.811,0.0
13.743,0.182,-0.832,0.0
21.317,0.28,-0.708,0.0
18.989,0.25,-0.742,0.0
17.2,0.228,-0.772,0.0
15.668,0.208,-0.797,0.0
14.543,0.193,-0.825,0.0
13.455,0.179,-0.842,0.0
20.44,0.271,-0.72,0.0
18.305,0.243,-0.752,0.0
16.724,0.223,-0.785,0.0
15.185,0.203,-0.803,0.0
14.126,0.189,-0.829,0.0
13.089,0.176,-0.845,0.0
19.647,0.262,-0.732,0.0
17.814,0.238,-0.768,0.0
16.133,0.216,-0.789,0.0
14.827,0.199,-0.814,0.0
13.719,0.184,-0.833,0.0
12.669,0.17,-0.844,0.0
18.976,0.253,-0.745,0.0
17.195,0.23,-0.775,0.0
15.599,0.209,-0.794,0.0
14.513,0.195,-0.825,0.0
13.409,0.18,-0.841,0.0
12.334,0.166,-0.846,0.0
18.282,0.244,-0.754,1.0
16.67,0.223,-0.784,0.0
15.191,0.203,-0.804,0.0
14.028,0.188,-0.826,0.0
13.06,0.175,-0.845,0.0
11.994,0.161,-0.846,0.0
17.787,0.236,-0.769,0.0
16.207,0.215,-0.795,0.0
14.816,0.197,-0.813,0.0
13.711,0.183,-0.834,0.0
12.679,0.169,-0.845,0.0
11.69,0.156,-0.848,0.0
17.111,0.226,-0.772,0.0
15.653,0.207,-0.798,0.0
14.457,0.191,-0.821,0.0
13.371,0.177,-0.839,0.0
12.316,0.163,-0.845,0.0
11.46,0.152,-0.854,0.0
16.623,0.217,-0.783,0.0
15.229,0.199,-0.806,0.0
14.067,0.184,-0.827,0.0
13.011,0.17,-0.842,0.0
11.985,0.157,-0.846,0.0
11.292,0.148,-0.863,0.0
16.067,0.207,-0.788,0.0
14.769,0.191,-0.811,0.0
13.657,0.176,-0.83,0.0
12.601,0.163,-0.84,0.0
11.678,0.151,-0.847,0.0
11.126,0.143,-0.872,0.0
15.589,0.198,-0.795,0.0
14.404,0.183,-0.819,0.0
13.375,0.17,-0.838,0.0
12.315,0.156,-0.845,0.0
11.435,0.145,-0.852,0.0
10.806,0.137,-0.868,0.0
15.217,0.19,-0.805,0.0
14.043,0.175,-0.825,0.0
13.055,0.163,-0.843,0.0
11.97,0.149,-0.844,0.0
11.293,0.14,-0.863,0.0
10.629,0.132,-0.874,0.0
14.765,0.18,-0.809,0.0
13.655,0.166,-0.828,0.0
12.728,0.155,-0.846,0.0
11.698,0.142,-0.847,0.0
11.072,0.134,-0.867,0.0
10.406,0.126,-0.876,0.0
14.401,0.172,-0.816,0.0
13.424,0.16,-0.839,0.0
12.334,0.146,-0.843,0.0
11.462,0.136,-0.851,0.0
10.812,0.128,-0.867,0.0
10.261,0.121,-0.883,0.0
14.107,0.163,-0.825,0.0
13.043,0.151,-0.839,0.0
11.969,0.138,-0.84,0.0
11.317,0.13,-0.861,0.0
10.64,0.122,-0.872,0.0
10.125,0.116,-0.889,0.0
13.764,0.154,-0.83,0.0
12.702,0.142,-0.84,0.0
11.719,0.13,-0.844,0.0
11.115,0.123,-0.866,0.0
10.443,0.115,-0.875,0.0
9.939,0.109,-0.891,0.0
13.451,0.145,-0.836,0.0
12.397,0.133,-0.842,0.0
11.526,0.123,-0.851,0.0
10.847,0.116,-0.865,0.0
10.292,0.109,-0.881,0.0
9.803,0.104,-0.897,0.0
13.148,0.136,-0.84,0.0
12.099,0.125,-0.844,0.0
11.335,0.116,-0.857,0.0
10.68,0.109,-0.871,0.0
10.195,0.103,-0.891,0.0
9.672,0.098,-0.902,0.0
12.91,0.127,-0.848,0.0
11.785,0.116,-0.843,0.0
11.197,0.109,-0.866,0.0
10.478,0.102,-0.873,0.0
9.976,0.096,-0.889,0.0
9.486,0.091,-0.901,0.0
12.433,0.116,-0.838,0.0
11.58,0.108,-0.848,0.0
10.955,0.101,-0.866,0.0
10.306,0.095,-0.876,0.0
9.883,0.09,-0.898,0.0
9.376,0.085,-0.907,0.0
12.216,0.108,-0.844,0.0
11.376,0.099,-0.852,0.0
10.726,0.093,-0.866,0.0
10.183,0.088,-0.883,0.0
9.713,0.083,-0.899,0.0
9.227,0.078,-0.908,0.0
11.88,0.098,-0.841,0.0
11.259,0.092,-0.862,0.0
10.58,0.086,-0.872,0.0
10.024,0.081,-0.886,0.0
9.543,0.076,-0.899,0.0
9.097,0.072,-0.91,0.0
11.657,0.089,-0.844,0.0
11.046,0.084,-0.864,0.0
10.374,0.078,-0.872,0.0
9.906,0.073,-0.892,0.0
9.401,0.069,-0.901,0.0
8.981,0.065,-0.914,0.0
11.465,0.08,-0.849,0.0
10.836,0.075,-0.865,0.0
10.264,0.07,-0.879,0.0
9.742,0.066,-0.893,0.0
9.349,0.062,-0.911,0.0
8.847,0.058,-0.914,0.0
11.356,0.072,-0.859,0.0
10.691,0.067,-0.871,0.0
10.153,0.063,-0.886,0.0
9.618,0.059,-0.897,0.0
9.153,0.055,-0.907,0.0
8.745,0.052,-0.918,0.0
11.15,0.063,-0.861,0.0
10.493,0.058,-0.871,0.0
10.002,0.055,-0.888,0.0
9.418,0.051,-0.893,0.0
9.046,0.048,-0.91,0.0
8.612,0.045,-0.917,0.0
10.961,0.054,-0.863,0.0
10.352,0.05,-0.875,0.0
9.881,0.047,-0.893,0.0
9.388,0.044,-0.904,0.0
8.972,0.041,-0.916,0.0
8.49,0.038,-0.917,0.0
10.783,0.045,-0.865,0.0
10.226,0.042,-0.88,0.0
9.764,0.039,-0.897,0.0
9.255,0.036,-0.905,0.0
8.865,0.033,-0.919,0.0
8.459,0.031,-0.926,0.0
10.629,0.036,-0.868,0.0
10.129,0.033,-0.886,0.0
9.632,0.031,-0.899,0.0
9.151,0.028,-0.908,0.0
8.75,0.026,-0.919,0.0
8.346,0.024,-0.926,0.0
10.466,0.027,-0.87,0.0
9.979,0.025,-0.887,0.0
9.51,0.022,-0.901,0.0
9.093,0.02,-0.915,0.0
8.571,0.018,-0.913,0.0
8.268,0.017,-0.929,0.0
10.349,0.018,-0.875,0.0
9.899,0.016,-0.894,0.0
9.33,0.014,-0.897,0.0
8.931,0.012,-0.911,0.0
8.511,0.011,-0.918,0.0
8.135,0.009,-0.925,0.0
10.247,0.009,-0.88,0.0
9.77,0.007,-0.896,0.0
9.264,0.006,-0.903,0.0
8.805,0.005,-0.911,0.0
8.492,0.003,-0.928,0.0
8.072,0.002,-0.929,0.0
10.135,0.0,-0.884,0.0
9.651,0.0,-0.898,0.0
9.155,-0.001,-0.905,0.0
0.0,0.0,0.0,0.0
8.374,-0.003,-0.926,0.0
7.99,-0.004,-0.93,0.0
10.002,-0.008,-0.885,0.0
9.57,-0.009,-0.902,0.0
9.077,-0.01,-0.909,0.0
0.0,0.0,0.0,0.0
8.28,-0.011,-0.926,0.0
7.865,-0.011,-0.925,0.0
9.92,-0.017,-0.89,0.0
9.405,-0.017,-0.899,0.0
9.017,-0.018,-0.914,0.0
8.514,-0.018,-0.913,0.0
8.146,-0.018,-0.921,0.0
7.848,-0.019,-0.933,0.0
9.811,-0.026,-0.892,0.0
9.332,-0.026,-0.903,0.0
0.0,0.0,0.0,0.0
8.449,-0.026,-0.916,0.0
8.119,-0.026,-0.928,0.0
7.791,-0.026,-0.936,0.0
9.73,-0.035,-0.896,0.0
9.223,-0.035,-0.903,0.0
8.815,-0.034,-0.914,0.0
8.408,-0.034,-0.922,0.0
8.055,-0.034,-0.93,0.0
7.689,-0.033,-0.932,0.0
9.611,-0.044,-0.896,0.0
9.16,-0.044,-0.907,0.0
8.711,-0.043,-0.913,0.0
8.354,-0.042,-0.925,0.0
7.966,-0.041,-0.928,0.0
7.664,-0.041,-0.938,0.0
9.517,-0.054,-0.898,0.0
9.032,-0.052,-0.904,0.0
8.628,-0.051,-0.914,0.0
8.263,-0.05,-0.924,0.0
7.889,-0.049,-0.928,0.0
7.637,-0.049,-0.943,0.0
9.48,-0.063,-0.904,0.0
8.976,-0.061,-0.908,0.0
8.513,-0.059,-0.911,0.0
8.266,-0.059,-0.933,0.0
7.868,-0.057,-0.934,0.0
7.476,-0.055,-0.931,0.0
9.348,-0.072,-0.901,0.0
8.942,-0.07,-0.914,0.0
8.494,-0.068,-0.917,0.0
8.109,-0.066,-0.923,0.0
7.801,-0.065,-0.934,0.0
7.469,-0.064,-0.937,0.0
9.276,-0.081,-0.904,0.0
8.878,-0.079,-0.916,0.0
8.439,-0.077,-0.919,0.0
8.065,-0.075,-0.926,0.0
7.775,-0.073,-0.938,0.0
7.441,-0.071,-0.941,0.0
9.189,-0.091,-0.904,0.0
8.819,-0.088,-0.918,0.0
8.404,-0.085,-0.923,0.0
8.021,-0.083,-0.928,0.0
7.717,-0.081,-0.938,0.0
7.408,-0.079,-0.943,0.0
9.119,-0.1,-0.905,0.0
8.756,-0.097,-0.919,0.0
8.314,-0.094,-0.921,0.0
7.971,-0.091,-0.93,0.0
7.667,-0.089,-0.939,0.0
7.372,-0.087,-0.945,0.0
9.084,-0.109,-0.909,0.0
8.625,-0.105,-0.913,0.0
8.288,-0.103,-0.925,0.0
7.906,-0.099,-0.929,0.0
7.64,-0.097,-0.942,0.0
7.294,-0.094,-0.941,0.0
9.045,-0.119,-0.912,0.0
8.584,-0.114,-0.915,0.0
8.173,-0.11,-0.918,0.0
7.852,-0.107,-0.928,0.0
7.544,-0.105,-0.936,0.0
7.266,-0.102,-0.943,0.0
8.923,-0.127,-0.907,0.0
8.533,-0.123,-0.916,0.0
8.185,-0.12,-0.926,0.0
7.781,-0.115,-0.926,0.0
7.524,-0.113,-0.939,0.0
7.255,-0.11,-0.947,0.0
8.918,-0.138,-0.913,0.0
8.503,-0.133,-0.919,0.0
8.114,-0.128,-0.924,0.0
0.0,0.0,0.0,0.0
7.495,-0.121,-0.94,0.0
7.212,-0.118,-0.947,0.0
8.81,-0.146,-0.908,0.0
8.446,-0.142,-0.919,0.0
8.086,-0.137,-0.926,0.0
0.0,0.0,0.0,0.0
7.457,-0.129,-0.941,0.0
7.182,-0.126,-0.947,0.0
8.816,-0.156,-0.914,0.0
8.43,-0.151,-0.922,0.0
8.092,-0.147,-0.931,0.0
0.0,0.0,0.0,0.0
7.482,-0.138,-0.948,0.0
7.198,-0.134,-0.954,0.0
8.745,-0.165,-0.912,0.0
8.386,-0.16,-0.922,0.0
8.02,-0.155,-0.928,0.0
0.0,0.0,0.0,0.0
0.0,0.0,0.0,0.0
7.13,-0.142,-0.949,0.0
8.731,-0.175,-0.915,0.0
8.351,-0.169,-0.923,0.0
7.982,-0.163,-0.928,0.0
0.0,0.0,0.0,0.0
7.369,-0.154,-0.942,0.0
7.103,-0.15,-0.949,0.0
8.648,-0.184,-0.91,0.0
8.328,-0.179,-0.924,0.0
7.983,-0.173,-0.932,0.0
0.0,0.0,0.0,0.0
7.334,-0.162,-0.941,0.0
7.028,-0.156,-0.942,0.0
8.681,-0.195,-0.918,0.0
8.285,-0.188,-0.923,0.0
7.967,-0.182,-0.933,0.0
0.0,0.0,0.0,0.0
7.299,-0.17,-0.939,0.0
7.085,-0.166,-0.952,0.0
8.598,-0.203,-0.912,0.0
8.313,-0.198,-0.929,0.0
7.924,-0.19,-0.931,0.0
0.0,0.0,0.0,0.0
7.303,-0.178,-0.942,0.0
7.026,-0.173,-0.947,0.0
8.606,-0.213,-0.916,0.0
8.218,-0.206,-0.922,0.0
7.85,-0.198,-0.925,0.0
0.0,0.0,0.0,0.0
0.0,0.0,0.0,0.0
7.012,-0.181,-0.947,0.0
8.558,-0.223,-0.914,0.0
8.191,-0.215,-0.921,0.0
7.883,-0.208,-0.931,0.0
0.0,0.0,0.0,0.0
0.0,0.0,0.0,0.0
7.013,-0.19,-0.949,0.0
8.612,-0.234,-0.922,0.0
8.237,-0.226,-0.928,0.0
7.907,-0.218,-0.936,0.0
0.0,0.0,0.0,0.0
0.0,0.0,0.0,0.0
6.998,-0.198,-0.949,0.0
8.57,-0.243,-0.919,0.0
8.204,-0.234,-0.926,0.0
7.88,-0.227,-0.934,0.0
7.54,-0.219,-0.938,0.0
7.249,-0.212,-0.943,0.0
7.009,-0.206,-0.952,0.0
8.543,-0.252,-0.918,0.0
8.184,-0.244,-0.925,0.0
7.863,-0.236,-0.934,0.0
7.556,-0.228,-0.941,0.0
7.283,-0.221,-0.948,0.0
6.969,-0.213,-0.947,0.0
8.568,-0.263,-0.921,0.0
8.207,-0.254,-0.929,0.0
7.859,-0.245,-0.934,0.0
7.58,-0.238,-0.945,0.0
7.246,-0.229,-0.944,0.0
6.969,-0.222,-0.948,0.0
8.496,-0.271,-0.914,0.0
8.144,-0.261,-0.922,0.0
7.835,-0.253,-0.932,0.0
0.0,0.0,0.0,0.0
0.0,0.0,0.0,0.0
6.954,-0.229,-0.946,0.0
8.522,-0.282,-0.917,0.0
8.18,-0.272,-0.927,0.0
7.853,-0.263,-0.934,0.0
0.0,0.0,0.0,0.0
7.232,-0.245,-0.943,0.0
6.983,-0.238,-0.95,0.0
8.539,-0.292,-0.919,0.0
8.167,-0.281,-0.925,0.0
7.84,-0.272,-0.932,0.0
7.481,-0.261,-0.932,0.0
7.279,-0.255,-0.949,0.0
6.998,-0.247,-0.952,0.0
8.522,-0.301,-0.917,0.0
8.192,-0.291,-0.927,0.0
7.857,-0.281,-0.934,0.0
0.0,0.0,0.0,0.0
7.284,-0.264,-0.949,0.0
6.977,-0.254,-0.948,0.0
8.525,-0.311,-0.916,0.0
8.175,-0.3,-0.924,0.0
7.882,-0.291,-0.936,0.0
7.562,-0.281,-0.941,0.0
7.259,-0.271,-0.944,0.0
6.977,-0.262,-0.947,0.0
8.534,-0.321,-0.916,0.0
8.269,-0.313,-0.934,0.0
7.868,-0.299,-0.933,0.0
0.0,0.0,0.0,0.0
7.282,-0.28,-0.946,0.0
6.992,-0.271,-0.948,0.0
8.518,-0.33,-0.913,0.0
8.195,-0.319,-0.924,0.0
7.886,-0.309,-0.933,0.0
7.566,-0.298,-0.939,0.0
7.292,-0.289,-0.945,0.0
0.0,0.0,0.0,0.0
8.597,-0.343,-0.919,0.0
8.249,-0.331,-0.928,0.0
7.916,-0.319,-0.935,0.0
0.0,0.0,0.0,0.0
7.32,-0.298,-0.947,0.0
7.027,-0.288,-0.949,0.0
8.616,-0.353,-0.918,0.0
8.245,-0.34,-0.925,0.0
7.903,-0.327,-0.931,0.0
7.57,-0.315,-0.935,0.0
7.313,-0.306,-0.944,0.0
7.062,-0.297,-0.951,0.0
8.619,-0.363,-0.916,0.0
8.286,-0.35,-0.927,0.0
7.954,-0.338,-0.934,0.0
7.589,-0.324,-0.934,0.0
7.337,-0.315,-0.944,0.0
7.057,-0.305,-0.948,0.0
8.664,-0.374,-0.917,0.0
8.281,-0.359,-0.923,0.0
8.006,-0.349,-0.937,0.0
0.0,0.0,0.0,0.0
7.335,-0.323,-0.941,0.0
7.094,-0.314,-0.95,0.0
8.698,-0.384,-0.917,0.0
8.345,-0.371,-0.926,0.0
7.98,-0.356,-0.93,0.0
7.646,-0.343,-0.935,0.0
7.336,-0.331,-0.938,0.0
7.12,-0.322,-0.95,0.0
8.768,-0.397,-0.921,0.0
8.365,-0.38,-0.925,0.0
8.009,-0.366,-0.93,0.0
0.0,0.0,0.0,0.0
7.36,-0.339,-0.937,0.0
7.131,-0.33,-0.948,0.0
8.76,-0.405,-0.916,0.0
8.381,-0.389,-0.922,0.0
8.035,-0.375,-0.929,0.0
0.0,0.0,0.0,0.0
7.372,-0.347,-0.935,0.0
7.19,-0.34,-0.952,0.0
8.836,-0.418,-0.919,0.0
8.449,-0.401,-0.925,0.0
8.079,-0.385,-0.929,0.0
0.0,0.0,0.0,0.0
7.459,-0.359,-0.941,0.0
7.201,-0.348,-0.949,0.0
8.862,-0.427,-0.916,0.0
8.453,-0.409,-0.92,0.0
8.122,-0.395,-0.929,0.0
7.741,-0.378,-0.929,0.0
7.515,-0.369,-0.944,0.0
7.207,-0.355,-0.945,0.0
8.905,-0.438,-0.915,0.0
8.486,-0.419,-0.919,0.0
8.11,-0.402,-0.923,0.0
0.0,0.0,0.0,0.0
7.536,-0.377,-0.942,0.0
7.25,-0.364,-0.946,0.0
8.909,-0.447,-0.909,0.0
8.524,-0.429,-0.917,0.0
8.184,-0.413,-0.925,0.0
7.881,-0.4,-0.935,0.0
7.594,-0.387,-0.943,0.0
7.292,-0.373,-0.946,0.0
9.0,-0.459,-0.912,0.0
8.613,-0.441,-0.92,0.0
8.251,-0.424,-0.927,0.0
7.89,-0.407,-0.931,0.0
7.63,-0.395,-0.942,0.0
7.293,-0.379,-0.941,0.0
9.002,-0.467,-0.906,0.0
8.662,-0.451,-0.919,0.0
8.308,-0.435,-0.927,0.0
7.967,-0.418,-0.934,0.0
7.626,-0.402,-0.936,0.0
7.332,-0.388,-0.94,0.0
9.116,-0.481,-0.91,0.0
8.725,-0.462,-0.919,0.0
8.348,-0.444,-0.925,0.0
8.003,-0.427,-0.931,0.0
0.0,0.0,0.0,0.0
7.433,-0.399,-0.947,0.0
9.213,-0.494,-0.912,0.0
8.798,-0.473,-0.919,0.0
8.387,-0.453,-0.922,0.0
8.045,-0.436,-0.929,0.0
0.0,0.0,0.0,0.0
7.448,-0.406,-0.942,0.0
9.252,-0.504,-0.908,0.0
8.874,-0.485,-0.919,0.0
8.453,-0.463,-0.922,0.0
8.078,-0.444,-0.926,0.0
7.823,-0.432,-0.94,0.0
7.524,-0.416,-0.945,0.0
9.328,-0.515,-0.907,0.0
8.904,-0.493,-0.914,0.0
8.609,-0.478,-0.931,0.0
8.143,-0.454,-0.926,0.0
7.839,-0.439,-0.934,0.0
7.539,-0.423,-0.94,0.0
9.376,-0.525,-0.903,0.0
8.986,-0.505,-0.914,0.0
8.584,-0.484,-0.92,0.0
8.252,-0.466,-0.93,0.0
7.903,-0.448,-0.934,0.0
7.609,-0.433,-0.941,0.0
9.47,-0.537,-0.903,0.0
9.021,-0.513,-0.909,0.0
0.0,0.0,0.0,0.0
8.286,-0.474,-0.926,0.0
8.029,-0.461,-0.941,0.0
7.661,-0.441,-0.94,0.0
9.565,-0.549,-0.902,0.0
9.141,-0.526,-0.912,0.0
0.0,0.0,0.0,0.0
8.385,-0.485,-0.928,0.0
8.02,-0.466,-0.932,0.0
7.745,-0.451,-0.942,0.0
9.648,-0.56,-0.9,0.0
9.168,-0.534,-0.905,0.0
8.872,-0.518,-0.924,0.0
8.401,-0.492,-0.921,0.0
8.073,-0.474,-0.929,0.0
7.812,-0.46,-0.942,0.0
9.737,-0.572,-0.898,0.0
9.34,-0.55,-0.912,0.0
8.906,-0.526,-0.918,0.0
0.0,0.0,0.0,0.0
8.192,-0.486,-0.934,0.0
7.88,-0.469,-0.941,0.0
9.802,-0.582,-0.893,0.0
9.362,-0.557,-0.904,0.0
8.94,-0.533,-0.911,0.0
0.0,0.0,0.0,0.0
8.241,-0.494,-0.93,0.0
7.904,-0.475,-0.935,0.0
9.904,-0.593,-0.891,0.0
9.452,-0.567,-0.901,0.0
9.07,-0.546,-0.914,0.0
0.0,0.0,0.0,0.0
8.302,-0.502,-0.927,0.0
8.007,-0.485,-0.938,0.0
10.026,-0.606,-0.89,0.0
9.586,-0.581,-0.903,0.0
9.179,-0.557,-0.914,0.0
0.0,0.0,0.0,0.0
8.371,-0.511,-0.925,0.0
8.093,-0.495,-0.938,0.0
10.161,-0.619,-0.89,0.0
9.699,-0.592,-0.902,0.0
9.257,-0.567,-0.911,0.0
8.917,-0.547,-0.926,0.0
8.527,-0.524,-0.931,0.0
8.169,-0.503,-0.937,0.0
10.245,-0.629,-0.885,0.0
9.781,-0.602,-0.897,0.0
9.348,-0.576,-0.908,0.0
8.974,-0.554,-0.921,0.0
8.52,-0.527,-0.92,0.0
8.205,-0.509,-0.93,0.0
10.372,-0.642,-0.883,0.0
9.88,-0.612,-0.894,0.0
9.458,-0.587,-0.906,0.0
8.979,-0.559,-0.91,0.0
8.732,-0.544,-0.932,0.0
8.282,-0.517,-0.928,0.0
10.524,-0.655,-0.882,0.0
10.029,-0.626,-0.894,0.0
9.571,-0.598,-0.905,0.0
9.144,-0.572,-0.914,0.0
0.0,0.0,0.0,0.0
8.368,-0.526,-0.927,0.0
10.693,-0.67,-0.883,0.0
10.154,-0.637,-0.892,0.0
9.635,-0.605,-0.898,0.0
9.259,-0.583,-0.914,0.0
8.831,-0.557,-0.919,0.0
8.466,-0.535,-0.926,0.0
10.82,-0.681,-0.878,0.0
10.269,-0.648,-0.888,0.0
9.769,-0.617,-0.897,0.0
9.351,-0.592,-0.91,0.0
9.0,-0.57,-0.924,0.0
8.587,-0.545,-0.927,0.0
10.973,-0.694,-0.876,0.0
10.415,-0.66,-0.887,0.0
9.901,-0.628,-0.896,0.0
9.471,-0.602,-0.908,0.0
9.083,-0.578,-0.92,0.0
8.64,-0.55,-0.921,0.0
11.105,-0.705,-0.871,0.0
10.549,-0.671,-0.883,0.0
10.05,-0.64,-0.895,0.0
9.593,-0.612,-0.906,0.0
9.163,-0.585,-0.915,0.0
8.804,-0.563,-0.926,0.0
11.268,-0.718,-0.868,0.0
10.706,-0.683,-0.881,0.0
10.192,-0.651,-0.893,0.0
9.693,-0.62,-0.902,0.0
9.315,-0.597,-0.916,0.0
8.889,-0.57,-0.922,0.0
11.421,-0.73,-0.863,0.0
10.902,-0.698,-0.882,0.0
10.32,-0.661,-0.889,0.0
9.812,-0.629,-0.899,0.0
9.431,-0.605,-0.914,0.0
9.008,-0.579,-0.921,0.0
11.634,-0.745,-0.862,0.0
11.03,-0.707,-0.876,0.0
10.463,-0.672,-0.887,0.0
9.923,-0.637,-0.894,0.0
9.552,-0.614,-0.912,0.0
9.098,-0.586,-0.917,0.0
11.857,-0.761,-0.861,0.0
11.161,-0.717,-0.87,0.0
10.632,-0.683,-0.885,0.0
10.108,-0.65,-0.896,0.0
9.619,-0.619,-0.904,0.0
9.204,-0.593,-0.914,0.0
12.084,-0.776,-0.86,0.0
11.335,-0.729,-0.866,0.0
10.804,-0.695,-0.883,0.0
10.239,-0.659,-0.892,0.0
9.762,-0.629,-0.902,0.0
9.333,-0.601,-0.912,0.0
12.277,-0.789,-0.855,0.0
11.531,-0.741,-0.864,0.0
10.961,-0.705,-0.879,0.0
10.381,-0.668,-0.889,0.0
9.894,-0.637,-0.899,0.0
9.471,-0.61,-0.911,0.0
12.464,-0.801,-0.849,0.0
11.773,-0.757,-0.864,0.0
11.077,-0.712,-0.871,0.0
10.54,-0.678,-0.886,0.0
10.07,-0.648,-0.9,0.0
9.573,-0.616,-0.906,0.0
20.057,-1.288,-1.335,0.0
11.99,-0.77,-0.861,0.0
11.286,-0.725,-0.87,0.0
10.739,-0.69,-0.886,0.0
10.194,-0.655,-0.895,0.0
9.72,-0.625,-0.905,0.0
13.053,-0.836,-0.849,0.0
12.222,-0.783,-0.859,0.0
11.495,-0.737,-0.868,0.0
10.894,-0.698,-0.882,0.0
10.339,-0.663,-0.891,0.0
9.854,-0.632,-0.902,0.0
13.25,-0.847,-0.841,0.0
12.404,-0.793,-0.852,0.0
11.692,-0.748,-0.865,0.0
11.06,-0.707,-0.878,0.0
10.489,-0.671,-0.888,0.0
10.012,-0.64,-0.9,0.0
13.603,-0.867,-0.842,0.0
20.039,-1.278,-1.345,0.0
11.926,-0.76,-0.863,0.0
11.202,-0.714,-0.871,0.0
10.664,-0.68,-0.885,0.0
10.154,-0.647,-0.897,0.0
13.841,-0.879,-0.834,0.0
19.991,-1.27,-1.31,0.0
12.166,-0.773,-0.861,0.0
11.398,-0.724,-0.868,0.0
10.889,-0.691,-0.886,0.0
10.298,-0.654,-0.893,0.0
14.218,-0.9,-0.834,0.0
13.304,-0.841,-0.85,0.0
12.363,-0.782,-0.855,0.0
11.658,-0.737,-0.869,0.0
11.024,-0.697,-0.879,0.0
10.483,-0.662,-0.891,0.0
14.503,-0.913,-0.827,0.0
13.536,-0.852,-0.843,0.0
12.614,-0.793,-0.852,0.0
11.863,-0.746,-0.865,0.0
11.169,-0.702,-0.873,0.0
10.644,-0.669,-0.888,0.0
14.852,-0.93,-0.823,0.0
13.797,-0.863,-0.837,0.0
20.031,-1.253,-1.32,0.0
12.126,-0.758,-0.864,0.0
11.378,-0.711,-0.87,0.0
10.856,-0.678,-0.887,0.0
15.133,-0.942,-0.814,0.0
14.147,-0.88,-0.835,0.0
13.259,-0.824,-0.852,0.0
12.337,-0.766,-0.858,0.0
11.591,-0.719,-0.867,0.0
10.995,-0.681,-0.88,0.0
15.612,-0.965,-0.814,0.0
14.479,-0.894,-0.83,0.0
13.461,-0.83,-0.842,0.0
12.596,-0.776,-0.855,0.0
11.828,-0.728,-0.865,0.0
11.156,-0.686,-0.875,0.0
15.926,-0.976,-0.804,0.0
14.796,-0.906,-0.824,0.0
13.776,-0.843,-0.839,0.0
20.027,-1.224,-1.327,0.0
12.074,-0.737,-0.863,0.0
11.349,-0.692,-0.871,0.0
16.428,-0.999,-0.802,0.0
15.161,-0.921,-0.82,0.0
14.05,-0.852,-0.833,0.0
13.23,-0.802,-0.855,0.0
12.327,-0.746,-0.861,0.0
11.557,-0.698,-0.868,0.0
16.768,-1.01,-0.791,0.0
15.414,-0.927,-0.808,0.0
14.426,-0.867,-0.831,0.0
13.464,-0.808,-0.848,0.0
12.523,-0.75,-0.854,0.0
11.772,-0.704,-0.864,0.0
17.264,-1.03,-0.786,0.0
20.019,-1.192,-1.016,0.0
14.77,-0.878,-0.826,0.0
13.674,-0.812,-0.838,0.0
19.887,-1.179,-1.323,0.0
12.049,-0.713,-0.865,0.0
17.681,-1.043,-0.775,0.0
16.3,-0.96,-0.8,0.0
15.104,-0.888,-0.82,0.0
14.025,-0.823,-0.836,0.0
13.153,-0.771,-0.853,0.0
12.276,-0.718,-0.86,0.0
18.19,-1.061,-0.767,0.0
16.74,-0.974,-0.794,0.0
15.421,-0.896,-0.811,0.0
14.329,-0.831,-0.83,0.0
13.455,-0.779,-0.85,0.0
12.479,-0.721,-0.854,0.0
18.756,-1.08,-0.76,0.0
17.308,-0.995,-0.791,0.0
16.006,-0.918,-0.816,0.0
14.69,-0.841,-0.827,0.0
13.709,-0.783,-0.843,0.0
12.823,-0.731,-0.856,0.0
19.646,-1.117,-0.764,0.0
17.609,-0.998,-0.776,0.0
16.253,-0.92,-0.801,0.0
15.008,-0.847,-0.82,0.0
14.007,-0.789,-0.838,0.0
13.152,-0.739,-0.856,0.0
19.907,-1.115,-0.741,2.0
18.219,-1.018,-0.773,0.0
16.692,-0.931,-0.795,0.0
15.399,-0.856,-0.815,0.0
14.351,-0.796,-0.835,0.0
13.417,-0.743,-0.851,0.0
19.94,-1.1,-0.709,1.0
18.566,-1.022,-0.757,0.0
17.098,-0.938,-0.786,0.0
15.789,-0.864,-0.81,0.0
14.677,-0.801,-0.83,0.0
13.697,-0.746,-0.846,0.0
20.138,-1.093,-0.683,1.0
19.405,-1.051,-0.759,0.0
17.549,-0.947,-0.778,0.0
16.246,-0.875,-0.807,0.0
14.981,-0.804,-0.822,0.0
14.016,-0.75,-0.843,0.0
20.091,-1.072,-0.649,12.0
19.881,-1.058,-0.745,2.0
20.125,-1.068,-0.86,0.0
16.566,-0.876,-0.796,0.0
15.379,-0.811,-0.819,0.0
14.275,-0.75,-0.835,0.0
20.082,-1.052,-0.615,27.0
20.025,-1.046,-0.718,7.0
19.874,-1.035,-0.816,0.0
20.067,-1.041,-0.931,0.0
15.742,-0.814,-0.813,0.0
14.637,-0.755,-0.832,0.0
20.08,-1.032,-0.583,32.0
20.034,-1.026,-0.686,11.0
19.754,-1.008,-0.779,0.0
20.061,-1.02,-0.898,0.0
20.078,-1.018,-1.004,0.0
14.967,-0.756,-0.826,0.0
20.07,-1.01,-0.55,29.0
20.074,-1.006,-0.655,16.0
19.83,-0.991,-0.75,1.0
17.972,-0.894,-0.775,0.0
16.638,-0.825,-0.805,0.0
15.327,-0.757,-0.821,0.0
20.079,-0.988,-0.517,25.0
20.078,-0.985,-0.622,2.0
19.941,-0.974,-0.722,7.0
18.521,-0.901,-0.769,0.0
20.12,-0.975,-0.941,0.0
20.088,-0.97,-1.044,0.0
20.062,-0.965,-0.485,20.0
23.481,-1.125,-0.69,0.0
19.961,-0.952,-0.691,0.0
19.35,-0.919,-0.773,0.0
17.488,-0.827,-0.79,0.0
16.064,-0.757,-0.81,0.0
20.069,-0.942,-0.453,6.0
24.517,-1.146,-0.682,0.0
21.624,-1.006,-0.714,0.0
19.701,-0.912,-0.756,0.0
17.853,-0.823,-0.778,0.0
16.534,-0.759,-0.807,0.0
30.002,-1.372,-0.631,0.0
0.0,0.0,0.0,0.0
22.476,-1.018,-0.707,0.0
20.043,-0.904,-0.737,0.0
18.26,-0.82,-0.767,0.0
16.805,-0.751,-0.794,0.0
30.923,-1.376,-0.602,0.0
26.676,-1.181,-0.659,0.0
23.313,-1.027,-0.697,0.0
20.766,-0.91,-0.732,0.0
18.96,-0.827,-0.768,0.0
17.411,-0.756,-0.796,0.0
0.0,0.0,0.0,0.0
0.0,0.0,0.0,0.0
24.357,-1.042,-0.691,0.0
21.577,-0.918,-0.728,0.0
19.477,-0.824,-0.759,0.0
17.737,-0.746,-0.784,0.0
0.0,0.0,0.0,0.0
29.112,-1.213,-0.63,0.0
24.704,-1.023,-0.663,0.0
22.284,-0.918,-0.717,0.0
20.066,-0.822,-0.751,0.0
18.194,-0.741,-0.776,0.0
0.0,0.0,0.0,0.0
30.39,-1.225,-0.611,0.0
26.132,-1.047,-0.662,0.0
23.01,-0.916,-0.706,0.0
20.609,-0.816,-0.74,0.0
18.68,-0.735,-0.769,0.0
38.011,-1.488,-0.509,0.0
31.149,-1.212,-0.58,0.0
0.0,0.0,0.0,0.0
23.826,-0.915,-0.696,0.0
21.21,-0.81,-0.73,0.0
19.243,-0.73,-0.764,0.0
0.0,0.0,0.0,0.0
0.0,0.0,0.0,0.0
28.767,-1.071,-0.644,0.0
24.983,-0.924,-0.693,0.0
21.865,-0.803,-0.721,0.0
19.819,-0.723,-0.758,0.0
0.0,0.0,0.0,0.0
35.041,-1.263,-0.551,0.0
0.0,0.0,0.0,0.0
25.604,-0.909,-0.673,0.0
22.668,-0.799,-0.715,0.0
20.264,-0.709,-0.746,0.0
44.504,-1.549,-0.402,0.0
37.805,-1.306,-0.54,0.0
31.106,-1.066,-0.608,0.0
26.684,-0.908,-0.664,0.0
23.423,-0.791,-0.706,0.0
20.992,-0.703,-0.743,0.0
47.615,-1.585,-0.364,0.0
38.204,-1.261,-0.492,0.0
0.0,0.0,0.0,0.0
27.419,-0.891,-0.644,0.0
24.142,-0.778,-0.694,0.0
21.909,-0.7,-0.745,4.0
50.426,-1.601,-0.315,0.0
41.514,-1.306,-0.477,1.0
34.675,-1.082,-0.581,0.0
28.894,-0.893,-0.639,0.0
21.887,-0.671,-0.599,3.0
21.865,-0.664,-0.714,10.0
55.022,-1.66,-0.269,0.0
44.434,-1.328,-0.45,1.0
0.0,0.0,0.0,0.0
21.961,-0.644,-0.456,0.0
21.85,-0.634,-0.569,159.0
21.876,-0.629,-0.684,76.0
0.0,0.0,0.0,0.0
47.977,-1.356,-0.422,0.0
38.03,-1.064,-0.535,0.0
21.902,-0.606,-0.425,2.0
21.865,-0.599,-0.54,215.0
21.871,-0.593,-0.656,92.0
0.0,0.0,0.0,0.0
48.136,-1.281,-0.36,1.0
0.0,0.0,0.0,0.0
0.0,0.0,0.0,0.0
21.915,-0.564,-0.513,150.0
21.896,-0.558,-0.628,71.0
0.0,0.0,0.0,0.0
0.0,0.0,0.0,0.0
43.565,-1.075,-0.501,0.0
33.738,-0.822,-0.569,0.0
28.783,-0.693,-0.637,0.0
18.151,-0.431,-0.498,20.0
0.0,0.0,0.0,0.0
54.539,-1.269,-0.271,0.0
0.0,0.0,0.0,0.0
34.975,-0.793,-0.546,0.0
0.0,0.0,0.0,0.0
0.0,0.0,0.0,0.0
0.0,0.0,0.0,0.0
0.0,0.0,0.0,0.0
44.886,-0.953,-0.405,2.0
37.628,-0.788,-0.542,0.0
0.0,0.0,0.0,0.0
26.446,-0.538,-0.661,0.0
0.0,0.0,0.0,0.0
0.0,0.0,0.0,0.0
0.0,0.0,0.0,0.0
0.0,0.0,0.0,0.0
0.0,0.0,0.0,0.0
0.0,0.0,0.0,0.0
0.0,0.0,0.0,0.0
0.0,0.0,0.0,0.0
50.455,-0.893,-0.335,0.0
0.0,0.0,0.0,0.0
32.619,-0.557,-0.566,0.0
28.65,-0.481,-0.649,0.0
113.473,-1.875,0.577,5.0
53.503,-0.867,-0.011,0.0
0.0,0.0,0.0,0.0
0.0,0.0,0.0,0.0
35.028,-0.535,-0.568,0.0
29.439,-0.44,-0.634,0.0
138.817,-2.043,0.861,19.0
0.0,0.0,0.0,0.0
0.0,0.0,0.0,0.0
44.569,-0.614,-0.437,0.0
35.438,-0.476,-0.536,0.0
30.407,-0.399,-0.621,0.0
139.187,-1.793,1.015,19.0
0.0,0.0,0.0,0.0
0.0,0.0,0.0,0.0
47.176,-0.562,-0.412,1.0
0.0,0.0,0.0,0.0
31.109,-0.351,-0.603,0.0
119.73,-1.317,1.001,26.0
0.0,0.0,0.0,0.0
0.0,0.0,0.0,0.0
0.0,0.0,0.0,0.0
0.0,0.0,0.0,0.0
32.925,-0.309,-0.604,0.0
119.691,-1.088,1.125,19.0
0.0,0.0,0.0,0.0
0.0,0.0,0.0,0.0
0.0,0.0,0.0,0.0
0.0,0.0,0.0,0.0
0.0,0.0,0.0,0.0
119.717,-0.86,1.245,20.0
111.029,-0.761,0.562,7.0
0.0,0.0,0.0,0.0
0.0,0.0,0.0,0.0
43.507,-0.256,-0.48,0.0
0.0,0.0,0.0,0.0
119.755,-0.629,1.361,19.0
111.113,-0.548,0.669,5.0
0.0,0.0,0.0,0.0
0.0,0.0,0.0,0.0
44.967,-0.177,-0.454,1.0
35.477,-0.128,-0.547,0.0
119.722,-0.395,1.472,17.0
114.452,-0.34,0.796,150.0
0.0,0.0,0.0,0.0
0.0,0.0,0.0,0.0
45.481,-0.091,-0.418,1.0
0.0,0.0,0.0,0.0
117.359,-0.159,1.548,12.0
111.25,-0.115,0.871,8.0
97.561,-0.069,0.242,1.0
0.0,0.0,0.0,0.0
45.788,-0.002,-0.381,1.0
37.918,0.01,-0.519,0.0
111.112,0.067,1.561,11.0
0.0,0.0,0.0,0.0
0.0,0.0,0.0,0.0
0.0,0.0,0.0,0.0
0.0,0.0,0.0,0.0
0.0,0.0,0.0,0.0
119.851,0.312,1.784,16.0
119.772,0.351,1.139,11.0
94.666,0.31,0.393,4.0
0.0,0.0,0.0,0.0
50.288,0.197,-0.336,0.0
42.875,0.182,-0.517,0.0
111.096,0.51,1.741,31.0
111.03,0.547,1.143,24.0
97.881,0.516,0.482,4.0
0.0,0.0,0.0,0.0
0.0,0.0,0.0,0.0
42.701,0.267,-0.482,0.0
101.634,0.673,1.67,3.0
100.712,0.701,1.113,2.0
98.027,0.715,0.556,9.0
0.0,0.0,0.0,0.0
0.0,0.0,0.0,0.0
42.773,0.354,-0.452,0.0
104.719,0.905,1.796,12.0
98.807,0.887,1.162,15.0
98.318,0.914,0.626,15.0
81.538,0.786,0.072,3.0
0.0,0.0,0.0,0.0
0.0,0.0,0.0,0.0
98.609,1.052,1.758,28.0
98.566,1.085,1.226,28.0
98.281,1.116,0.692,11.0
79.326,0.927,0.123,3.0
0.0,0.0,0.0,0.0
43.751,0.54,-0.404,0.0
98.571,1.256,1.822,32.0
98.551,1.287,1.289,32.0
98.505,1.32,0.757,16.0
80.958,1.112,0.176,3.0
0.0,0.0,0.0,0.0
46.976,0.676,-0.405,1.0
119.927,1.774,2.291,18.0
91.997,1.39,1.259,28.0
91.898,1.419,0.76,24.0
81.081,1.28,0.224,4.0
0.0,0.0,0.0,0.0
47.113,0.775,-0.379,0.0
91.872,1.548,1.807,36.0
91.191,1.567,1.3,11.0
91.856,1.608,0.812,22.0
84.403,1.506,0.28,8.0
0.0,0.0,0.0,0.0
48.544,0.899,-0.364,0.0
87.671,1.658,1.772,5.0
87.387,1.682,1.292,41.0
85.534,1.675,0.801,12.0
78.234,1.557,0.3,5.0
70.015,1.417,-0.111,2.0
48.682,1.002,-0.341,0.0
85.309,1.792,1.767,33.0
85.265,1.819,1.303,39.0
85.245,1.847,0.839,35.0
84.679,1.862,0.365,4.0
68.212,1.523,-0.075,4.0
48.959,1.109,-0.32,1.0
85.245,1.968,1.805,33.0
85.272,1.996,1.342,37.0
85.262,2.023,0.878,32.0
78.891,1.898,0.375,8.0
66.694,1.627,-0.045,3.0
0.0,0.0,0.0,0.0
79.025,1.987,1.707,6.0
78.974,2.012,1.275,31.0
78.901,2.036,0.844,34.0
78.715,2.057,0.406,10.0
65.193,1.725,-0.018,4.0
55.205,1.479,-0.316,0.0
78.839,2.147,1.733,27.0
76.935,2.12,1.272,4.0
76.59,2.136,0.848,7.0
78.7,2.22,0.434,10.0
65.229,1.861,0.004,6.0
55.36,1.597,-0.298,0.0
75.256,2.205,1.68,5.0
74.398,2.205,1.255,3.0
78.973,2.367,0.901,19.0
72.406,2.192,0.423,14.0
65.056,1.991,0.025,8.0
55.225,1.709,-0.279,0.0
119.939,3.764,2.715,8.0
72.475,2.298,1.244,28.0
72.404,2.319,0.847,35.0
72.288,2.339,0.444,30.0
65.322,2.134,0.043,10.0
59.924,1.978,-0.287,1.0
72.379,2.423,1.658,34.0
72.361,2.445,1.261,41.0
72.348,2.468,0.865,36.0
72.287,2.49,0.462,23.0
65.35,2.271,0.059,12.0
58.392,2.049,-0.266,3.0
72.415,2.575,1.676,25.0
72.404,2.598,1.279,26.0
72.431,2.621,0.882,22.0
72.279,2.638,0.477,19.0
65.399,2.409,0.073,11.0
57.016,2.119,-0.248,2.0
194.235,7.31,4.534,21.0
120.073,4.556,2.144,14.0
120.011,4.593,1.484,17.0
72.398,2.793,0.49,5.0
65.315,2.54,0.084,15.0
56.048,2.198,-0.235,2.0
120.058,4.765,2.821,9.0
193.88,7.758,3.491,20.0
120.031,4.84,1.502,10.0
66.081,2.686,0.457,28.0
65.355,2.677,0.092,14.0
54.848,2.264,-0.223,2.0
66.102,2.76,1.561,26.0
63.731,2.68,1.154,9.0
62.901,2.664,0.793,7.0
66.054,2.818,0.463,7.0
65.219,2.803,0.098,11.0
53.9,2.333,-0.215,2.0
62.838,2.751,1.489,12.0
61.465,2.71,1.118,7.0
66.066,2.933,0.837,16.0
66.093,2.954,0.467,19.0
65.338,2.941,0.102,10.0
52.77,2.392,-0.208,19.0
61.099,2.8,1.45,13.0
120.129,5.543,2.189,14.0
120.132,5.581,1.527,13.0
120.013,5.61,0.851,16.0
65.296,3.072,0.103,12.0
52.076,2.467,-0.204,10.0
120.217,5.755,2.854,6.0
120.159,5.788,2.19,22.0
120.075,5.819,1.525,13.0
120.049,5.855,0.849,17.0
59.421,2.916,0.092,13.0
51.714,2.554,-0.204,14.0
124.784,6.225,2.959,8.0
124.805,6.265,2.269,150.0
50.671,2.558,0.641,4.0
59.48,3.02,0.418,24.0
59.245,3.027,0.088,22.0
51.305,2.637,-0.206,9.0
59.419,3.083,1.405,29.0
59.361,3.098,1.075,5.0
49.998,2.625,0.628,3.0
59.331,3.133,0.411,32.0
59.127,3.139,0.082,14.0
50.938,2.72,-0.21,8.0
59.397,3.201,1.398,29.0
50.255,2.723,0.904,14.0
49.307,2.686,0.613,6.0
59.332,3.249,0.404,25.0
59.206,3.26,0.075,9.0
50.837,2.815,-0.217,7.0
50.619,2.829,1.184,12.0
49.466,2.778,0.882,3.0
48.795,2.755,0.6,10.0
59.419,3.372,0.395,7.0
52.535,2.996,0.057,17.0
48.386,2.774,-0.214,6.0
50.259,2.907,1.166,11.0
48.931,2.845,0.864,10.0
48.405,2.828,0.586,9.0
48.265,2.833,0.311,1.0
52.169,3.078,0.046,22.0
46.266,2.743,-0.215,17.0
49.154,2.94,1.13,14.0
48.317,2.903,0.842,9.0
48.11,2.905,0.571,14.0
111.107,6.741,0.69,39.0
51.952,3.166,0.033,18.0
45.706,2.799,-0.224,19.0
48.328,2.985,1.099,4.0
47.994,2.978,0.824,18.0
47.836,2.982,0.555,19.0
47.718,2.988,0.283,3.0
51.798,3.258,0.019,15.0
45.497,2.874,-0.236,19.0
47.9,3.051,1.075,11.0
47.743,3.054,0.806,21.0
52.381,3.366,0.592,16.0
52.274,3.374,0.294,25.0
51.666,3.349,0.002,17.0
45.075,2.935,-0.248,19.0
47.627,3.126,1.053,16.0
52.245,3.444,0.864,18.0
52.231,3.456,0.572,31.0
52.176,3.467,0.275,19.0
51.609,3.443,-0.015,16.0
44.705,2.995,-0.262,19.0
52.209,3.526,1.136,13.0
52.196,3.538,0.844,38.0
52.198,3.552,0.552,32.0
52.163,3.564,0.255,20.0
51.592,3.539,-0.035,10.0
44.075,3.035,-0.276,19.0
52.215,3.623,1.115,29.0
52.219,3.637,0.823,25.0
52.207,3.65,0.532,25.0
52.168,3.661,0.234,18.0
46.01,3.241,-0.05,23.0
42.882,3.032,-0.286,10.0
102.088,7.273,2.137,52.0
52.311,3.739,0.802,18.0
52.299,3.751,0.509,21.0
52.195,3.758,0.211,15.0
45.853,3.314,-0.071,22.0
42.264,3.065,-0.301,15.0
101.932,7.447,2.087,8.0
101.648,7.453,1.511,5.0
101.436,7.463,0.94,4.0
52.291,3.861,0.186,12.0
45.542,3.374,-0.092,19.0
41.601,3.093,-0.317,16.0
100.748,7.544,2.012,11.0
100.556,7.555,1.445,9.0
100.349,7.563,0.878,9.0
52.251,3.951,0.159,2.0
45.31,3.438,-0.116,19.0
40.936,3.116,-0.334,11.0
99.735,7.645,1.939,9.0
99.455,7.646,1.375,8.0
99.251,7.656,0.815,8.0
45.882,3.55,0.114,3.0
45.143,3.504,-0.14,19.0
40.671,3.168,-0.354,8.0
98.631,7.733,1.862,8.0
45.996,3.617,0.61,1.0
45.914,3.622,0.351,33.0
45.772,3.621,0.088,22.0
44.975,3.569,-0.166,20.0
40.486,3.223,-0.377,7.0
45.857,3.675,0.838,38.0
45.817,3.682,0.58,42.0
45.795,3.691,0.322,35.0
45.677,3.693,0.059,29.0
44.701,3.624,-0.192,21.0
40.256,3.273,-0.4,6.0
45.792,3.747,0.808,45.0
45.769,3.756,0.55,41.0
45.748,3.764,0.292,33.0
45.549,3.759,0.03,28.0
44.274,3.664,-0.219,19.0
40.097,3.328,-0.424,6.0
45.766,3.821,0.778,41.0
45.765,3.832,0.52,36.0
45.747,3.84,0.262,25.0
45.477,3.828,0.0,23.0
43.303,3.654,-0.243,18.0
39.957,3.382,-0.45,17.0
45.794,3.898,0.747,30.0
45.789,3.908,0.488,25.0
45.748,3.915,0.23,16.0
45.373,3.892,-0.031,19.0
0.0,0.0,0.0,0.0
39.853,3.437,-0.477,6.0
93.147,8.081,1.453,133.0
93.15,8.1,0.928,24.0
45.863,3.998,0.197,16.0
45.317,3.96,-0.065,18.0
40.885,3.582,-0.289,15.0
39.731,3.49,-0.505,5.0
93.17,8.231,1.384,14.0
93.054,8.24,0.856,11.0
92.822,8.239,0.33,7.0
45.233,4.024,-0.098,19.0
40.464,3.608,-0.317,16.0
39.655,3.545,-0.535,1.0
92.373,8.304,1.301,6.0
92.184,8.304,0.777,10.0
45.69,4.125,0.126,18.0
45.092,4.081,-0.134,19.0
40.182,3.645,-0.346,15.0
35.882,3.263,-0.513,1.0
91.594,8.374,1.215,12.0
91.431,8.376,0.696,9.0
91.27,8.38,0.179,6.0
44.422,4.087,-0.169,20.0
39.766,3.667,-0.376,12.0
35.495,3.281,-0.536,2.0
90.822,8.437,1.13,11.0
90.7,8.442,0.616,10.0
73.435,6.849,0.082,4.0
43.534,4.069,-0.201,18.0
39.49,3.699,-0.406,9.0
35.029,3.288,-0.559,2.0
90.15,8.504,1.046,11.0
90.015,8.508,0.535,10.0
73.19,6.932,0.02,4.0
42.752,4.057,-0.235,18.0
39.386,3.746,-0.44,9.0
34.501,3.288,-0.581,0.0
89.435,8.564,0.959,12.0
89.284,8.565,0.45,10.0
45.669,4.389,-0.028,2.0
41.649,4.011,-0.266,19.0
39.328,3.795,-0.474,8.0
31.614,3.057,-0.561,0.0
88.779,8.624,0.871,13.0
88.658,8.628,0.366,12.0
45.654,4.451,-0.07,12.0
40.382,3.944,-0.295,16.0
39.256,3.841,-0.509,7.0
31.241,3.063,-0.583,0.0
88.141,8.68,0.783,11.0
86.645,8.547,0.278,13.0
45.539,4.5,-0.112,19.0
39.812,3.941,-0.328,22.0
39.179,3.886,-0.545,3.0
30.603,3.041,-0.6,0.0
87.553,8.736,0.695,12.0
87.269,8.722,0.197,12.0
0.0,0.0,0.0,0.0
39.471,3.958,-0.363,15.0
39.189,3.937,-0.583,0.0
29.221,2.941,-0.601,0.0
86.994,8.791,0.607,11.0
86.689,8.774,0.111,9.0
43.517,4.411,-0.191,18.0
39.205,3.981,-0.399,10.0
33.474,3.404,-0.531,1.0
