X,Y,Z,Reflectivity
117.398,0.17,2.451,15.0
117.384,0.177,1.833,11.0
111.136,0.175,1.164,19.0
110.595,0.182,0.587,3.0
69.841,0.116,2.324,31.0
70.227,0.121,1.974,29.0
112.466,0.202,2.582,8.0
117.381,0.219,2.079,8.0
111.099,0.215,1.396,21.0
110.894,0.223,0.82,11.0
70.224,0.142,2.484,26.0
69.926,0.146,2.113,31.0
119.866,0.261,3.003,6.0
117.51,0.265,2.326,1.0
119.851,0.279,1.754,15.0
111.088,0.268,1.054,17.0
70.112,0.17,2.627,29.0
69.795,0.175,2.255,36.0
119.856,0.311,3.254,18.0
119.833,0.321,2.621,25.0
119.908,0.331,2.003,16.0
119.734,0.341,1.384,9.0
70.202,0.201,2.776,17.0
69.979,0.207,2.405,38.0
70.136,0.213,2.048,27.0
119.811,0.376,2.867,8.0
193.585,0.625,3.635,11.0
119.843,0.398,1.632,20.0
70.197,0.235,2.922,10.0
70.181,0.241,2.558,28.0
70.073,0.248,2.191,34.0
119.844,0.435,3.116,24.0
119.86,0.447,2.495,73.0
119.873,0.459,1.877,129.0
70.154,0.27,3.063,14.0
70.293,0.278,2.704,12.0
69.884,0.283,2.327,12.0
195.542,0.814,5.48,10.0
194.566,0.83,4.443,17.0
193.366,0.845,3.418,11.0
103.231,0.454,4.715,5.0
70.313,0.316,2.846,5.0
69.878,0.322,2.466,33.0
111.199,0.525,3.338,17.0
119.822,0.578,2.976,11.0
111.144,0.549,2.186,21.0
80.446,0.4,3.836,11.0
119.958,0.61,5.097,10.0
69.988,0.364,2.611,20.0
69.933,0.372,2.24,15.0
111.153,0.604,2.983,22.0
111.104,0.617,2.406,26.0
78.691,0.44,3.909,5.0
104.184,0.595,4.635,16.0
70.082,0.408,2.753,11.0
69.896,0.416,2.377,10.0
111.067,0.675,3.201,31.0
111.056,0.689,2.625,31.0
78.65,0.491,4.064,5.0
80.442,0.512,3.739,7.0
104.783,0.68,4.324,22.0
104.801,0.694,3.771,13.0
111.032,0.749,3.418,16.0
111.084,0.764,2.843,28.0
81.359,0.563,4.363,14.0
80.863,0.57,3.916,4.0
70.058,0.503,3.029,12.0
70.069,0.513,2.657,9.0
104.709,0.78,3.427,20.0
104.777,0.795,2.886,27.0
81.129,0.619,4.51,14.0
78.669,0.612,3.963,9.0
97.65,0.773,4.411,15.0
104.768,0.844,4.177,20.0
69.7,0.571,2.415,19.0
104.717,0.873,3.084,31.0
78.392,0.657,4.508,9.0
81.363,0.694,4.254,12.0
80.602,0.699,3.795,13.0
97.769,0.862,4.083,22.0
104.594,0.937,3.824,26.0
69.86,0.636,2.189,17.0
78.331,0.718,4.654,19.0
81.349,0.758,4.409,11.0
78.66,0.744,3.851,14.0
70.173,0.674,3.062,4.0
97.992,0.956,3.766,31.0
104.55,1.036,3.472,15.0
71.711,0.715,4.395,6.0
78.452,0.794,4.398,4.0
81.645,0.839,4.15,8.0
98.67,1.03,4.49,15.0
98.577,1.044,3.971,16.0
69.936,0.751,2.452,6.0
67.022,0.725,4.232,9.0
80.357,0.882,4.653,9.0
81.377,0.906,4.287,3.0
98.57,1.114,4.667,16.0
70.08,0.803,2.951,19.0
98.315,1.142,3.626,12.0
60.228,0.704,3.914,16.0
80.552,0.955,4.811,4.0
81.343,0.977,4.432,9.0
78.741,0.959,3.87,8.0
98.625,1.218,4.33,26.0
98.431,1.232,3.807,20.0
60.182,0.758,4.019,8.0
80.356,1.025,4.944,15.0
80.125,1.036,4.509,3.0
80.957,1.06,4.122,5.0
98.341,1.304,4.493,13.0
98.252,1.32,3.974,26.0
41.472,0.56,2.843,31.0
74.409,1.019,4.71,6.0
78.495,1.088,4.555,9.0
81.358,1.142,4.286,13.0
78.741,1.119,3.735,11.0
98.182,1.413,4.143,29.0
41.453,0.6,2.915,33.0
71.719,1.052,4.666,1.0
80.472,1.194,4.811,13.0
81.243,1.22,4.421,11.0
98.059,1.49,4.82,18.0
78.737,1.21,3.457,18.0
41.353,0.639,2.979,40.0
41.527,0.65,2.772,13.0
74.304,1.176,4.568,9.0
79.734,1.277,4.474,12.0
85.622,1.386,4.353,8.0
115.725,1.896,5.275,7.0
41.422,0.683,3.054,38.0
41.498,0.692,2.84,14.0
74.298,1.252,4.692,4.0
70.69,1.205,4.085,4.0
72.95,1.256,3.83,2.0
85.545,1.49,4.041,9.0
41.069,0.719,3.096,36.0
41.342,0.732,2.897,39.0
78.478,1.404,5.084,6.0
74.267,1.343,4.412,6.0
70.277,1.284,3.804,1.0
72.853,1.346,3.559,5.0
40.881,0.76,3.148,48.0
41.331,0.776,2.964,24.0
74.428,1.412,4.943,6.0
80.106,1.534,4.887,9.0
81.093,1.569,4.518,8.0
91.467,1.787,4.612,17.0
40.929,0.805,3.217,45.0
41.026,0.815,3.007,38.0
68.028,1.364,4.624,4.0
78.353,1.587,4.903,1.0
70.004,1.432,4.01,2.0
84.623,1.747,4.4,12.0
40.832,0.849,3.273,41.0
40.911,0.858,3.062,44.0
40.9,0.866,2.843,28.0
83.604,1.786,5.359,5.0
74.247,1.601,4.366,2.0
82.744,1.802,4.428,16.0
40.683,0.891,3.323,42.0
40.853,0.903,3.119,45.0
40.995,0.915,2.912,27.0
41.371,0.932,2.715,6.0
74.172,1.685,4.473,5.0
82.789,1.899,4.554,5.0
40.608,0.937,3.379,40.0
40.865,0.952,3.182,40.0
41.23,0.968,2.991,15.0
41.268,0.978,2.769,2.0
74.155,1.772,4.581,15.0
72.854,1.756,4.113,5.0
40.662,0.986,3.443,34.0
40.783,0.997,3.235,46.0
40.734,1.005,3.013,41.0
41.178,1.024,2.822,21.0
72.007,1.806,4.551,43.0
72.836,1.842,4.215,8.0
40.615,1.034,3.496,25.0
40.645,1.043,3.281,39.0
40.797,1.055,3.075,33.0
41.117,1.072,2.875,12.0
70.741,1.86,4.569,10.0
72.348,1.917,4.287,10.0
40.6,1.083,3.551,41.0
40.734,1.095,3.345,35.0
40.704,1.103,3.124,43.0
40.917,1.117,2.917,34.0
65.339,1.798,4.309,16.0
0.0,0.0,0.0,0.0
40.593,1.133,3.606,36.0
40.737,1.146,3.399,38.0
40.759,1.155,3.183,47.0
40.916,1.168,2.971,21.0
65.358,1.879,4.395,17.0
70.904,2.054,4.389,6.0
40.51,1.182,3.652,46.0
40.51,1.19,3.434,35.0
40.811,1.208,3.239,44.0
78.713,2.346,5.817,9.0
74.344,2.233,5.095,2.0
65.516,1.982,4.139,13.0
40.523,1.234,3.705,46.0
40.436,1.24,3.479,40.0
40.681,1.256,3.28,40.0
59.536,1.851,4.475,14.0
66.634,2.087,4.65,16.0
65.541,2.067,4.222,20.0
40.492,1.285,3.752,41.0
40.431,1.292,3.528,39.0
40.511,1.304,3.317,42.0
40.782,1.321,3.115,34.0
66.573,2.171,4.726,21.0
66.626,2.187,4.372,7.0
40.374,1.334,3.79,36.0
40.458,1.345,3.578,40.0
40.561,1.358,3.368,40.0
40.718,1.372,3.157,46.0
40.771,1.382,2.941,9.0
66.538,2.27,4.441,19.0
40.601,1.395,3.858,27.0
40.376,1.396,3.618,39.0
40.358,1.404,3.398,33.0
40.582,1.421,3.192,40.0
40.827,1.438,2.991,31.0
45.204,1.602,3.068,13.0
40.401,1.442,3.884,55.0
40.361,1.449,3.661,44.0
40.313,1.456,3.438,45.0
40.582,1.475,3.237,34.0
40.634,1.486,3.021,39.0
40.866,1.503,2.817,29.0
40.536,1.501,3.941,40.0
40.443,1.507,3.712,37.0
40.519,1.519,3.499,44.0
40.589,1.53,3.28,39.0
40.713,1.544,3.07,29.0
40.743,1.554,2.852,36.0
40.558,1.558,3.986,27.0
40.362,1.559,3.747,45.0
40.247,1.563,3.517,43.0
40.369,1.577,3.304,45.0
40.56,1.594,3.099,42.0
40.737,1.61,2.892,47.0
40.483,1.61,4.019,30.0
40.458,1.618,3.796,39.0
40.362,1.623,3.566,43.0
40.378,1.633,3.344,42.0
40.582,1.65,3.14,36.0
40.878,1.671,2.94,35.0
40.769,1.678,4.087,16.0
40.379,1.671,3.826,47.0
40.37,1.679,3.605,45.0
40.398,1.689,3.383,39.0
40.473,1.701,3.169,39.0
40.602,1.715,2.958,42.0
41.203,1.753,4.168,17.0
40.637,1.737,3.888,38.0
40.26,1.73,3.631,40.0
40.549,1.752,3.432,31.0
40.407,1.755,3.199,34.0
40.457,1.765,2.982,40.0
41.102,1.806,4.193,40.0
40.79,1.801,3.937,30.0
40.313,1.788,3.67,41.0
40.797,1.819,3.486,29.0
40.387,1.809,3.231,34.0
40.389,1.818,3.01,43.0
41.062,1.861,4.223,40.0
40.733,1.855,3.965,41.0
40.478,1.852,3.718,40.0
40.525,1.863,3.495,29.0
40.421,1.867,3.265,34.0
40.372,1.874,3.041,41.0
40.963,1.914,4.244,38.0
40.766,1.914,4.0,41.0
40.446,1.907,3.746,41.0
40.35,1.911,3.511,39.0
40.658,1.935,3.315,22.0
40.382,1.931,3.071,35.0
40.911,1.97,4.27,45.0
40.892,1.977,4.042,34.0
41.008,1.992,3.827,30.0
40.232,1.963,3.53,42.0
40.509,1.985,3.331,36.0
40.552,1.996,3.113,33.0
40.777,2.021,4.284,43.0
40.97,2.039,4.078,34.0
41.134,2.056,3.867,37.0
40.429,2.029,3.574,44.0
40.393,2.036,3.348,39.0
40.45,2.047,3.131,25.0
40.704,2.075,4.303,46.0
40.814,2.089,4.089,31.0
41.017,2.108,3.882,37.0
40.827,2.107,3.635,25.0
40.489,2.098,3.381,36.0
40.467,2.105,3.157,35.0
40.764,2.136,4.334,37.0
45.181,2.376,4.553,12.0
41.019,2.165,3.907,34.0
41.122,2.18,3.685,37.0
40.561,2.159,3.411,29.0
40.311,2.154,3.167,42.0
40.707,2.191,4.351,41.0
45.986,2.484,4.66,9.0
40.932,2.219,3.921,39.0
41.251,2.245,3.719,38.0
40.434,2.209,3.421,44.0
40.447,2.218,3.199,35.0
40.797,2.253,4.382,26.0
40.979,2.271,4.174,25.0
41.054,2.284,3.953,16.0
41.289,2.305,3.743,36.0
40.624,2.276,3.457,43.0
40.639,2.286,3.234,37.0
40.876,2.315,4.41,26.0
40.813,2.32,4.176,19.0
45.528,2.597,4.405,20.0
41.333,2.366,3.765,43.0
40.604,2.332,3.474,34.0
40.457,2.332,3.237,40.0
40.946,2.377,4.435,27.0
58.831,3.427,6.044,6.0
44.819,2.619,4.354,27.0
41.337,2.424,3.782,35.0
40.797,2.4,3.506,54.0
40.816,2.409,3.281,23.0
41.003,2.437,4.457,8.0
40.859,2.436,4.213,14.0
44.692,2.674,4.359,42.0
41.342,2.481,3.797,31.0
41.123,2.476,3.549,38.0
41.594,2.513,3.358,30.0
46.671,2.839,5.089,8.0
40.853,2.493,4.226,8.0
44.763,2.74,4.38,19.0
45.571,2.798,4.2,20.0
41.55,2.559,3.598,38.0
41.674,2.575,3.377,40.0
52.254,3.251,5.713,12.0
52.276,3.262,5.422,44.0
0.0,0.0,0.0,0.0
45.4,2.85,4.197,35.0
41.925,2.64,3.642,34.0
42.016,2.654,3.415,22.0
52.228,3.321,5.723,16.0
52.274,3.334,5.435,20.0
52.309,3.345,5.145,14.0
42.399,2.72,3.929,17.0
41.937,2.698,3.652,36.0
42.065,2.714,3.428,13.0
46.697,3.033,5.127,9.0
43.173,2.812,4.497,4.0
42.226,2.758,4.162,22.0
45.581,2.986,4.232,6.0
41.857,2.749,3.652,43.0
41.902,2.76,3.422,32.0
41.904,2.779,4.607,4.0
46.549,3.095,4.856,3.0
41.966,2.798,4.142,37.0
42.07,2.812,3.912,19.0
41.888,2.808,3.661,42.0
41.746,2.806,3.415,40.0
41.931,2.838,4.616,8.0
46.497,3.155,4.856,15.0
41.949,2.853,4.145,39.0
42.059,2.868,3.915,31.0
41.555,2.841,3.635,30.0
41.686,2.857,3.413,43.0
41.957,2.895,4.621,30.0
46.503,3.216,4.86,6.0
41.876,2.904,4.14,41.0
42.067,2.924,3.918,18.0
41.33,2.88,3.617,37.0
41.704,2.914,3.416,36.0
42.023,2.955,4.63,24.0
52.977,3.734,5.538,10.0
41.867,2.958,4.14,40.0
41.439,2.935,3.86,16.0
41.275,2.93,3.613,35.0
41.527,2.955,3.402,36.0
41.764,2.992,4.601,34.0
53.059,3.809,5.545,7.0
46.216,3.326,4.569,17.0
41.33,2.981,3.848,32.0
41.314,2.987,3.614,43.0
41.518,3.008,3.399,38.0
46.061,3.359,5.072,8.0
46.032,3.364,4.808,16.0
41.119,3.012,4.062,28.0
41.226,3.026,3.836,43.0
41.246,3.035,3.605,43.0
41.51,3.061,3.394,37.0
45.931,3.409,5.053,10.0
46.032,3.423,4.803,18.0
41.155,3.067,4.061,41.0
41.278,3.082,3.835,38.0
41.192,3.082,3.595,44.0
41.537,3.115,3.391,34.0
45.256,3.416,4.972,22.0
41.188,3.115,4.291,12.0
41.195,3.121,4.059,16.0
41.192,3.127,3.821,23.0
41.241,3.137,3.592,40.0
41.508,3.164,3.382,37.0
45.254,3.472,4.963,30.0
41.177,3.164,4.282,9.0
41.232,3.174,4.054,30.0
41.231,3.181,3.816,16.0
41.359,3.197,3.594,40.0
41.589,3.221,3.379,27.0
45.242,3.526,4.952,14.0
45.309,3.537,4.701,12.0
41.25,3.226,4.046,22.0
41.276,3.234,3.81,34.0
41.239,3.237,3.573,41.0
41.561,3.269,3.366,42.0
45.242,3.581,4.94,23.0
41.156,3.263,4.259,30.0
41.201,3.272,4.029,19.0
41.746,3.321,3.841,18.0
41.343,3.295,3.57,37.0
45.605,3.641,3.68,6.0
45.262,3.636,4.928,37.0
45.28,3.643,4.672,36.0
45.263,3.648,4.412,15.0
41.667,3.364,3.82,20.0
41.356,3.344,3.558,32.0
41.721,3.379,3.353,17.0
50.722,4.133,5.505,6.0
45.353,3.701,4.663,18.0
45.37,3.708,4.406,6.0
41.52,3.398,3.792,26.0
41.462,3.399,3.551,24.0
41.433,3.403,3.314,24.0
48.001,3.965,5.191,19.0
58.473,4.837,5.989,3.0
41.256,3.418,3.991,29.0
41.305,3.428,3.755,37.0
41.307,3.433,3.521,43.0
45.592,3.795,3.628,3.0
48.042,4.022,5.174,35.0
61.451,5.152,6.268,3.0
41.404,3.476,3.987,21.0
41.37,3.478,3.743,28.0
41.265,3.475,3.499,38.0
41.539,3.503,3.286,31.0
47.963,4.068,5.143,3.0
43.297,3.676,4.395,1.0
41.437,3.523,3.97,39.0
41.323,3.519,3.719,22.0
41.253,3.518,3.478,42.0
41.585,3.551,3.269,16.0
48.022,4.124,5.125,7.0
41.326,3.553,4.174,15.0
41.313,3.556,3.936,39.0
41.425,3.571,3.706,20.0
44.435,3.835,3.723,3.0
41.499,3.587,3.241,27.0
47.817,4.155,5.078,16.0
41.232,3.587,4.142,38.0
41.41,3.607,3.923,32.0
41.291,3.601,3.671,31.0
44.38,3.875,3.693,10.0
41.625,3.64,3.226,22.0
47.848,4.207,5.052,4.0
41.292,3.634,4.123,40.0
45.893,4.043,4.32,6.0
41.239,3.637,3.642,30.0
44.351,3.916,3.664,3.0
41.632,3.681,3.202,16.0
45.897,4.08,4.818,24.0
41.329,3.677,4.101,15.0
41.364,3.684,3.868,26.0
41.269,3.68,3.618,27.0
41.542,3.708,3.405,38.0
41.529,3.712,3.167,31.0
45.885,4.122,4.787,24.0
41.241,3.708,4.065,42.0
41.267,3.715,3.831,30.0
41.258,3.717,3.59,28.0
41.432,3.737,3.368,40.0
41.578,3.754,3.143,41.0
45.907,4.167,4.757,11.0
41.239,3.746,4.036,17.0
41.406,3.765,3.815,31.0
41.394,3.767,3.573,29.0
41.406,3.772,3.337,39.0
41.67,3.8,3.12,31.0
48.143,4.412,4.954,6.0
48.954,4.49,4.755,23.0
41.439,3.804,3.787,28.0
41.391,3.803,3.541,39.0
41.465,3.813,3.31,34.0
41.584,3.828,3.082,37.0
48.083,4.448,4.91,8.0
45.465,4.208,4.381,3.0
41.254,3.822,3.738,42.0
41.701,3.866,3.536,28.0
41.516,3.853,3.282,36.0
41.692,3.872,3.058,36.0
45.785,4.272,4.639,12.0
41.761,3.9,3.991,30.0
45.51,4.253,4.088,4.0
41.776,3.906,3.509,36.0
41.574,3.891,3.253,38.0
41.827,3.918,3.034,16.0
44.836,4.219,4.506,21.0
41.656,3.922,3.947,27.0
41.794,3.938,3.719,16.0
41.79,3.94,3.475,37.0
41.542,3.919,3.216,35.0
44.345,4.187,3.18,27.0
44.2,4.192,4.405,34.0
44.344,4.208,4.163,6.0
42.058,3.993,3.707,15.0
41.857,3.977,3.444,36.0
41.497,3.945,3.177,41.0
44.443,4.228,3.148,3.0
44.159,4.219,4.361,28.0
41.648,3.981,3.873,31.0
42.046,4.022,3.668,27.0
41.878,4.008,3.409,39.0
41.629,3.986,3.149,38.0
42.085,4.033,2.943,28.0
44.068,4.24,4.312,22.0
41.777,4.022,3.847,34.0
41.977,4.043,3.623,19.0
41.718,4.02,3.357,39.0
41.813,4.031,3.124,42.0
44.506,4.294,3.071,4.0
44.332,4.295,4.295,19.0
41.801,4.051,3.809,28.0
41.986,4.071,3.584,15.0
41.872,4.061,3.329,16.0
42.112,4.086,3.107,29.0
43.069,4.181,2.931,19.0
44.678,4.355,4.286,16.0
43.834,4.274,3.951,27.0
41.944,4.091,3.539,25.0
44.419,4.334,3.488,6.0
42.108,4.111,3.065,21.0
43.364,4.235,2.907,21.0
44.683,4.381,4.241,19.0
43.888,4.304,3.912,18.0
44.017,4.318,3.67,3.0
42.256,4.146,3.276,17.0
54.59,5.359,3.918,7.0
43.07,4.23,2.844,17.0
41.713,4.112,3.916,11.0
43.887,4.327,3.866,32.0
42.007,4.142,3.459,26.0
42.64,4.206,3.261,20.0
42.908,4.234,3.035,8.0
42.889,4.234,2.787,14.0
49.287,4.882,4.575,11.0
43.872,4.347,3.819,21.0
42.054,4.167,3.418,16.0
42.644,4.226,3.216,23.0
0.0,0.0,0.0,0.0
42.894,4.254,2.742,6.0
44.118,4.39,4.047,9.0
43.843,4.363,3.769,22.0
42.009,4.181,3.368,16.0
42.516,4.232,3.16,28.0
43.883,4.37,3.009,22.0
73.125,7.283,4.594,20.0
44.138,4.41,4.0,28.0
41.93,4.19,3.557,26.0
42.04,4.201,3.324,18.0
0.0,0.0,0.0,0.0
43.248,4.323,2.918,28.0
73.191,7.317,4.518,26.0
44.096,4.422,3.947,13.0
41.972,4.209,3.513,16.0
0.0,0.0,0.0,0.0
42.814,4.294,3.086,22.0
43.018,4.315,2.854,31.0
73.22,7.345,4.437,31.0
44.01,4.428,3.888,29.0
44.082,4.435,3.64,7.0
0.0,0.0,0.0,0.0
42.735,4.299,3.031,30.0
42.895,4.315,2.795,23.0
88.526,8.908,5.261,15.0
43.893,4.429,3.826,17.0
44.079,4.447,3.587,22.0
42.823,4.32,3.238,32.0
42.827,4.32,2.987,29.0
42.852,4.322,2.742,10.0
88.533,8.932,5.156,35.0
43.967,4.447,3.779,19.0
44.177,4.467,3.542,14.0
43.538,4.402,3.239,20.0
43.041,4.351,2.95,32.0
73.499,7.431,4.615,12.0
88.531,8.95,5.05,38.0
44.093,4.468,3.736,30.0
44.271,4.486,3.496,18.0
43.418,4.398,3.177,18.0
43.234,4.379,2.91,32.0
73.325,7.426,4.515,19.0
88.54,8.966,4.942,38.0
44.133,4.48,3.685,32.0
43.567,4.421,3.386,20.0
42.913,4.353,3.088,32.0
44.008,4.464,2.908,25.0
73.287,7.432,4.422,22.0
88.527,8.977,4.833,37.0
44.114,4.483,3.629,34.0
42.817,4.349,3.275,24.0
42.818,4.348,3.028,26.0
44.76,4.544,2.903,35.0
88.544,8.987,5.234,20.0
88.538,8.986,4.725,34.0
44.136,4.488,3.576,20.0
0.0,0.0,0.0,0.0
42.911,4.36,2.981,23.0
44.815,4.552,2.85,10.0
88.542,8.991,5.122,39.0
88.552,8.99,4.614,32.0
44.244,4.5,3.528,17.0
43.721,4.445,3.233,20.0
43.088,4.379,2.938,32.0
58.276,5.92,3.632,3.0
88.528,8.991,5.007,39.0
88.549,8.991,4.499,29.0
44.081,4.483,3.458,19.0
43.037,4.374,3.127,22.0
43.782,4.448,2.928,20.0
73.295,7.443,4.473,22.0
88.541,8.989,4.893,37.0
88.533,8.985,4.384,27.0
42.913,4.361,3.31,20.0
42.832,4.351,3.056,31.0
0.0,0.0,0.0,0.0
73.264,7.434,4.375,11.0
88.546,8.981,4.777,42.0
88.554,8.979,4.268,31.0
42.778,4.343,3.243,18.0
42.863,4.349,3.002,22.0
44.791,4.542,2.878,11.0
88.532,8.973,5.17,35.0
88.547,8.97,4.662,40.0
88.552,8.966,4.153,32.0
43.633,4.423,3.25,21.0
43.057,4.362,2.958,32.0
73.504,7.442,4.627,10.0
88.528,8.958,5.054,42.0
88.544,8.955,4.545,44.0
88.542,8.95,4.036,33.0
43.209,4.371,3.161,23.0
43.212,4.369,2.911,36.0
73.318,7.408,4.518,25.0
88.533,8.939,4.936,40.0
88.543,8.936,4.426,44.0
88.559,8.932,3.918,36.0
42.903,4.33,3.081,31.0
42.98,4.335,2.838,32.0
73.281,7.386,4.417,23.0
88.524,8.916,4.817,35.0
88.537,8.912,4.308,35.0
88.565,8.909,3.801,32.0
42.734,4.301,3.011,30.0
42.865,4.311,2.773,12.0
88.529,8.897,5.217,20.0
88.531,8.89,4.699,28.0
88.565,8.887,4.191,34.0
88.538,8.879,3.681,30.0
43.576,4.371,3.012,20.0
73.242,7.341,4.64,11.0
88.517,8.865,5.097,27.0
73.061,7.311,3.778,16.0
88.541,8.854,4.069,39.0
88.512,8.844,3.56,28.0
43.206,4.318,2.927,25.0
73.07,7.296,4.529,30.0
88.527,8.832,4.978,17.0
88.499,8.822,4.457,30.0
88.529,8.817,3.949,32.0
88.495,8.807,3.44,14.0
42.938,4.273,2.851,27.0
73.004,7.258,4.426,34.0
73.122,7.263,4.011,23.0
88.511,8.784,4.337,29.0
88.554,8.78,3.83,27.0
88.407,8.759,3.316,4.0
42.883,4.248,2.789,11.0
72.959,7.219,4.324,30.0
73.169,7.233,3.914,21.0
88.533,8.744,4.218,14.0
88.559,8.738,3.711,17.0
88.589,8.733,3.203,3.0
72.967,7.191,4.646,11.0
73.016,7.188,4.228,30.0
73.148,7.193,3.814,8.0
88.659,8.71,4.105,15.0
88.646,8.7,3.595,13.0
88.723,8.699,3.089,11.0
72.778,7.132,4.535,23.0
73.039,7.149,4.13,26.0
90.61,8.859,4.602,15.0
90.536,8.843,4.067,9.0
90.467,8.826,3.545,8.0
88.944,8.669,2.976,12.0
72.786,7.089,4.436,31.0
72.963,7.098,4.026,38.0
90.841,8.826,4.489,15.0
90.785,8.81,3.955,16.0
90.733,8.795,3.431,8.0
89.212,8.639,2.862,15.0
72.755,7.039,4.333,26.0
73.176,7.07,3.936,31.0
91.178,8.799,4.381,14.0
91.149,8.786,3.846,15.0
89.508,8.617,3.264,4.0
89.522,8.609,2.75,13.0
72.899,7.002,4.242,29.0
91.561,8.783,4.801,13.0
91.533,8.769,4.272,15.0
91.483,8.753,3.736,14.0
89.844,8.585,3.153,3.0
89.883,8.579,2.639,10.0
73.532,7.009,4.179,30.0
91.907,8.748,4.694,14.0
91.869,8.733,4.165,13.0
91.795,8.714,3.624,20.0
90.228,8.554,3.045,2.0
90.298,8.55,2.529,11.0
84.502,7.99,4.687,20.0
92.279,8.712,4.588,14.0
92.235,8.695,4.056,10.0
92.2,8.679,3.515,12.0
90.626,8.52,2.936,12.0
90.644,8.51,2.416,11.0
84.517,7.921,4.573,31.0
92.662,8.671,4.482,9.0
92.64,8.655,3.948,17.0
92.668,8.645,3.408,8.0
91.039,8.481,2.827,8.0
91.048,8.471,2.306,10.0
84.898,7.884,4.48,39.0
93.019,8.623,4.373,15.0
92.978,8.606,3.838,16.0
93.037,8.599,3.298,2.0
91.473,8.441,2.718,13.0
91.522,8.433,2.195,11.0
85.503,7.861,4.397,38.0
93.016,8.539,4.249,26.0
93.054,8.528,3.718,34.0
91.873,8.406,3.135,3.0
91.906,8.395,2.609,9.0
91.931,8.385,2.084,6.0
85.535,7.784,4.285,36.0
93.021,8.449,4.126,28.0
93.012,8.434,3.592,23.0
92.425,8.367,3.031,4.0
92.512,8.361,2.505,5.0
92.582,8.353,1.977,7.0
85.651,7.71,4.179,37.0
93.049,8.36,4.007,15.0
93.008,8.341,3.472,13.0
92.996,8.325,2.929,6.0
92.986,8.31,2.397,7.0
93.078,8.304,1.868,9.0
85.945,7.648,4.081,16.0
93.151,8.273,3.89,17.0
93.155,8.258,3.357,19.0
93.151,8.242,2.814,26.0
93.178,8.23,2.282,31.0
93.16,8.213,1.749,32.0
92.07,8.094,4.254,25.0
93.101,8.169,3.768,63.0
93.104,8.152,3.235,73.0
93.13,8.139,2.695,59.0
93.131,8.124,2.162,44.0
45.873,3.994,0.803,17.0
91.898,7.977,4.129,25.0
96.263,8.337,3.773,18.0
45.919,3.969,1.537,9.0
45.833,3.953,1.267,20.0
45.812,3.943,1.004,24.0
45.797,3.934,0.743,26.0
45.93,3.933,2.005,16.0
45.866,3.919,1.739,18.0
45.816,3.906,1.476,23.0
45.795,3.897,1.209,29.0
45.773,3.887,0.947,34.0
45.767,3.878,0.686,36.0
45.828,3.87,1.943,34.0
45.812,3.86,1.68,32.0
45.791,3.849,1.418,35.0
45.777,3.84,1.152,37.0
45.774,3.831,0.89,39.0
45.763,3.822,0.629,38.0
45.82,3.812,1.886,39.0
45.802,3.802,1.624,39.0
45.799,3.793,1.362,37.0
45.783,3.783,1.096,40.0
45.777,3.774,0.834,45.0
45.772,3.765,0.573,40.0
45.814,3.754,1.83,43.0
45.811,3.744,1.568,44.0
45.804,3.734,1.307,41.0
45.818,3.727,1.041,38.0
45.823,3.718,0.78,41.0
45.821,3.71,0.519,42.0
45.857,3.697,1.777,37.0
45.866,3.689,1.516,34.0
45.88,3.68,1.255,35.0
45.924,3.675,0.989,30.0
45.927,3.666,0.727,32.0
45.908,3.656,0.466,37.0
45.958,3.644,1.727,31.0
45.961,3.635,1.465,2.0
98.757,7.789,2.586,11.0
98.787,7.772,2.014,10.0
98.896,7.76,1.453,8.0
98.944,7.744,0.89,8.0
101.282,7.89,3.688,18.0
101.376,7.876,3.113,2.0
99.53,7.711,2.489,11.0
99.648,7.699,1.916,9.0
99.757,7.687,1.351,8.0
99.763,7.667,0.783,9.0
101.976,7.8,3.598,29.0
100.404,7.657,2.97,4.0
100.404,7.634,2.398,11.0
100.484,7.619,1.818,9.0
100.593,7.606,1.248,9.0
100.668,7.59,0.676,8.0
101.99,7.651,3.483,34.0
0.0,0.0,0.0,0.0
101.337,7.557,2.307,4.0
101.532,7.548,1.724,5.0
101.484,7.524,1.147,4.0
52.342,3.869,0.294,7.0
47.235,3.473,1.561,14.0
102.191,7.49,2.796,15.0
102.19,7.467,2.215,15.0
102.187,7.443,1.624,17.0
52.313,3.799,0.534,18.0
52.187,3.779,0.237,14.0
47.298,3.405,1.512,40.0
47.372,3.4,1.245,29.0
52.285,3.74,1.078,19.0
52.252,3.725,0.775,25.0
52.218,3.711,0.478,21.0
52.091,3.69,0.181,16.0
47.777,3.365,1.477,3.0
47.435,3.33,1.197,28.0
47.489,3.322,0.929,51.0
52.19,3.639,0.72,36.0
52.195,3.627,0.424,23.0
51.938,3.597,0.127,19.0
48.306,3.325,1.443,9.0
47.707,3.272,1.155,14.0
47.663,3.258,0.883,20.0
47.623,3.243,0.608,59.0
52.191,3.542,0.37,25.0
51.807,3.504,0.075,16.0
48.773,3.279,1.409,11.0
48.052,3.218,1.116,4.0
47.893,3.195,0.84,19.0
47.855,3.181,0.564,20.0
52.214,3.458,0.319,6.0
51.669,3.41,0.024,15.0
49.225,3.228,1.374,14.0
48.406,3.161,1.077,6.0
48.124,3.131,0.798,14.0
48.104,3.117,0.52,12.0
52.299,3.376,0.27,17.0
51.475,3.31,-0.024,20.0
49.742,3.178,1.341,8.0
49.078,3.123,1.045,16.0
48.416,3.068,0.758,7.0
48.356,3.052,0.478,8.0
52.391,3.294,0.222,9.0
51.349,3.215,-0.071,19.0
50.636,3.149,1.319,12.0
49.326,3.055,1.006,4.0
48.855,3.013,0.72,8.0
48.685,2.99,0.438,8.0
52.383,3.204,0.175,23.0
51.206,3.118,-0.117,19.0
50.681,3.064,1.275,7.0
50.317,3.029,0.982,11.0
49.273,2.953,0.683,3.0
49.124,2.931,0.399,4.0
52.452,3.116,0.13,9.0
50.85,3.008,-0.16,21.0
115.519,6.783,2.808,5.0
50.48,2.95,0.942,7.0
49.923,2.903,0.65,12.0
49.604,2.872,0.361,1.0
52.519,3.026,0.086,16.0
50.833,2.916,-0.202,4.0
117.187,6.669,2.75,4.0
59.447,3.367,1.06,10.0
50.481,2.845,0.616,13.0
59.348,3.329,0.383,19.0
52.341,2.922,0.043,24.0
48.194,2.678,-0.23,3.0
59.39,3.272,1.346,26.0
59.371,3.255,1.011,30.0
59.346,3.237,0.677,5.0
59.292,3.218,0.336,27.0
52.339,2.825,0.002,19.0
48.884,2.626,-0.272,2.0
59.401,3.164,1.3,40.0
59.386,3.147,0.966,32.0
59.371,3.128,0.631,33.0
59.359,3.111,0.291,27.0
52.306,2.726,-0.036,25.0
49.657,2.575,-0.314,1.0
124.809,6.414,2.639,90.0
124.803,6.376,1.937,150.0
120.062,6.099,1.189,17.0
59.495,3.004,0.248,8.0
52.174,2.62,-0.074,25.0
50.327,2.513,-0.354,8.0
120.229,5.948,2.456,6.0
120.139,5.91,1.779,14.0
120.019,5.868,1.103,15.0
65.813,3.199,0.229,11.0
52.242,2.523,-0.111,16.0
45.567,2.188,-0.352,0.0
127.557,6.066,2.518,2.0
120.106,5.676,1.698,10.0
66.222,3.109,0.564,3.0
65.546,3.059,0.184,9.0
52.785,2.448,-0.146,25.0
44.714,2.06,-0.375,0.0
66.112,3.017,1.263,14.0
66.068,2.995,0.892,27.0
66.065,2.975,0.521,20.0
65.256,2.919,0.143,9.0
53.684,2.385,-0.183,3.0
44.559,1.967,-0.401,1.0
62.759,2.741,1.16,9.0
62.382,2.705,0.804,7.0
66.045,2.844,0.481,9.0
65.202,2.788,0.103,11.0
54.555,2.316,-0.218,3.0
44.637,1.882,-0.428,1.0
66.172,2.759,1.185,18.0
66.165,2.739,0.814,28.0
66.092,2.716,0.444,22.0
65.076,2.655,0.067,5.0
55.581,2.25,-0.253,1.0
44.722,1.796,-0.453,0.0
120.094,4.769,2.085,8.0
119.976,4.725,1.412,19.0
71.921,2.811,0.444,8.0
64.855,2.515,0.032,9.0
56.6,2.176,-0.288,1.0
0.0,0.0,0.0,0.0
120.066,4.527,2.023,21.0
72.46,2.708,0.816,18.0
72.021,2.668,0.409,15.0
59.247,2.177,0.0,6.0
52.66,1.918,-0.293,1.0
39.774,1.436,-0.443,0.0
72.368,2.58,1.184,32.0
72.35,2.555,0.78,32.0
71.797,2.514,0.374,18.0
64.596,2.241,-0.029,1.0
54.09,1.859,-0.326,0.0
39.645,1.349,-0.46,0.0
72.386,2.431,1.152,35.0
72.37,2.408,0.749,34.0
71.812,2.365,0.343,16.0
60.789,1.984,-0.053,4.0
0.0,0.0,0.0,0.0
39.392,1.259,-0.473,0.0
120.045,3.785,1.862,12.0
79.045,2.467,0.786,8.0
71.761,2.216,0.314,11.0
62.36,1.905,-0.079,5.0
0.0,0.0,0.0,0.0
38.026,1.137,-0.471,0.0
75.281,2.218,1.14,6.0
75.925,2.212,0.727,4.0
71.814,2.069,0.289,13.0
63.772,1.816,-0.103,7.0
0.0,0.0,0.0,0.0
37.271,1.037,-0.474,0.0
78.846,2.16,1.167,34.0
78.865,2.134,0.73,30.0
71.705,1.917,0.265,17.0
65.406,1.725,-0.127,6.0
0.0,0.0,0.0,0.0
38.739,0.996,-0.505,0.0
85.333,2.157,1.238,25.0
85.169,2.126,0.763,17.0
71.949,1.771,0.246,18.0
66.036,1.604,-0.147,2.0
0.0,0.0,0.0,0.0
0.0,0.0,0.0,0.0
85.258,1.976,1.215,37.0
85.209,1.947,0.742,27.0
72.031,1.621,0.228,15.0
0.0,0.0,0.0,0.0
0.0,0.0,0.0,0.0
37.804,0.812,-0.512,0.0
85.363,1.799,1.197,31.0
85.341,1.769,0.724,25.0
72.346,1.475,0.213,4.0
0.0,0.0,0.0,0.0
45.935,0.906,-0.377,0.0
0.0,0.0,0.0,0.0
0.0,0.0,0.0,0.0
91.866,1.71,0.763,24.0
77.793,1.422,0.216,3.0
0.0,0.0,0.0,0.0
45.912,0.807,-0.384,0.0
36.42,0.628,-0.506,0.0
91.905,1.548,1.258,41.0
91.846,1.515,0.75,25.0
81.139,1.31,0.214,3.0
0.0,0.0,0.0,0.0
47.011,0.726,-0.399,0.0
37.59,0.567,-0.526,0.0
98.63,1.451,1.338,30.0
98.484,1.414,0.793,15.0
80.985,1.135,0.206,2.0
0.0,0.0,0.0,0.0
43.988,0.586,-0.377,0.0
0.0,0.0,0.0,0.0
98.534,1.24,1.33,30.0
98.328,1.202,0.785,13.0
81.188,0.963,0.201,2.0
0.0,0.0,0.0,0.0
46.477,0.519,-0.401,0.0
0.0,0.0,0.0,0.0
98.67,1.031,1.328,29.0
98.458,0.994,0.783,16.0
84.003,0.818,0.206,2.0
0.0,0.0,0.0,0.0
46.427,0.42,-0.401,0.0
36.262,0.315,-0.512,0.0
100.274,0.831,1.349,5.0
104.756,0.831,0.834,18.0
85.463,0.647,0.21,8.0
0.0,0.0,0.0,0.0
45.976,0.315,-0.396,1.0
36.363,0.237,-0.513,0.0
0.0,0.0,0.0,0.0
110.882,0.641,0.887,6.0
88.082,0.478,0.221,5.0
0.0,0.0,0.0,0.0
46.111,0.217,-0.394,0.0
36.158,0.157,-0.507,0.0
119.779,0.476,1.625,16.0
110.877,0.401,0.896,13.0
0.0,0.0,0.0,0.0
0.0,0.0,0.0,0.0
44.995,0.115,-0.38,0.0
36.139,0.079,-0.503,0.0
111.139,0.204,1.52,22.0
110.937,0.163,0.91,9.0
95.301,0.106,0.26,1.0
0.0,0.0,0.0,0.0
45.314,0.018,-0.377,2.0
37.345,0.001,-0.515,0.0
111.158,-0.033,1.537,13.0
117.26,-0.077,0.98,7.0
99.18,-0.1,0.286,1.0
0.0,0.0,0.0,0.0
45.464,-0.078,-0.37,1.0
0.0,0.0,0.0,0.0
112.809,-0.275,1.581,15.0
114.469,-0.32,0.979,13.0
103.121,-0.324,0.318,2.0
0.0,0.0,0.0,0.0
0.0,0.0,0.0,0.0
37.135,-0.156,-0.497,0.0
119.695,-0.546,1.704,3.0
119.711,-0.589,1.051,13.0
0.0,0.0,0.0,0.0
0.0,0.0,0.0,0.0
0.0,0.0,0.0,0.0
0.0,0.0,0.0,0.0
119.718,-0.799,1.735,2.0
119.691,-0.842,1.082,18.0
0.0,0.0,0.0,0.0
0.0,0.0,0.0,0.0
0.0,0.0,0.0,0.0
0.0,0.0,0.0,0.0
119.739,-1.05,1.771,123.0
119.751,-1.094,1.119,73.0
0.0,0.0,0.0,0.0
0.0,0.0,0.0,0.0
0.0,0.0,0.0,0.0
39.849,-0.422,-0.498,0.0
139.248,-1.52,2.107,8.0
139.257,-1.571,1.35,23.0
0.0,0.0,0.0,0.0
0.0,0.0,0.0,0.0
0.0,0.0,0.0,0.0
40.485,-0.515,-0.491,0.0
139.123,-1.815,2.157,9.0
139.046,-1.862,1.4,15.0
127.486,-1.754,0.591,4.0
0.0,0.0,0.0,0.0
0.0,0.0,0.0,0.0
0.0,0.0,0.0,0.0
139.045,-2.107,2.213,10.0
139.128,-2.157,1.459,9.0
113.443,-1.801,0.574,6.0
0.0,0.0,0.0,0.0
50.239,-0.833,-0.295,0.0
41.661,-0.706,-0.47,0.0
193.551,-3.34,3.167,6.0
139.131,-2.448,1.522,11.0
138.788,-2.493,0.766,5.0
0.0,0.0,0.0,0.0
0.0,0.0,0.0,0.0
0.0,0.0,0.0,0.0
192.981,-3.727,3.25,19.0
0.0,0.0,0.0,0.0
138.962,-2.784,0.836,9.0
0.0,0.0,0.0,0.0
0.0,0.0,0.0,0.0
44.816,-0.946,-0.462,0.0
193.373,-4.135,3.356,16.0
0.0,0.0,0.0,0.0
138.89,-3.068,0.908,12.0
0.0,0.0,0.0,0.0
54.553,-1.244,-0.238,0.0
43.811,-1.015,-0.427,0.0
193.06,-4.523,3.457,20.0
0.0,0.0,0.0,0.0
138.894,-3.351,0.986,13.0
0.0,0.0,0.0,0.0
0.0,0.0,0.0,0.0
43.987,-1.108,-0.404,1.0
193.392,-4.923,3.576,22.0
0.0,0.0,0.0,0.0
138.787,-3.63,1.069,17.0
0.0,0.0,0.0,0.0
0.0,0.0,0.0,0.0
48.038,-1.307,-0.412,1.0
194.965,-5.356,3.726,4.0
138.718,-3.86,1.903,3.0
138.461,-3.902,1.154,25.0
0.0,0.0,0.0,0.0
0.0,0.0,0.0,0.0
47.483,-1.388,-0.376,0.0
194.324,-5.726,3.841,14.0
138.657,-4.135,1.994,8.0
138.722,-4.185,1.248,23.0
0.0,0.0,0.0,0.0
0.0,0.0,0.0,0.0
47.693,-1.489,-0.345,0.0
194.513,-6.121,3.979,18.0
138.579,-4.407,2.089,7.0
138.64,-4.456,1.344,23.0
0.0,0.0,0.0,0.0
0.0,0.0,0.0,0.0
0.0,0.0,0.0,0.0
187.511,-6.268,3.971,39.0
138.602,-4.682,2.191,8.0
138.572,-4.729,1.446,17.0
0.0,0.0,0.0,0.0
0.0,0.0,0.0,0.0
0.0,0.0,0.0,0.0
204.403,-7.232,4.484,12.0
193.564,-6.915,3.207,7.0
138.561,-4.998,1.552,10.0
138.493,-5.044,0.795,7.0
0.0,0.0,0.0,0.0
0.0,0.0,0.0,0.0
194.217,-7.248,4.414,6.0
193.316,-7.281,3.357,19.0
0.0,0.0,0.0,0.0
138.456,-5.309,0.907,10.0
0.0,0.0,0.0,0.0
0.0,0.0,0.0,0.0
193.046,-7.577,4.547,13.0
193.272,-7.65,3.518,15.0
0.0,0.0,0.0,0.0
138.366,-5.57,1.022,16.0
0.0,0.0,0.0,0.0
0.0,0.0,0.0,0.0
192.809,-7.933,4.708,20.0
192.671,-7.991,3.672,25.0
138.164,-5.775,1.894,20.0
138.055,-5.817,1.141,21.0
0.0,0.0,0.0,0.0
0.0,0.0,0.0,0.0
193.302,-8.317,4.892,24.0
193.036,-8.37,3.854,19.0
138.067,-6.03,2.018,80.0
138.084,-6.076,1.266,15.0
0.0,0.0,0.0,0.0
0.0,0.0,0.0,0.0
20.155,-0.904,0.528,2.0
20.147,-0.91,0.42,0.0
138.029,-6.282,2.145,81.0
138.22,-6.336,1.396,22.0
0.0,0.0,0.0,0.0
20.049,-0.932,-0.011,2.0
20.134,-0.939,0.546,21.0
20.127,-0.945,0.439,17.0
20.155,-0.953,0.332,13.0
20.138,-0.959,0.222,0.0
138.108,-6.624,0.792,7.0
20.02,-0.966,0.008,4.0
20.124,-0.975,0.566,26.0
20.133,-0.982,0.459,20.0
20.144,-0.988,0.352,25.0
20.166,-0.996,0.243,28.0
20.055,-0.997,0.134,8.0
19.988,-1.0,0.027,17.0
20.062,-1.007,0.584,18.0
20.006,-1.01,0.476,11.0
20.007,-1.017,0.369,12.0
20.002,-1.022,0.261,22.0
19.992,-1.028,0.154,17.0
19.977,-1.034,0.048,30.0
19.975,-1.037,0.602,19.0
19.967,-1.043,0.496,17.0
19.948,-1.048,0.389,16.0
19.994,-1.056,0.281,23.0
19.96,-1.061,0.175,18.0
19.981,-1.068,0.069,28.0
19.974,-1.071,0.623,24.0
19.976,-1.077,0.517,21.0
19.963,-1.082,0.41,20.0
19.934,-1.087,0.302,19.0
20.0,-1.096,0.197,23.0
20.007,-1.103,0.09,23.0
19.984,-1.105,0.645,24.0
19.97,-1.11,0.538,23.0
19.951,-1.115,0.432,21.0
19.931,-1.12,0.324,19.0
19.962,-1.127,0.218,16.0
20.102,-1.142,0.113,9.0
19.974,-1.138,0.667,21.0
19.96,-1.142,0.56,20.0
19.956,-1.148,0.454,20.0
19.95,-1.153,0.346,21.0
19.94,-1.159,0.241,14.0
20.022,-1.169,0.135,23.0
19.964,-1.169,0.689,18.0
19.948,-1.174,0.583,20.0
19.954,-1.179,0.477,19.0
19.918,-1.183,0.368,19.0
19.943,-1.19,0.263,27.0
19.984,-1.198,0.158,100.0
19.973,-1.201,0.713,17.0
19.959,-1.205,0.606,22.0
19.948,-1.21,0.5,22.0
19.93,-1.215,0.392,25.0
19.942,-1.221,0.286,26.0
19.987,-1.229,0.181,22.0
19.978,-1.232,0.736,15.0
19.949,-1.235,0.629,23.0
19.943,-1.24,0.523,19.0
19.911,-1.243,0.415,19.0
19.946,-1.251,0.31,23.0
19.978,-1.259,0.205,25.0
19.986,-1.262,0.76,12.0
19.95,-1.265,0.653,19.0
19.943,-1.27,0.547,22.0
19.904,-1.273,0.439,17.0
19.922,-1.279,0.334,17.0
19.951,-1.287,0.229,28.0
20.007,-1.293,0.785,10.0
19.955,-1.295,0.677,11.0
19.946,-1.299,0.572,13.0
19.937,-1.304,0.464,11.0
19.947,-1.31,0.359,13.0
19.963,-1.316,0.254,23.0
72.198,-4.771,2.925,29.0
19.997,-1.326,0.704,10.0
20.046,-1.335,0.6,8.0
20.055,-1.34,0.492,2.0
119.418,-8.013,2.3,16.0
20.024,-1.348,0.28,0.0
72.546,-4.897,3.031,29.0
20.008,-1.355,0.73,9.0
19.999,-1.359,0.624,10.0
20.018,-1.366,0.516,9.0
20.047,-1.372,0.411,8.0
20.056,-1.378,0.306,1.0
67.897,-4.676,2.923,51.0
67.895,-4.691,2.564,30.0
19.999,-1.386,0.649,11.0
19.988,-1.39,0.541,11.0
20.018,-1.397,0.436,10.0
20.021,-1.402,0.331,10.0
67.909,-4.766,3.011,65.0
67.899,-4.78,2.651,52.0
20.008,-1.413,0.675,8.0
19.997,-1.417,0.567,10.0
19.999,-1.422,0.462,9.0
20.02,-1.428,0.357,11.0
67.921,-4.856,3.101,65.0
67.905,-4.869,2.741,57.0
67.878,-4.882,2.382,29.0
20.016,-1.444,0.594,6.0
20.018,-1.448,0.489,8.0
20.018,-1.453,0.383,8.0
67.91,-4.94,3.191,66.0
67.92,-4.955,2.833,57.0
67.898,-4.968,2.474,43.0
72.196,-5.298,2.242,23.0
72.78,-5.357,1.876,9.0
72.521,-5.353,1.488,9.0
67.919,-5.023,3.283,67.0
67.926,-5.038,2.925,56.0
67.905,-5.051,2.566,43.0
71.865,-5.36,2.329,28.0
119.375,-8.929,3.239,11.0
119.392,-8.955,2.61,22.0
67.927,-5.105,3.376,42.0
67.922,-5.117,3.017,43.0
102.859,-7.77,4.026,20.0
102.812,-7.786,3.471,24.0
71.696,-5.444,2.043,12.0
67.906,-5.171,1.578,10.0
67.961,-5.185,3.471,25.0
67.942,-5.196,3.111,53.0
67.923,-5.207,2.752,67.0
67.903,-5.219,2.386,65.0
67.904,-5.232,2.029,86.0
67.89,-5.244,1.671,80.0
67.942,-5.258,3.564,73.0
67.932,-5.269,3.205,72.0
67.918,-5.28,2.846,57.0
67.92,-5.292,2.481,44.0
67.931,-5.306,2.124,41.0
67.927,-5.318,1.766,30.0
71.464,-5.606,3.848,14.0
71.108,-5.59,3.454,44.0
71.234,-5.612,3.085,15.0
104.49,-8.251,3.965,7.0
72.605,-5.746,2.372,12.0
71.725,-5.689,1.966,9.0
71.556,-5.686,3.955,8.0
71.27,-5.675,3.562,36.0
71.332,-5.692,3.189,29.0
71.495,-5.717,2.813,17.0
72.087,-5.776,2.457,18.0
74.858,-6.012,2.158,4.0
71.522,-5.754,4.055,21.0
71.35,-5.751,3.669,20.0
67.933,-5.486,3.134,9.0
67.94,-5.498,2.77,44.0
67.914,-5.506,2.411,43.0
72.129,-5.86,2.182,20.0
71.627,-5.83,4.163,19.0
71.273,-5.811,3.766,17.0
67.946,-5.55,3.232,43.0
67.938,-5.559,2.867,44.0
67.928,-5.569,2.509,47.0
72.029,-5.916,2.281,9.0
71.694,-5.899,4.269,22.0
71.407,-5.885,3.875,11.0
67.943,-5.609,3.329,55.0
67.965,-5.62,2.965,49.0
67.958,-5.63,2.607,47.0
67.92,-5.636,2.248,7.0
71.68,-5.959,4.372,11.0
71.427,-5.947,3.98,19.0
67.946,-5.666,3.427,52.0
67.959,-5.676,3.062,51.0
67.96,-5.685,2.705,46.0
67.927,-5.692,2.346,29.0
71.58,-6.009,4.469,21.0
71.354,-5.998,4.078,24.0
67.936,-5.719,3.524,28.0
67.95,-5.729,3.16,51.0
67.969,-5.739,2.804,48.0
67.943,-5.745,2.445,41.0
71.422,-6.051,4.564,13.0
71.393,-6.055,4.184,14.0
71.328,-6.058,3.803,24.0
67.961,-5.78,3.259,41.0
67.969,-5.788,2.901,46.0
67.954,-5.795,2.543,46.0
71.299,-6.092,4.658,25.0
71.599,-6.125,4.3,13.0
70.833,-6.066,3.88,14.0
67.951,-5.826,3.357,42.0
67.967,-5.835,3.0,45.0
67.964,-5.842,2.642,48.0
70.573,-6.078,4.714,24.0
71.696,-6.181,4.411,9.0
70.669,-6.099,3.974,27.0
67.954,-5.871,3.456,37.0
67.97,-5.879,3.098,46.0
67.982,-5.887,2.741,35.0
70.802,-6.142,4.833,18.0
75.104,-6.522,4.729,5.0
70.601,-6.137,4.072,20.0
67.947,-5.911,3.553,11.0
67.975,-5.92,3.197,44.0
67.985,-5.927,2.839,48.0
70.443,-6.154,4.912,33.0
70.546,-6.167,4.546,10.0
71.165,-6.227,4.209,26.0
71.09,-6.226,3.821,18.0
67.981,-5.958,3.296,43.0
67.991,-5.965,2.938,51.0
70.344,-6.183,5.006,23.0
70.706,-6.219,4.658,18.0
71.168,-6.265,4.311,26.0
70.845,-6.24,3.91,33.0
67.967,-5.992,3.393,43.0
67.972,-5.997,3.034,32.0
70.387,-6.222,5.111,22.0
70.596,-6.244,4.752,25.0
71.035,-6.287,4.406,11.0
70.953,-6.284,4.018,11.0
67.97,-6.024,3.491,15.0
71.563,-6.347,3.298,12.0
70.421,-6.258,5.215,23.0
70.589,-6.276,4.853,29.0
70.925,-6.309,4.501,20.0
71.388,-6.354,4.145,15.0
71.086,-6.33,3.753,47.0
71.54,-6.375,3.4,11.0
70.475,-6.292,5.321,28.0
70.379,-6.286,4.941,25.0
70.675,-6.315,4.588,19.0
70.209,-6.276,4.178,6.0
70.921,-6.342,3.846,20.0
71.331,-6.382,3.491,14.0
70.786,-6.346,5.446,34.0
70.144,-6.29,5.025,33.0
33.2,-2.978,2.202,2.0
71.313,-6.399,4.345,7.0
70.889,-6.364,3.945,32.0
71.38,-6.411,3.595,17.0
70.918,-6.382,5.559,19.0
70.405,-6.337,5.144,28.0
70.746,-6.369,4.794,19.0
71.334,-6.423,4.449,19.0
69.757,-6.282,3.981,31.0
70.908,-6.388,3.673,9.0
71.164,-6.424,5.68,11.0
70.351,-6.351,5.241,23.0
70.792,-6.392,4.898,17.0
71.043,-6.415,4.531,9.0
69.827,-6.307,4.084,29.0
70.676,-6.384,3.761,11.0
71.101,-6.436,5.776,8.0
70.314,-6.365,5.338,21.0
70.648,-6.394,4.988,40.0
71.022,-6.428,4.63,8.0
70.286,-6.362,4.209,13.0
70.68,-6.398,3.859,19.0
73.623,-6.679,6.084,8.0
70.744,-6.417,5.469,19.0
70.491,-6.393,5.075,35.0
70.742,-6.415,4.711,14.0
71.026,-6.441,4.352,13.0
70.001,-6.348,3.919,25.0
76.42,-6.944,6.422,4.0
71.132,-6.462,5.599,18.0
70.496,-6.403,5.174,30.0
70.948,-6.443,4.823,46.0
70.989,-6.445,4.449,14.0
69.724,-6.33,4.0,25.0
71.436,-6.5,6.102,7.0
71.15,-6.471,5.698,13.0
70.306,-6.392,5.256,24.0
70.763,-6.432,4.907,44.0
70.964,-6.449,4.544,23.0
69.982,-6.358,4.11,11.0
73.563,-6.698,6.386,10.0
71.081,-6.469,5.791,8.0
70.385,-6.403,5.359,29.0
70.471,-6.408,4.982,37.0
71.1,-6.463,4.649,10.0
70.354,-6.394,4.227,15.0
73.573,-6.7,6.487,17.0
76.39,-6.953,6.327,5.0
70.895,-6.45,5.493,22.0
70.426,-6.404,5.075,40.0
70.829,-6.438,4.727,23.0
70.997,-6.45,4.361,16.0
73.576,-6.699,6.587,6.0
74.14,-6.747,6.241,7.0
71.128,-6.469,5.607,17.0
70.507,-6.408,5.175,36.0
70.929,-6.443,4.828,41.0
71.023,-6.448,4.457,13.0
77.02,-7.008,6.998,4.0
71.379,-6.49,6.104,10.0
71.12,-6.462,5.701,12.0
70.277,-6.381,5.251,27.0
70.822,-6.426,4.914,41.0
70.965,-6.436,4.545,12.0
76.728,-6.974,7.072,5.0
71.361,-6.48,6.195,15.0
71.051,-6.447,5.787,5.0
70.335,-6.378,5.344,25.0
70.611,-6.397,4.989,46.0
33.223,-3.008,2.17,2.0
73.687,-6.686,6.887,10.0
73.538,-6.666,6.478,17.0
73.489,-6.656,6.08,4.0
70.845,-6.411,5.475,25.0
70.403,-6.366,5.064,39.0
70.703,-6.388,4.708,14.0
73.676,-6.671,6.98,23.0
73.495,-6.648,6.568,20.0
74.222,-6.708,6.234,8.0
71.115,-6.42,5.585,13.0
70.399,-6.35,5.151,30.0
70.733,-6.375,4.798,17.0
73.69,-6.655,7.074,22.0
73.474,-6.629,6.657,19.0
74.429,-6.707,6.344,9.0
71.247,-6.414,5.683,10.0
70.449,-6.336,5.242,26.0
70.163,-6.304,4.845,11.0
73.686,-6.635,7.164,13.0
73.462,-6.607,6.747,15.0
71.323,-6.407,6.166,7.0
71.259,-6.394,5.77,8.0
70.592,-6.327,5.337,23.0
70.167,-6.282,4.929,22.0
73.712,-6.615,7.256,12.0
73.504,-6.587,6.839,18.0
76.213,-6.821,6.68,9.0
74.239,-6.637,6.099,9.0
70.816,-6.323,5.438,25.0
70.265,-6.266,5.019,35.0
73.873,-6.603,7.359,10.0
73.441,-6.555,6.919,31.0
76.179,-6.791,6.766,12.0
73.929,-6.581,6.161,16.0
70.743,-6.29,5.514,25.0
70.444,-6.255,5.113,26.0
73.267,-6.52,7.384,9.0
73.425,-6.524,7.003,35.0
80.255,-7.121,7.22,7.0
0.0,0.0,0.0,0.0
70.957,-6.278,5.612,17.0
70.632,-6.241,5.206,11.0
72.981,-6.464,7.438,24.0
73.631,-6.51,7.106,30.0
80.073,-7.069,7.294,5.0
73.188,-6.451,6.263,18.0
74.308,-6.541,5.958,13.0
70.73,-6.218,5.29,13.0
71.988,-6.342,7.416,10.0
73.882,-6.498,7.21,13.0
73.518,-6.456,6.776,15.0
71.216,-6.243,6.172,10.0
74.451,-6.516,6.051,13.0
70.777,-6.185,5.37,19.0
70.613,-6.185,7.351,13.0
73.761,-6.45,7.277,6.0
73.456,-6.411,6.849,27.0
73.304,-6.388,6.43,8.0
71.714,-6.239,5.903,10.0
71.001,-6.167,5.46,15.0
70.581,-6.144,7.421,28.0
71.154,-6.182,7.094,13.0
73.398,-6.366,6.919,12.0
71.446,-6.186,6.34,7.0
71.656,-6.193,5.971,16.0
70.864,-6.114,5.522,21.0
70.609,-6.106,7.496,10.0
70.873,-6.116,7.138,8.0
73.371,-6.32,6.991,21.0
71.394,-6.139,6.407,17.0
71.292,-6.118,6.011,18.0
70.914,-6.075,5.595,11.0
72.906,-6.259,7.813,11.0
70.212,-6.016,7.141,18.0
73.285,-6.266,7.054,16.0
78.046,-6.66,7.08,4.0
71.666,-6.104,6.112,25.0
70.973,-6.034,5.668,14.0
70.474,-6.004,7.621,19.0
70.248,-5.972,7.213,12.0
73.346,-6.223,7.13,20.0
0.0,0.0,0.0,0.0
71.811,-6.068,6.192,21.0
70.553,-5.95,5.7,10.0
70.539,-5.962,7.693,29.0
70.388,-5.935,7.292,11.0
73.279,-6.166,7.191,11.0
71.25,-5.983,6.596,10.0
72.224,-6.051,6.293,8.0
70.507,-5.895,5.76,24.0
70.723,-5.926,7.778,37.0
70.497,-5.894,7.366,13.0
73.157,-6.102,7.244,9.0
71.044,-5.912,6.639,8.0
72.211,-5.997,6.354,4.0
70.522,-5.844,5.821,23.0
70.335,-5.84,7.796,32.0
70.677,-5.855,7.446,45.0
73.178,-6.048,7.308,15.0
71.076,-5.86,6.702,8.0
79.555,-6.545,7.067,4.0
70.537,-5.79,5.881,16.0
70.803,-5.824,7.907,16.0
70.696,-5.8,7.506,30.0
73.046,-5.979,7.355,21.0
71.176,-5.811,6.769,7.0
79.247,-6.456,7.103,9.0
70.52,-5.731,5.935,9.0
69.967,-5.698,7.869,18.0
71.276,-5.789,7.624,13.0
73.002,-5.915,7.407,18.0
71.287,-5.762,6.834,10.0
70.872,-5.714,6.406,9.0
73.211,-5.888,6.217,4.0
70.035,-5.644,7.93,20.0
71.677,-5.761,7.721,40.0
72.089,-5.779,7.368,15.0
71.84,-5.744,6.941,29.0
70.903,-5.655,6.461,9.0
70.595,-5.616,6.047,12.0
72.252,-5.759,8.234,9.0
71.393,-5.675,7.742,32.0
71.556,-5.672,7.365,12.0
71.666,-5.666,6.974,39.0
70.932,-5.594,6.513,9.0
70.639,-5.556,6.098,16.0
70.408,-5.549,8.072,30.0
71.152,-5.591,7.764,25.0
71.556,-5.607,7.413,10.0
71.333,-5.574,6.989,23.0
70.795,-5.517,6.547,29.0
68.005,-5.286,5.915,29.0
70.241,-5.468,8.1,27.0
71.493,-5.551,7.847,33.0
70.62,-5.467,7.36,10.0
71.151,-5.493,7.016,8.0
68.021,-5.236,6.332,41.0
68.013,-5.221,5.957,64.0
69.35,-5.333,8.039,7.0
71.28,-5.465,7.867,37.0
70.528,-5.391,7.393,35.0
73.988,-5.64,7.339,5.0
68.033,-5.171,6.373,30.0
71.96,-5.453,6.345,11.0
69.584,-5.282,8.106,31.0
71.047,-5.376,7.882,17.0
71.263,-5.376,7.51,15.0
74.211,-5.582,7.403,4.0
71.155,-5.337,6.704,22.0
0.0,0.0,0.0,0.0
69.797,-5.227,8.168,28.0
71.275,-5.322,7.944,32.0
70.996,-5.283,7.519,29.0
68.03,-5.047,6.821,19.0
76.125,-5.63,7.211,3.0
70.977,-5.234,6.331,7.0
69.682,-5.146,8.19,29.0
71.063,-5.231,7.956,42.0
71.206,-5.225,7.576,45.0
68.044,-4.977,6.854,35.0
73.53,-5.361,6.999,9.0
70.926,-5.155,6.359,26.0
70.21,-5.11,8.284,40.0
70.818,-5.137,7.961,34.0
71.624,-5.178,7.652,38.0
68.032,-4.902,6.882,34.0
73.354,-5.269,7.013,11.0
71.198,-5.098,6.413,11.0
70.073,-5.023,8.297,41.0
70.645,-5.048,7.969,37.0
70.214,-4.999,7.529,23.0
68.056,-4.829,6.912,23.0
72.963,-5.161,7.004,12.0
72.77,-5.13,6.581,9.0
69.958,-4.937,8.31,47.0
70.782,-4.978,8.011,25.0
70.377,-4.932,7.572,19.0
70.662,-4.936,7.201,15.0
69.365,-4.829,6.682,22.0
73.033,-5.068,6.629,25.0
70.097,-4.869,8.349,29.0
69.728,-4.826,7.914,9.0
71.019,-4.897,7.663,19.0
70.647,-4.854,7.221,9.0
69.558,-4.764,6.721,27.0
73.178,-4.993,6.664,20.0
70.026,-4.783,8.361,33.0
69.905,-4.757,7.954,39.0
71.118,-4.822,7.693,22.0
70.705,-4.777,7.245,6.0
69.564,-4.683,6.74,10.0
69.658,-4.673,6.36,14.0
70.105,-4.706,8.388,18.0
70.508,-4.715,8.039,47.0
73.205,-4.878,7.936,7.0
59.538,-3.952,6.114,20.0
63.993,-4.232,6.214,29.0
64.128,-4.226,5.869,22.0
70.31,-4.637,8.426,35.0
70.902,-4.657,8.098,31.0
70.218,-4.595,7.625,16.0
59.511,-3.879,6.122,29.0
64.068,-4.161,6.232,33.0
64.04,-4.144,5.871,36.0
70.408,-4.559,8.449,29.0
70.98,-4.578,8.118,26.0
70.468,-4.527,7.662,30.0
59.465,-3.805,6.125,34.0
63.979,-4.078,6.232,7.0
64.031,-4.066,5.878,35.0
69.811,-4.435,8.386,34.0
70.51,-4.461,8.071,17.0
70.431,-4.437,7.666,27.0
59.464,-3.731,6.131,28.0
59.213,-3.701,5.772,33.0
64.023,-3.987,5.882,36.0
69.759,-4.344,8.385,19.0
70.138,-4.349,8.034,21.0
70.257,-4.339,7.651,23.0
59.591,-3.665,6.147,18.0
59.127,-3.622,5.766,32.0
64.005,-3.905,5.883,34.0
65.485,-3.996,7.873,6.0
58.872,-3.578,6.744,13.0
59.079,-3.574,6.434,33.0
59.319,-3.575,6.119,34.0
59.122,-3.548,5.766,32.0
63.954,-3.822,5.877,33.0
65.364,-3.906,7.857,36.0
58.8,-3.498,6.735,33.0
58.876,-3.488,6.41,33.0
58.515,-3.451,6.034,33.0
58.659,-3.445,5.718,33.0
59.26,-3.466,5.443,26.0
64.938,-3.797,7.802,37.0
58.801,-3.423,6.73,33.0
58.749,-3.405,6.392,33.0
58.234,-3.361,6.0,32.0
58.188,-3.344,5.667,31.0
59.142,-3.384,5.426,25.0
65.054,-3.721,7.809,32.0
51.96,-2.958,5.941,15.0
59.049,-3.347,6.417,33.0
58.257,-3.287,5.995,32.0
58.141,-3.267,5.654,31.0
58.616,-3.279,5.369,33.0
64.78,-3.622,7.766,22.0
51.981,-2.893,5.936,25.0
59.357,-3.289,6.44,29.0
58.311,-3.216,5.99,33.0
57.698,-3.168,5.6,32.0
57.822,-3.16,5.286,34.0
51.863,-2.833,6.207,20.0
51.91,-2.822,5.917,27.0
59.18,-3.201,6.409,33.0
58.579,-3.155,6.005,33.0
57.021,-3.056,5.522,30.0
57.042,-3.044,5.201,31.0
51.885,-2.765,6.197,19.0
51.913,-2.754,5.904,29.0
58.362,-3.081,6.305,32.0
56.678,-2.978,5.795,14.0
56.912,-2.976,5.496,28.0
57.077,-2.97,5.188,31.0
51.91,-2.698,6.185,30.0
51.886,-2.684,5.886,24.0
58.341,-3.003,6.285,32.0
56.719,-2.905,5.781,22.0
56.754,-2.893,5.463,30.0
56.911,-2.888,5.155,30.0
51.858,-2.627,6.162,26.0
51.943,-2.618,5.875,22.0
58.295,-2.924,6.26,32.0
56.508,-2.821,5.74,12.0
56.55,-2.808,5.423,32.0
56.951,-2.815,5.138,29.0
51.869,-2.559,6.143,32.0
51.845,-2.545,5.843,25.0
46.963,-2.293,5.025,12.0
56.481,-2.744,5.715,15.0
56.57,-2.735,5.401,10.0
57.193,-2.751,5.136,23.0
51.787,-2.486,6.112,40.0
51.837,-2.475,5.82,25.0
46.927,-2.229,5.0,24.0
46.748,-2.209,4.709,29.0
47.058,-2.213,4.472,25.0
57.578,-2.694,5.144,9.0
51.979,-2.426,6.11,22.0
51.847,-2.407,5.797,25.0
46.883,-2.165,4.973,44.0
46.701,-2.145,4.681,32.0
46.918,-2.144,4.435,35.0
44.371,-2.017,3.942,29.0
51.7,-2.344,6.05,26.0
51.78,-2.335,5.762,32.0
46.856,-2.101,4.945,28.0
46.694,-2.083,4.656,37.0
46.643,-2.07,4.384,31.0
44.274,-1.954,3.909,34.0
51.762,-2.279,6.029,26.0
51.669,-2.262,5.721,36.0
46.786,-2.037,4.911,38.0
46.498,-2.014,4.609,31.0
46.618,-2.008,4.355,35.0
44.264,-1.896,3.882,42.0
57.767,-2.467,6.693,7.0
51.885,-2.203,5.712,25.0
46.813,-1.976,4.885,34.0
46.429,-1.949,4.574,41.0
46.438,-1.939,4.308,29.0
44.382,-1.843,3.864,35.0
44.923,-1.859,5.176,42.0
52.539,-2.162,5.75,7.0
52.599,-2.152,5.454,26.0
46.355,-1.886,4.536,31.0
46.138,-1.866,4.25,7.0
44.428,-1.787,3.838,31.0
44.901,-1.799,5.142,41.0
52.65,-2.097,5.726,19.0
52.838,-2.092,5.442,21.0
46.504,-1.83,4.517,23.0
44.237,-1.731,4.043,35.0
46.459,-1.808,3.98,4.0
44.863,-1.738,5.105,31.0
51.988,-2.002,5.615,25.0
53.031,-2.031,5.422,7.0
46.692,-1.777,4.5,36.0
44.189,-1.671,4.005,35.0
44.185,-1.661,3.751,34.0
44.691,-1.673,5.05,44.0
51.428,-1.913,5.514,14.0
52.624,-1.946,5.338,7.0
46.658,-1.715,4.459,30.0
44.154,-1.613,3.966,45.0
43.989,-1.597,3.699,40.0
44.768,-1.617,5.021,34.0
44.748,-1.606,4.76,37.0
52.774,-1.883,5.309,26.0
46.53,-1.65,4.408,21.0
44.171,-1.556,3.931,37.0
43.852,-1.536,3.65,36.0
44.656,-1.555,4.97,41.0
45.038,-1.559,4.752,27.0
56.192,-1.932,5.604,6.0
46.789,-1.599,4.391,30.0
44.015,-1.494,3.877,33.0
43.867,-1.48,3.612,36.0
44.512,-1.493,4.914,19.0
44.465,-1.482,4.651,45.0
46.683,-1.546,4.613,20.0
43.836,-1.442,4.073,18.0
43.826,-1.432,3.82,35.0
43.774,-1.422,3.563,37.0
44.118,-1.423,4.828,34.0
44.614,-1.43,4.623,46.0
43.776,-1.393,4.282,18.0
43.959,-1.39,4.042,19.0
43.818,-1.377,3.776,41.0
43.797,-1.367,3.522,45.0
43.786,-1.357,4.747,42.0
44.724,-1.377,4.59,44.0
43.657,-1.335,4.227,36.0
44.002,-1.336,4.001,19.0
43.704,-1.318,3.722,48.0
43.877,-1.314,3.483,45.0
43.791,-1.302,4.702,43.0
44.606,-1.317,4.53,19.0
43.596,-1.278,4.175,25.0
43.514,-1.267,3.911,42.0
43.812,-1.267,3.684,45.0
43.908,-1.261,3.439,41.0
43.782,-1.248,4.654,44.0
44.654,-1.263,4.487,22.0
43.538,-1.222,4.122,37.0
43.563,-1.215,3.867,36.0
43.777,-1.212,3.633,44.0
44.231,-1.216,3.416,44.0
43.744,-1.193,4.6,46.0
45.653,-1.235,4.536,3.0
43.529,-1.17,4.072,30.0
43.527,-1.161,3.815,43.0
43.83,-1.16,3.587,34.0
47.397,-1.245,3.606,4.0
43.779,-1.14,4.553,50.0
0.0,0.0,0.0,0.0
43.708,-1.121,4.037,42.0
43.495,-1.107,3.761,28.0
43.718,-1.105,3.527,43.0
44.723,-1.122,3.349,20.0
43.739,-1.087,4.496,36.0
43.843,-1.081,4.252,18.0
43.032,-1.053,3.923,38.0
43.844,-1.064,3.738,30.0
43.831,-1.056,3.482,34.0
44.964,-1.075,3.312,17.0
43.451,-1.028,4.412,45.0
43.875,-1.03,4.199,22.0
42.946,-1.0,3.861,42.0
43.707,-1.01,3.671,28.0
44.119,-1.011,3.449,18.0
45.142,-1.027,3.268,24.0
43.453,-0.978,4.357,36.0
43.411,-0.969,4.099,18.0
43.059,-0.953,3.815,42.0
43.252,-0.949,3.576,35.0
44.765,-0.975,3.442,22.0
44.956,-0.971,3.196,24.0
43.411,-0.927,4.294,41.0
42.737,-0.905,3.979,44.0
42.678,-0.896,3.724,41.0
43.003,-0.895,3.498,45.0
44.98,-0.928,3.398,36.0
51.249,-1.049,3.574,5.0
43.375,-0.877,4.231,45.0
42.242,-0.847,3.874,40.0
42.98,-0.854,3.691,44.0
42.897,-0.845,3.43,41.0
45.125,-0.881,3.347,25.0
0.0,0.0,0.0,0.0
0.0,0.0,0.0,0.0
42.148,-0.798,3.807,36.0
42.827,-0.804,3.619,37.0
42.834,-0.797,3.366,41.0
48.547,-0.896,3.532,10.0
48.572,-0.888,3.252,33.0
43.921,-0.792,4.16,4.0
41.983,-0.75,3.732,42.0
42.755,-0.757,3.551,41.0
42.873,-0.752,3.306,46.0
48.477,-0.842,3.456,19.0
0.0,0.0,0.0,0.0
42.077,-0.714,3.924,33.0
42.067,-0.707,3.677,44.0
42.681,-0.71,3.481,44.0
42.947,-0.708,3.249,40.0
48.436,-0.791,3.382,32.0
0.0,0.0,0.0,0.0
41.978,-0.668,3.851,46.0
42.305,-0.667,3.634,30.0
42.374,-0.662,3.393,37.0
42.739,-0.661,3.168,31.0
48.415,-0.742,3.308,39.0
61.561,-0.934,3.849,8.0
42.071,-0.628,3.796,38.0
42.628,-0.63,3.597,37.0
42.375,-0.62,3.329,41.0
48.399,-0.701,3.514,4.0
48.449,-0.694,3.236,38.0
61.759,-0.876,3.765,10.0
41.917,-0.584,3.716,44.0
0.0,0.0,0.0,0.0
42.135,-0.575,3.243,43.0
48.162,-0.65,3.421,15.0
48.516,-0.648,3.164,31.0
73.526,-0.972,4.367,4.0
41.942,-0.544,3.651,33.0
42.424,-0.544,3.445,35.0
42.405,-0.538,3.195,42.0
48.586,-0.61,3.372,15.0
48.565,-0.603,3.088,38.0
60.696,-0.745,3.506,10.0
41.897,-0.504,3.578,30.0
42.258,-0.502,3.361,41.0
42.366,-0.498,3.123,38.0
48.274,-0.561,3.272,22.0
48.493,-0.558,3.004,21.0
60.548,-0.688,3.398,28.0
41.848,-0.465,3.505,46.0
42.025,-0.461,3.273,38.0
42.517,-0.462,3.063,40.0
48.146,-0.517,3.182,41.0
60.893,-0.645,3.67,8.0
60.472,-0.633,3.292,17.0
41.952,-0.429,3.441,37.0
42.04,-0.424,3.203,39.0
46.008,-0.459,3.235,39.0
48.493,-0.478,3.122,22.0
60.612,-0.59,3.549,15.0
77.785,-0.749,4.103,5.0
41.993,-0.394,3.373,43.0
42.092,-0.39,3.134,44.0
48.13,-0.44,3.302,30.0
48.68,-0.439,3.051,22.0
60.748,-0.541,3.453,8.0
86.071,-0.757,4.391,9.0
41.928,-0.359,3.294,49.0
42.653,-0.36,3.102,37.0
48.366,-0.403,3.234,22.0
60.643,-0.498,3.694,8.0
60.701,-0.492,3.343,15.0
81.175,-0.649,3.998,9.0
42.061,-0.326,3.23,47.0
45.973,-0.351,3.261,5.0
48.215,-0.363,3.137,32.0
60.866,-0.452,3.598,12.0
60.724,-0.444,3.236,2.0
95.822,-0.691,4.546,10.0
42.152,-0.294,3.16,45.0
48.381,-0.333,3.344,22.0
48.17,-0.326,3.047,14.0
60.624,-0.405,3.474,6.0
77.892,-0.512,4.01,10.0
95.883,-0.621,4.377,16.0
46.002,-0.288,3.365,9.0
48.255,-0.297,3.247,22.0
60.896,-0.369,3.741,14.0
60.754,-0.362,3.37,8.0
81.256,-0.476,4.032,8.0
95.443,-0.55,4.179,24.0
45.943,-0.255,3.275,33.0
48.133,-0.262,3.149,31.0
60.627,-0.325,3.612,12.0
77.696,-0.409,4.166,13.0
80.847,-0.418,3.862,10.0
189.826,-0.967,7.961,59.0
48.284,-0.235,3.352,34.0
60.167,-0.288,3.823,13.0
60.696,-0.285,3.502,11.0
77.678,-0.358,4.019,25.0
96.226,-0.436,4.417,9.0
117.351,-0.521,4.702,19.0
48.265,-0.204,3.259,34.0
