X,Y,Z,Reflectivity
40.682,0.708,3.614,45.0
40.9,0.715,3.395,38.0
40.902,0.717,3.157,36.0
40.924,0.729,4.292,41.0
41.164,0.735,4.076,37.0
41.185,0.737,3.837,39.0
40.822,0.732,3.56,33.0
40.766,0.733,3.318,36.0
40.92,0.738,3.093,41.0
40.942,0.749,4.227,39.0
41.162,0.755,4.008,38.0
40.957,0.753,3.748,38.0
40.815,0.752,3.493,40.0
40.858,0.754,3.259,29.0
40.934,0.758,3.026,41.0
41.071,0.771,4.171,40.0
40.97,0.771,3.921,39.0
40.789,0.768,3.665,39.0
40.951,0.773,3.437,45.0
40.875,0.773,3.192,44.0
41.032,0.778,2.965,35.0
41.433,0.796,4.138,23.0
40.921,0.787,3.847,39.0
40.88,0.788,3.604,40.0
40.878,0.789,3.361,40.0
40.967,0.792,3.13,39.0
40.915,0.792,2.888,26.0
41.153,0.807,4.04,42.0
40.694,0.799,3.756,41.0
40.812,0.802,3.529,32.0
40.77,0.803,3.282,44.0
40.931,0.806,3.056,42.0
41.219,0.813,2.838,8.0
73.702,1.534,4.882,5.0
70.116,1.454,4.233,8.0
82.059,1.696,4.475,8.0
85.323,1.758,4.146,22.0
85.336,1.752,3.651,16.0
85.363,1.747,3.154,20.0
83.567,1.716,5.37,10.0
70.22,1.437,4.101,3.0
84.81,1.729,4.457,15.0
85.363,1.734,3.981,26.0
78.814,1.595,3.216,18.0
91.771,1.851,3.209,14.0
74.828,1.513,4.659,9.0
72.862,1.467,4.11,4.0
85.352,1.712,4.317,23.0
85.395,1.706,3.811,24.0
85.43,1.7,3.315,12.0
91.82,1.821,3.028,29.0
74.6,1.482,4.496,11.0
82.103,1.624,4.468,22.0
85.412,1.683,4.149,24.0
78.771,1.545,3.359,11.0
91.667,1.79,3.374,29.0
91.823,1.785,2.846,31.0
80.831,1.574,4.71,6.0
91.45,1.773,4.795,15.0
85.471,1.65,3.983,17.0
91.513,1.758,3.721,13.0
91.767,1.755,3.196,28.0
91.809,1.747,2.663,27.0
81.423,1.551,4.583,6.0
91.42,1.733,4.612,9.0
91.467,1.725,4.08,11.0
91.641,1.72,3.545,16.0
91.815,1.714,3.017,31.0
91.78,1.705,2.481,27.0
72.896,1.354,3.958,3.0
85.518,1.58,4.144,13.0
78.787,1.449,3.359,21.0
70.094,1.281,2.572,9.0
91.84,1.67,2.835,32.0
91.838,1.661,2.3,34.0
91.473,1.654,4.785,18.0
91.616,1.646,4.257,21.0
120.408,2.151,4.893,7.0
91.878,1.632,3.188,22.0
91.832,1.621,2.652,26.0
91.83,1.612,2.117,36.0
85.539,1.5,4.303,10.0
78.719,1.371,3.501,9.0
70.152,1.214,2.71,6.0
91.992,1.582,3.008,18.0
91.851,1.57,2.469,31.0
91.858,1.56,1.935,35.0
92.265,1.563,4.457,12.0
78.765,1.326,3.346,7.0
120.762,2.019,4.426,15.0
91.982,1.527,2.826,12.0
91.931,1.515,2.289,28.0
91.893,1.504,1.754,34.0
78.732,1.285,3.647,5.0
120.427,1.951,4.876,17.0
70.062,1.127,2.428,11.0
92.037,1.469,2.645,6.0
92.0,1.457,2.108,12.0
91.961,1.445,1.572,29.0
78.73,1.233,3.49,13.0
69.868,1.085,2.69,17.0
120.23,1.852,3.928,13.0
119.889,1.833,3.208,10.0
119.939,1.818,2.511,19.0
92.038,1.383,1.391,12.0
98.221,1.47,4.161,14.0
120.324,1.785,4.396,11.0
98.504,1.448,3.024,21.0
98.609,1.437,2.445,27.0
98.743,1.426,1.873,24.0
98.629,1.411,1.295,26.0
98.239,1.397,3.966,14.0
70.059,0.986,2.42,9.0
98.484,1.374,2.828,30.0
98.579,1.361,2.246,27.0
98.587,1.348,1.673,32.0
98.567,1.335,1.101,28.0
98.31,1.322,3.777,18.0
69.768,0.928,2.274,13.0
98.543,1.298,2.638,34.0
98.569,1.284,2.056,31.0
98.473,1.268,1.48,28.0
98.496,1.254,0.907,22.0
69.789,0.882,2.545,10.0
98.508,1.23,3.018,28.0
98.53,1.216,2.445,35.0
98.528,1.202,1.863,33.0
98.524,1.188,1.291,30.0
98.16,1.169,0.716,10.0
78.649,-7.672,2.791,30.0
103.753,-10.088,3.115,7.0
78.337,-7.592,1.925,12.0
119.228,-11.517,2.268,51.0
119.04,-11.463,1.616,15.0
86.24,-8.279,0.7,4.0
74.358,-7.14,2.679,17.0
103.615,-9.915,3.17,9.0
119.217,-11.371,2.995,16.0
193.204,-18.368,3.779,17.0
119.133,-11.29,1.68,14.0
111.021,-10.487,0.96,7.0
78.56,-7.422,2.872,34.0
104.297,-9.818,3.243,12.0
119.197,-11.184,3.056,7.0
119.269,-11.152,2.394,16.0
135.536,-12.631,1.979,150.0
111.229,-10.331,1.018,8.0
70.972,-6.593,2.63,16.0
72.076,-6.671,2.276,5.0
75.478,-6.961,1.971,13.0
119.272,-10.962,2.451,29.0
135.591,-12.419,2.044,44.0
111.471,-10.175,1.07,12.0
77.803,-7.102,2.918,8.0
78.73,-7.159,2.523,7.0
75.49,-6.84,2.005,25.0
119.247,-10.766,2.502,3.0
135.643,-12.202,2.103,113.0
112.961,-10.127,1.134,3.0
72.354,-6.487,2.744,7.0
74.724,-6.674,2.425,4.0
74.041,-6.588,1.997,7.0
72.82,-6.454,1.557,11.0
135.698,-11.984,2.158,150.0
114.715,-10.095,1.197,9.0
67.976,-5.981,2.605,40.0
71.881,-6.3,2.36,5.0
119.237,-10.411,3.261,17.0
119.224,-10.369,2.594,52.0
119.236,-10.33,1.941,73.0
114.804,-9.909,1.238,7.0
67.956,-5.865,2.629,54.0
67.963,-5.842,2.255,6.0
119.273,-10.211,3.302,12.0
119.277,-10.172,2.636,32.0
119.304,-10.135,1.981,46.0
119.054,-10.074,1.323,7.0
67.954,-5.749,2.65,49.0
67.898,-5.721,2.274,9.0
72.813,-6.11,2.038,7.0
72.902,-6.092,1.633,13.0
126.484,-10.528,2.137,70.0
119.121,-9.875,1.358,16.0
67.95,-5.632,2.669,54.0
67.913,-5.604,2.293,12.0
74.901,-6.155,2.117,8.0
119.323,-9.764,2.703,97.0
126.512,-10.311,2.171,40.0
119.17,-9.673,1.388,19.0
71.347,-5.79,2.82,12.0
72.14,-5.828,2.453,22.0
74.906,-6.025,2.134,4.0
72.509,-5.807,1.659,30.0
126.492,-10.088,2.198,21.0
119.253,-9.47,1.415,11.0
72.616,-5.764,2.885,12.0
67.922,-5.368,2.323,9.0
67.911,-5.343,1.949,43.0
67.882,-5.317,1.566,81.0
67.867,-5.292,1.191,93.0
67.876,-5.271,0.818,81.0
67.925,-5.271,2.71,82.0
67.918,-5.246,2.334,51.0
67.91,-5.222,1.959,19.0
72.696,-5.565,1.688,8.0
119.369,-9.096,2.114,150.0
119.26,-9.047,1.455,18.0
67.924,-5.149,2.719,42.0
67.877,-5.121,2.342,25.0
71.634,-5.379,2.075,35.0
119.32,-8.918,2.786,27.0
119.35,-8.878,2.127,31.0
20.026,-1.483,0.246,12.0
67.909,-5.024,2.726,59.0
67.872,-4.997,2.348,30.0
20.028,-1.467,0.582,3.0
20.012,-1.459,0.468,8.0
19.999,-1.451,0.357,10.0
20.03,-1.446,0.247,26.0
67.919,-4.901,2.73,60.0
20.045,-1.439,0.694,6.0
20.001,-1.428,0.582,9.0
20.002,-1.421,0.469,9.0
20.02,-1.415,0.359,10.0
20.046,-1.411,0.248,8.0
22.608,0.762,-0.689,0.0
20.135,0.682,-0.73,0.0
18.147,0.617,-0.763,0.0
16.509,0.564,-0.791,0.0
15.191,0.521,-0.816,0.0
13.949,0.48,-0.83,0.0
21.67,0.747,-0.699,0.0
19.41,0.672,-0.739,0.0
17.626,0.612,-0.773,0.0
15.946,0.556,-0.794,0.0
14.666,0.514,-0.815,0.0
13.62,0.479,-0.836,0.0
20.924,0.737,-0.714,0.0
18.681,0.66,-0.746,0.0
16.901,0.599,-0.773,0.0
15.522,0.553,-0.801,0.0
14.312,0.511,-0.822,0.0
13.314,0.477,-0.842,0.0
20.04,0.72,-0.721,0.0
18.134,0.653,-0.758,0.0
16.603,0.6,-0.79,0.0
15.081,0.547,-0.806,0.0
14.049,0.511,-0.833,0.0
13.044,0.476,-0.849,0.0
19.501,0.713,-0.738,0.0
17.673,0.648,-0.771,0.0
15.936,0.586,-0.788,0.0
14.705,0.543,-0.814,0.0
13.688,0.507,-0.837,0.0
12.67,0.471,-0.848,0.0
18.714,0.695,-0.742,0.0
17.045,0.635,-0.775,0.0
15.647,0.585,-0.802,0.0
14.365,0.539,-0.821,0.0
13.325,0.501,-0.839,0.0
12.323,0.465,-0.848,0.0
18.247,0.688,-0.757,0.0
16.623,0.629,-0.787,0.0
15.181,0.576,-0.806,0.0
13.963,0.531,-0.824,0.0
13.071,0.499,-0.848,0.0
12.007,0.459,-0.848,0.0
17.671,0.676,-0.766,0.0
16.106,0.618,-0.792,0.0
14.835,0.57,-0.815,0.0
13.73,0.529,-0.836,0.0
12.658,0.489,-0.844,0.0
11.73,0.454,-0.85,0.0
17.1,0.662,-0.773,0.0
15.614,0.606,-0.796,0.0
14.414,0.561,-0.819,0.0
13.444,0.524,-0.843,0.0
12.346,0.483,-0.846,0.0
11.461,0.449,-0.852,0.0
16.648,0.652,-0.783,0.0
15.231,0.598,-0.804,0.0
14.044,0.553,-0.823,0.0
13.033,0.514,-0.841,0.0
12.054,0.476,-0.848,0.0
11.302,0.448,-0.861,0.0
16.169,0.64,-0.79,0.0
14.9,0.591,-0.814,0.0
13.807,0.549,-0.835,0.0
12.753,0.508,-0.847,0.0
11.75,0.469,-0.848,0.0
11.111,0.444,-0.867,0.0
15.637,0.624,-0.792,0.0
14.504,0.58,-0.819,0.0
13.431,0.539,-0.837,0.0
12.381,0.497,-0.844,0.0
11.529,0.464,-0.853,0.0
10.93,0.441,-0.873,0.0
15.277,0.615,-0.802,0.0
14.146,0.57,-0.825,0.0
13.099,0.529,-0.84,0.0
12.099,0.49,-0.847,0.0
11.31,0.459,-0.858,0.0
10.668,0.433,-0.871,0.0
14.973,0.607,-0.813,0.0
13.808,0.561,-0.83,0.0
12.847,0.522,-0.847,0.0
11.786,0.48,-0.846,0.0
11.142,0.455,-0.865,0.0
10.484,0.429,-0.875,0.0
14.564,0.594,-0.817,0.0
13.483,0.551,-0.835,0.0
12.429,0.508,-0.842,0.0
11.562,0.474,-0.851,0.0
10.966,0.45,-0.871,0.0
10.331,0.425,-0.881,0.0
14.186,0.581,-0.821,0.0
13.19,0.541,-0.84,0.0
12.132,0.498,-0.843,0.0
11.357,0.467,-0.856,0.0
10.706,0.441,-0.87,0.0
10.18,0.42,-0.886,0.0
8.414,-0.059,-0.924,0.0
8.045,-0.058,-0.928,0.0
7.718,-0.057,-0.933,0.0
0.0,0.0,0.0,0.0
7.179,-0.056,-0.948,0.0
6.96,-0.055,-0.958,0.0
8.452,-0.068,-0.923,0.0
8.121,-0.067,-0.932,0.0
7.792,-0.066,-0.937,0.0
0.0,0.0,0.0,0.0
7.164,-0.063,-0.942,0.0
6.963,-0.063,-0.954,0.0
8.456,-0.077,-0.918,0.0
8.102,-0.075,-0.924,0.0
7.784,-0.074,-0.931,0.0
0.0,0.0,0.0,0.0
7.208,-0.071,-0.943,0.0
6.998,-0.07,-0.954,0.0
8.5,-0.086,-0.917,0.0
8.115,-0.084,-0.92,0.0
7.855,-0.082,-0.934,0.0
0.0,0.0,0.0,0.0
0.0,0.0,0.0,0.0
7.001,-0.078,-0.95,0.0
8.553,-0.095,-0.917,0.0
8.222,-0.093,-0.927,0.0
7.894,-0.091,-0.933,0.0
7.582,-0.089,-0.939,0.0
7.309,-0.087,-0.945,0.0
7.016,-0.085,-0.947,0.0
8.631,-0.105,-0.919,0.0
8.296,-0.102,-0.929,0.0
7.91,-0.099,-0.929,0.0
0.0,0.0,0.0,0.0
7.373,-0.095,-0.948,0.0
7.1,-0.093,-0.952,0.0
8.649,-0.114,-0.914,0.0
8.33,-0.111,-0.926,0.0
8.0,-0.108,-0.933,0.0
0.0,0.0,0.0,0.0
7.421,-0.103,-0.948,0.0
7.08,-0.1,-0.943,0.0
8.701,-0.123,-0.912,0.0
8.358,-0.12,-0.922,0.0
8.031,-0.116,-0.93,0.0
0.0,0.0,0.0,0.0
0.0,0.0,0.0,0.0
7.162,-0.108,-0.948,0.0
8.796,-0.133,-0.914,0.0
8.443,-0.129,-0.924,0.0
8.13,-0.126,-0.934,0.0
0.0,0.0,0.0,0.0
7.509,-0.119,-0.946,0.0
7.206,-0.115,-0.947,0.0
8.873,-0.142,-0.914,0.0
8.53,-0.138,-0.925,0.0
8.113,-0.133,-0.924,0.0
7.799,-0.129,-0.932,0.0
7.553,-0.126,-0.944,0.0
7.284,-0.123,-0.95,0.0
8.964,-0.152,-0.915,0.0
8.558,-0.146,-0.92,0.0
8.206,-0.142,-0.927,0.0
0.0,0.0,0.0,0.0
7.58,-0.134,-0.94,0.0
7.279,-0.13,-0.942,0.0
9.041,-0.161,-0.914,0.0
8.613,-0.155,-0.917,0.0
8.251,-0.15,-0.924,0.0
7.929,-0.146,-0.932,0.0
7.642,-0.142,-0.94,0.0
7.356,-0.138,-0.945,0.0
9.073,-0.17,-0.907,0.0
8.736,-0.165,-0.921,0.0
8.346,-0.159,-0.925,0.0
8.044,-0.155,-0.936,0.0
7.688,-0.149,-0.937,0.0
7.411,-0.145,-0.944,0.0
9.156,-0.179,-0.906,0.0
8.804,-0.174,-0.919,0.0
8.425,-0.168,-0.925,0.0
8.137,-0.163,-0.938,0.0
0.0,0.0,0.0,0.0
7.493,-0.153,-0.946,0.0
9.254,-0.189,-0.905,0.0
8.929,-0.184,-0.921,0.0
8.467,-0.175,-0.92,0.0
8.088,-0.169,-0.923,0.0
7.853,-0.165,-0.939,0.0
7.573,-0.161,-0.947,0.0
9.346,-0.198,-0.903,0.0
9.011,-0.192,-0.92,0.0
8.591,-0.185,-0.923,0.0
8.24,-0.179,-0.931,0.0
7.905,-0.173,-0.936,0.0
7.612,-0.168,-0.942,0.0
9.463,-0.208,-0.903,0.0
9.075,-0.201,-0.915,0.0
8.678,-0.193,-0.922,0.0
8.31,-0.187,-0.928,0.0
8.005,-0.181,-0.938,0.0
7.674,-0.175,-0.941,0.0
9.561,-0.217,-0.901,0.0
9.148,-0.209,-0.911,0.0
8.829,-0.203,-0.927,0.0
8.377,-0.194,-0.925,0.0
8.014,-0.187,-0.929,0.0
7.777,-0.183,-0.943,0.0
9.684,-0.227,-0.9,0.0
9.258,-0.218,-0.91,0.0
8.848,-0.21,-0.918,0.0
8.454,-0.202,-0.923,0.0
8.092,-0.195,-0.927,0.0
7.848,-0.19,-0.942,0.0
9.767,-0.236,-0.895,0.0
9.346,-0.227,-0.907,0.0
9.026,-0.22,-0.924,0.0
0.0,0.0,0.0,0.0
8.248,-0.204,-0.934,0.0
7.904,-0.197,-0.938,0.0
9.9,-0.246,-0.895,0.0
9.426,-0.235,-0.902,0.0
9.102,-0.228,-0.92,0.0
0.0,0.0,0.0,0.0
8.269,-0.21,-0.925,0.0
7.991,-0.204,-0.937,0.0
10.015,-0.255,-0.891,0.0
9.561,-0.244,-0.902,0.0
9.154,-0.235,-0.913,0.0
0.0,0.0,0.0,0.0
8.363,-0.217,-0.924,0.0
8.043,-0.21,-0.932,0.0
10.152,-0.264,-0.89,0.0
9.697,-0.254,-0.901,0.0
9.278,-0.244,-0.912,0.0
8.891,-0.235,-0.922,0.0
8.498,-0.226,-0.927,0.0
8.131,-0.217,-0.931,0.0
10.266,-0.273,-0.885,0.0
9.797,-0.262,-0.897,0.0
9.329,-0.251,-0.903,0.0
8.983,-0.243,-0.919,0.0
8.565,-0.232,-0.922,0.0
8.231,-0.224,-0.93,0.0
10.411,-0.283,-0.882,0.0
9.904,-0.27,-0.892,0.0
9.503,-0.26,-0.906,0.0
9.112,-0.251,-0.918,0.0
8.711,-0.241,-0.925,0.0
8.364,-0.232,-0.933,0.0
10.538,-0.292,-0.877,0.0
10.032,-0.279,-0.888,0.0
9.648,-0.269,-0.906,0.0
9.202,-0.258,-0.914,0.0
8.814,-0.248,-0.922,0.0
8.425,-0.238,-0.926,0.0
10.72,-0.302,-0.876,0.0
10.221,-0.289,-0.889,0.0
9.722,-0.276,-0.898,0.0
9.288,-0.265,-0.908,0.0
8.919,-0.255,-0.919,0.0
8.552,-0.246,-0.927,0.0
10.9,-0.312,-0.874,0.0
10.334,-0.297,-0.883,0.0
9.852,-0.284,-0.894,0.0
9.437,-0.273,-0.908,0.0
9.035,-0.262,-0.917,0.0
8.65,-0.252,-0.924,0.0
11.025,-0.32,-0.867,0.0
10.481,-0.305,-0.879,0.0
9.976,-0.292,-0.89,0.0
9.583,-0.281,-0.906,0.0
9.152,-0.269,-0.914,0.0
8.743,-0.258,-0.92,0.0
11.228,-0.33,-0.865,0.0
10.667,-0.315,-0.878,0.0
10.166,-0.301,-0.89,0.0
9.718,-0.289,-0.903,0.0
9.292,-0.277,-0.913,0.0
8.926,-0.267,-0.924,0.0
11.407,-0.339,-0.86,0.0
10.861,-0.324,-0.876,0.0
10.333,-0.309,-0.888,0.0
9.819,-0.295,-0.897,0.0
9.426,-0.284,-0.911,0.0
8.97,-0.271,-0.914,0.0
11.623,-0.349,-0.857,0.0
10.996,-0.331,-0.869,0.0
10.477,-0.317,-0.883,0.0
9.974,-0.302,-0.894,0.0
9.555,-0.29,-0.907,0.0
9.171,-0.279,-0.919,0.0
119.727,-1.077,2.961,150.0
119.73,-1.102,2.337,150.0
119.744,-1.127,1.715,150.0
119.746,-1.153,1.08,150.0
0.0,0.0,0.0,0.0
0.0,0.0,0.0,0.0
209.311,-2.146,5.543,12.0
119.815,-1.252,2.549,6.0
119.695,-1.276,1.924,5.0
139.304,-1.513,1.501,8.0
125.04,-1.383,0.698,2.0
0.0,0.0,0.0,0.0
209.088,-2.397,5.903,20.0
210.607,-2.457,4.852,9.0
204.157,-2.421,3.641,15.0
0.0,0.0,0.0,0.0
139.189,-1.705,1.023,23.0
0.0,0.0,0.0,0.0
209.508,-2.651,6.289,10.0
206.422,-2.65,5.122,9.0
195.17,-2.543,3.83,6.0
139.148,-1.839,1.993,9.0
138.941,-1.862,1.269,14.0
127.639,-1.735,0.504,3.0
209.82,-2.895,6.674,12.0
113.127,-1.582,3.011,10.0
206.148,-2.918,4.413,16.0
139.062,-1.995,2.242,3.0
138.959,-2.019,1.52,9.0
138.823,-2.042,0.799,20.0
210.447,-3.137,7.073,6.0
112.545,-1.698,3.199,9.0
205.642,-3.14,4.779,7.0
193.842,-2.995,3.481,11.0
0.0,0.0,0.0,0.0
139.087,-2.197,1.055,14.0
112.792,-1.805,3.999,16.0
112.916,-1.825,3.417,5.0
112.587,-1.839,2.823,21.0
204.857,-3.382,4.053,20.0
139.018,-2.32,2.032,7.0
139.115,-2.344,1.312,18.0
112.71,-1.92,4.203,16.0
112.722,-1.938,3.617,12.0
112.568,-1.954,3.028,24.0
206.462,-3.619,4.465,9.0
193.149,-3.418,3.178,20.0
0.0,0.0,0.0,0.0
106.725,-1.925,4.176,10.0
112.556,-2.048,3.82,28.0
112.912,-2.072,3.246,19.0
205.675,-3.807,4.829,15.0
193.133,-3.606,3.536,25.0
0.0,0.0,0.0,0.0
106.743,-2.029,4.376,16.0
112.657,-2.159,4.035,22.0
112.899,-2.181,3.459,21.0
112.978,-2.199,2.864,16.0
193.748,-3.801,3.91,26.0
139.001,-2.747,2.086,5.0
95.381,-1.902,4.088,15.0
113.208,-2.274,4.265,12.0
112.722,-2.281,3.664,24.0
112.848,-2.299,3.072,7.0
205.598,-4.219,4.535,15.0
193.151,-3.991,3.261,13.0
95.424,-1.989,4.27,17.0
96.768,-2.03,3.829,15.0
113.167,-2.39,3.892,24.0
112.545,-2.392,3.277,22.0
205.556,-4.398,4.923,6.0
193.37,-4.162,3.632,19.0
80.838,-1.755,3.773,9.0
96.201,-2.101,3.99,17.0
113.299,-2.49,4.113,20.0
112.497,-2.486,3.491,22.0
0.0,0.0,0.0,0.0
193.361,-4.321,3.998,11.0
80.987,-1.825,3.933,18.0
96.232,-2.18,4.174,18.0
96.618,-2.201,3.691,9.0
113.06,-2.588,3.722,20.0
207.519,-4.777,5.759,5.0
118.045,-2.731,2.666,14.0
74.194,-1.73,3.744,29.0
81.688,-1.914,3.699,11.0
96.674,-2.275,3.876,15.0
113.183,-2.677,3.941,20.0
120.958,-2.875,3.587,4.0
118.107,-2.821,2.892,22.0
74.333,-1.788,3.893,25.0
81.19,-1.962,3.831,12.0
96.748,-2.349,4.064,13.0
106.344,-2.592,3.906,20.0
120.812,-2.958,3.814,21.0
118.295,-2.909,3.123,7.0
78.724,-1.95,4.275,15.0
74.091,-1.842,3.638,14.0
81.942,-2.046,3.6,14.0
96.699,-2.424,3.739,8.0
120.497,-3.033,4.037,20.0
207.314,-5.238,5.875,5.0
78.539,-1.999,4.417,25.0
74.146,-1.894,3.786,20.0
81.738,-2.095,3.75,12.0
101.811,-2.618,4.134,14.0
116.824,-3.015,4.139,11.0
120.841,-3.13,3.658,19.0
71.612,-1.868,4.167,8.0
81.429,-2.131,4.316,6.0
81.285,-2.133,3.887,30.0
94.587,-2.491,4.024,10.0
106.272,-2.807,3.972,11.0
120.445,-3.191,3.878,28.0
71.619,-1.91,4.306,5.0
65.612,-1.755,3.604,4.0
81.355,-2.183,4.048,32.0
94.685,-2.547,4.21,15.0
105.952,-2.858,4.163,17.0
120.237,-3.251,4.101,20.0
62.553,-1.703,3.881,11.0
65.601,-1.79,3.729,13.0
85.709,-2.345,4.427,6.0
81.161,-2.226,3.764,31.0
94.657,-2.602,3.901,12.0
116.937,-3.223,4.215,8.0
57.054,-1.582,3.65,16.0
71.504,-1.988,4.203,20.0
66.012,-1.839,3.538,10.0
81.402,-2.273,3.934,21.0
94.9,-2.656,4.096,13.0
106.14,-2.976,4.031,15.0
46.678,-1.317,3.076,30.0
56.911,-1.609,3.456,30.0
65.968,-1.868,3.663,24.0
80.548,-2.285,4.048,13.0
81.347,-2.312,3.666,36.0
106.276,-3.025,4.24,7.0
46.573,-1.334,3.16,32.0
56.85,-1.631,3.561,30.0
71.499,-2.054,4.108,15.0
66.103,-1.902,3.448,13.0
81.141,-2.339,3.812,38.0
94.629,-2.732,3.957,22.0
45.899,-1.333,3.202,32.0
45.845,-1.333,2.96,21.0
57.057,-1.661,3.387,30.0
66.025,-1.924,3.571,31.0
81.088,-2.366,3.965,41.0
81.377,-2.378,3.558,27.0
46.161,-1.357,3.309,20.0
46.487,-1.368,3.09,21.0
56.84,-1.674,3.483,31.0
65.643,-1.935,3.674,11.0
80.461,-2.374,4.086,21.0
81.206,-2.398,3.704,33.0
44.995,-1.336,3.311,26.0
46.045,-1.369,3.148,30.0
56.761,-1.688,3.586,28.0
56.995,-1.696,3.298,9.0
66.181,-1.971,3.487,16.0
81.174,-2.419,3.857,39.0
44.802,-1.343,3.382,36.0
46.129,-1.383,3.242,20.0
46.014,-1.381,2.994,31.0
56.969,-1.71,3.404,31.0
65.767,-1.975,3.589,7.0
80.916,-2.431,3.995,46.0
44.425,-1.342,3.437,23.0
45.557,-1.377,3.288,22.0
45.97,-1.389,3.078,26.0
56.841,-1.718,3.504,31.0
65.632,-1.984,3.705,27.0
80.401,-2.431,4.121,24.0
43.947,-1.336,3.484,42.0
44.781,-1.361,3.316,41.0
45.807,-1.392,3.153,44.0
56.702,-1.724,3.603,26.0
57.053,-1.734,3.328,23.0
79.466,-2.415,4.223,13.0
43.769,-1.338,3.552,48.0
44.728,-1.367,3.396,31.0
0.0,0.0,0.0,0.0
45.897,-1.401,3.002,29.0
56.998,-1.739,3.432,30.0
65.719,-2.005,3.615,20.0
43.842,-1.345,3.64,43.0
44.281,-1.358,3.445,20.0
44.713,-1.37,3.245,27.0
45.897,-1.406,3.088,42.0
56.842,-1.74,3.527,30.0
65.663,-2.009,3.733,21.0
78.811,2.145,3.508,32.0
78.792,2.13,3.052,33.0
78.829,2.116,2.597,30.0
78.878,2.103,2.134,32.0
78.911,2.089,1.679,34.0
78.919,2.074,1.223,32.0
78.829,2.059,3.371,31.0
78.834,2.043,2.914,29.0
78.971,2.032,2.463,14.0
119.97,3.064,3.036,17.0
119.982,3.041,2.344,12.0
85.343,2.146,1.174,9.0
190.004,4.747,7.794,8.0
78.884,1.955,2.779,24.0
85.289,2.097,2.512,24.0
85.285,2.08,2.01,28.0
85.29,2.063,1.518,32.0
85.268,2.046,1.026,30.0
85.302,2.031,3.352,12.0
85.243,2.012,2.857,29.0
85.221,1.996,2.365,32.0
85.242,1.979,1.865,40.0
85.233,1.962,1.373,39.0
85.248,1.945,0.881,31.0
78.891,1.784,2.966,21.0
85.261,1.91,2.712,39.0
85.262,1.892,2.22,35.0
85.254,1.874,1.718,42.0
85.255,1.856,1.226,39.0
85.24,1.838,0.734,21.0
85.314,1.821,3.06,32.0
85.338,1.804,2.568,28.0
85.356,1.787,2.077,28.0
85.36,1.769,1.576,25.0
85.41,1.752,1.085,26.0
85.225,1.73,0.592,13.0
91.771,1.844,3.14,28.0
91.822,1.824,2.611,25.0
87.393,1.717,1.981,8.0
87.367,1.698,1.468,33.0
91.956,1.767,1.015,8.0
84.762,1.611,0.448,9.0
91.83,1.725,2.99,31.0
91.82,1.705,2.461,36.0
91.8,1.684,1.93,18.0
91.827,1.664,1.393,7.0
91.847,1.644,0.864,30.0
77.783,1.375,0.283,5.0
91.895,1.603,2.842,16.0
91.883,1.583,2.312,35.0
91.867,1.561,1.782,38.0
91.869,1.54,1.243,45.0
91.818,1.518,0.714,21.0
77.497,1.264,0.156,1.0
92.108,1.481,2.699,4.0
189.638,3.004,4.464,15.0
91.972,1.435,1.634,21.0
91.991,1.415,1.097,24.0
91.946,1.393,0.567,9.0
75.717,1.13,0.032,1.0
98.551,1.447,2.731,26.0
98.641,1.424,2.165,27.0
98.555,1.399,1.596,31.0
98.581,1.377,1.019,26.0
85.264,1.17,0.39,12.0
0.0,0.0,0.0,0.0
98.542,1.305,2.575,32.0
98.56,1.281,2.008,30.0
98.485,1.256,1.44,29.0
98.466,1.231,0.863,17.0
81.214,0.996,0.245,5.0
0.0,0.0,0.0,0.0
98.58,1.16,2.422,26.0
98.57,1.135,1.855,30.0
98.552,1.11,1.286,28.0
98.215,1.083,0.708,10.0
80.835,0.871,0.119,4.0
0.0,0.0,0.0,0.0
98.754,1.015,2.275,16.0
98.735,0.989,1.707,19.0
98.683,0.965,1.14,26.0
97.963,0.932,0.558,6.0
0.0,0.0,0.0,0.0
52.927,0.477,-0.306,0.0
0.0,0.0,0.0,0.0
100.216,0.851,1.582,5.0
104.783,0.863,1.052,16.0
90.656,0.723,0.381,6.0
0.0,0.0,0.0,0.0
48.647,0.363,-0.354,0.0
104.895,0.755,2.103,13.0
0.0,0.0,0.0,0.0
104.899,0.7,0.898,26.0
86.68,0.555,0.236,5.0
0.0,0.0,0.0,0.0
45.904,0.269,-0.402,0.0
73.281,-8.681,3.545,26.0
73.826,-8.73,3.172,19.0
73.221,-8.644,2.75,26.0
78.387,-9.239,2.511,12.0
73.341,-8.631,1.952,8.0
73.481,-8.633,1.559,9.0
0.0,0.0,0.0,0.0
73.753,-8.658,3.233,29.0
73.321,-8.591,2.817,10.0
74.309,-8.692,2.445,11.0
86.622,-10.115,2.381,10.0
119.011,-13.875,2.628,7.0
71.89,-8.389,3.604,14.0
73.382,-8.547,3.281,42.0
72.603,-8.441,2.852,8.0
74.543,-8.651,2.516,13.0
78.313,-9.072,2.218,13.0
119.089,-13.772,2.73,5.0
71.961,-8.329,3.668,10.0
73.322,-8.471,3.338,31.0
72.667,-8.379,2.913,22.0
0.0,0.0,0.0,0.0
75.265,-8.646,2.194,15.0
75.05,-8.606,1.78,27.0
72.87,-8.363,3.774,19.0
73.405,-8.408,3.402,51.0
73.118,-8.358,2.99,12.0
72.947,-8.322,2.579,22.0
75.053,-8.545,2.247,27.0
74.072,-8.417,1.816,43.0
72.353,-8.23,3.803,16.0
73.522,-8.345,3.465,36.0
73.645,-8.342,3.07,18.0
74.165,-8.383,2.68,31.0
74.445,-8.398,2.286,9.0
74.38,-8.374,1.88,36.0
33.22,-3.743,1.771,3.0
0.0,0.0,0.0,0.0
72.42,-8.125,3.073,4.0
73.936,-8.278,2.727,40.0
74.781,-8.355,2.351,20.0
74.889,-8.35,1.947,37.0
33.19,-3.704,1.794,78.0
33.175,-3.694,1.612,64.0
33.165,-3.684,1.431,50.0
33.154,-3.675,1.246,42.0
33.158,-3.667,1.066,40.0
33.167,-3.66,0.886,38.0
33.185,-3.666,1.817,89.0
33.176,-3.656,1.635,79.0
33.163,-3.646,1.453,79.0
33.153,-3.637,1.269,80.0
33.153,-3.628,1.088,76.0
33.141,-3.619,0.907,80.0
33.21,-3.63,1.841,72.0
33.193,-3.619,1.658,66.0
33.184,-3.61,1.477,72.0
33.17,-3.6,1.291,73.0
33.165,-3.59,1.11,74.0
33.137,-3.579,0.929,79.0
70.169,-7.586,3.936,17.0
69.854,-7.533,3.535,13.0
74.835,-8.05,3.378,8.0
33.175,-3.559,1.313,8.0
33.172,-3.551,1.131,29.0
33.169,-3.542,0.95,59.0
70.328,-7.517,3.987,25.0
72.61,-7.74,3.719,6.0
71.475,-7.599,3.27,47.0
74.591,-7.91,2.997,9.0
72.349,-7.653,2.51,8.0
78.286,-8.261,2.289,11.0
70.324,-7.427,4.028,31.0
69.658,-7.336,3.608,24.0
71.857,-7.548,3.328,49.0
74.628,-7.819,3.04,12.0
78.138,-8.165,2.755,10.0
73.85,-7.697,2.2,10.0
69.206,-7.219,4.003,25.0
71.485,-7.436,3.741,24.0
72.012,-7.47,3.374,35.0
74.799,-7.738,3.087,37.0
72.702,-7.501,2.602,14.0
73.987,-7.613,2.243,18.0
69.327,-7.14,4.046,29.0
71.369,-7.329,3.772,10.0
72.047,-7.378,3.412,20.0
0.0,0.0,0.0,0.0
72.499,-7.382,2.63,16.0
74.307,-7.546,2.288,15.0
68.932,-7.006,4.056,8.0
71.36,-7.231,3.806,25.0
74.637,-7.541,3.57,25.0
71.033,-7.156,3.0,9.0
72.289,-7.262,2.656,33.0
78.58,-7.871,2.456,23.0
28.313,0.477,-0.616,0.0
24.235,0.41,-0.668,0.0
21.417,0.365,-0.715,0.0
18.9,0.324,-0.743,0.0
17.522,0.302,-0.791,0.0
15.762,0.273,-0.804,0.0
26.663,0.463,-0.633,0.0
23.174,0.405,-0.685,0.0
20.48,0.36,-0.725,0.0
18.369,0.325,-0.759,0.0
16.775,0.298,-0.791,0.0
15.224,0.272,-0.807,0.0
25.068,0.448,-0.645,0.0
22.163,0.398,-0.699,0.0
19.609,0.354,-0.733,0.0
17.644,0.32,-0.764,1.0
16.084,0.294,-0.79,0.0
14.807,0.272,-0.814,0.0
24.101,0.442,-0.669,0.0
21.281,0.392,-0.714,0.0
18.825,0.349,-0.741,0.0
17.144,0.319,-0.777,0.0
15.629,0.292,-0.799,0.0
14.426,0.271,-0.822,0.0
22.884,0.43,-0.68,0.0
20.393,0.384,-0.725,0.0
18.26,0.346,-0.756,0.0
16.632,0.316,-0.787,0.0
15.211,0.291,-0.809,0.0
14.033,0.269,-0.828,0.0
22.155,0.425,-0.703,0.0
19.477,0.375,-0.731,0.0
17.662,0.341,-0.766,0.0
16.19,0.314,-0.798,0.0
14.776,0.288,-0.815,0.0
13.687,0.268,-0.835,0.0
21.026,0.41,-0.708,0.0
18.907,0.37,-0.747,0.0
17.071,0.335,-0.774,0.0
15.651,0.309,-0.802,0.0
14.461,0.286,-0.826,0.0
13.366,0.266,-0.841,0.0
20.422,0.405,-0.728,0.0
18.199,0.362,-0.755,0.0
16.593,0.331,-0.785,0.0
15.141,0.303,-0.806,0.0
13.987,0.281,-0.826,0.0
13.071,0.263,-0.849,0.0
19.416,0.39,-0.731,0.0
17.672,0.356,-0.768,0.0
16.109,0.326,-0.794,0.0
14.765,0.299,-0.816,0.0
13.67,0.278,-0.835,0.0
12.629,0.258,-0.845,0.0
18.814,0.382,-0.745,0.0
17.069,0.348,-0.775,0.0
15.628,0.319,-0.801,0.0
14.373,0.295,-0.822,0.0
13.34,0.274,-0.841,0.0
12.292,0.253,-0.847,0.0
18.085,0.371,-0.752,0.0
16.595,0.341,-0.787,0.0
15.166,0.313,-0.807,0.0
13.863,0.287,-0.821,0.0
13.047,0.27,-0.848,0.0
11.955,0.248,-0.847,0.0
17.685,0.366,-0.77,0.0
16.018,0.332,-0.791,0.0
14.742,0.306,-0.814,0.0
13.559,0.282,-0.829,0.0
12.646,0.264,-0.847,0.0
11.667,0.244,-0.85,0.0
17.026,0.354,-0.775,0.0
15.553,0.324,-0.798,0.0
14.381,0.3,-0.822,0.0
13.353,0.279,-0.843,0.0
12.292,0.258,-0.847,0.0
11.421,0.24,-0.854,0.0
16.503,0.344,-0.783,0.0
15.148,0.317,-0.807,0.0
14.003,0.293,-0.828,0.0
12.992,0.273,-0.845,0.0
11.901,0.25,-0.844,0.0
11.255,0.237,-0.864,1.0
16.023,0.335,-0.791,0.0
14.726,0.308,-0.813,0.0
13.632,0.286,-0.832,0.0
12.628,0.265,-0.846,0.0
11.665,0.245,-0.85,0.0
11.055,0.233,-0.87,0.0
15.551,0.325,-0.798,0.0
14.384,0.301,-0.822,0.0
13.322,0.279,-0.839,0.0
12.276,0.258,-0.846,0.0
11.43,0.24,-0.854,0.0
10.814,0.227,-0.871,0.0
15.129,0.316,-0.804,0.0
13.932,0.291,-0.822,0.0
13.006,0.272,-0.843,0.0
11.923,0.25,-0.844,0.0
11.274,0.236,-0.864,0.0
10.574,0.222,-0.872,0.0
14.771,0.307,-0.813,0.0
13.609,0.283,-0.829,0.0
12.584,0.262,-0.839,0.0
11.658,0.243,-0.847,0.0
11.091,0.231,-0.871,0.0
10.395,0.217,-0.877,0.0
14.347,0.297,-0.817,0.0
13.37,0.277,-0.839,0.0
12.307,0.255,-0.844,0.0
11.443,0.237,-0.853,0.0
10.839,0.225,-0.871,0.0
10.233,0.212,-0.883,0.0
14.01,0.288,-0.824,0.0
13.094,0.269,-0.846,0.0
11.963,0.246,-0.843,0.0
11.277,0.232,-0.861,1.0
10.645,0.219,-0.875,0.0
10.066,0.207,-0.887,0.0
13.652,0.278,-0.828,0.0
12.635,0.257,-0.84,0.0
11.678,0.238,-0.844,0.0
11.092,0.226,-0.868,0.0
10.432,0.212,-0.877,0.0
9.938,0.202,-0.894,0.0
13.436,0.271,-0.839,0.0
12.39,0.249,-0.846,0.0
11.452,0.23,-0.848,0.0
10.87,0.219,-0.87,0.0
10.25,0.206,-0.88,0.0
9.776,0.196,-0.897,0.0
13.089,0.26,-0.841,0.0
12.041,0.239,-0.843,0.0
11.323,0.225,-0.859,1.0
10.674,0.212,-0.873,0.0
10.133,0.201,-0.888,0.0
9.709,0.192,-0.908,0.0
12.802,0.251,-0.845,0.0
11.722,0.229,-0.842,0.0
11.15,0.218,-0.866,0.0
10.429,0.204,-0.872,0.0
9.933,0.194,-0.888,0.0
9.482,0.185,-0.904,0.0
12.429,0.239,-0.842,0.0
11.499,0.221,-0.846,0.0
10.948,0.21,-0.869,0.0
10.3,0.198,-0.879,0.0
9.824,0.188,-0.896,0.0
9.319,0.178,-0.904,0.0
12.137,0.229,-0.843,0.0
11.384,0.215,-0.857,0.0
10.697,0.202,-0.868,0.0
10.174,0.191,-0.886,0.0
9.691,0.182,-0.9,0.0
9.223,0.173,-0.911,0.0
11.808,0.218,-0.84,0.0
11.219,0.207,-0.864,0.0
10.523,0.194,-0.872,0.0
9.98,0.184,-0.886,0.0
9.524,0.175,-0.901,0.0
9.094,0.167,-0.914,0.0
11.599,0.21,-0.845,0.0
11.047,0.199,-0.869,0.0
10.349,0.186,-0.874,0.0
9.877,0.177,-0.893,0.0
9.382,0.168,-0.903,0.0
8.93,0.159,-0.912,0.0
11.423,0.201,-0.851,0.0
10.772,0.189,-0.865,0.0
10.235,0.179,-0.882,0.0
9.701,0.169,-0.894,0.0
9.257,0.161,-0.907,0.0
8.834,0.153,-0.917,0.0
11.28,0.193,-0.859,0.0
10.643,0.181,-0.872,0.0
10.097,0.172,-0.887,0.0
9.622,0.163,-0.902,0.0
9.147,0.154,-0.911,0.0
8.707,0.147,-0.918,0.0
11.145,0.185,-0.866,0.0
10.442,0.172,-0.872,0.0
9.921,0.163,-0.887,0.0
9.45,0.155,-0.901,0.0
9.05,0.148,-0.915,0.0
8.633,0.141,-0.924,0.0
10.918,0.175,-0.866,0.0
10.291,0.164,-0.876,0.0
9.805,0.156,-0.892,0.0
9.33,0.148,-0.904,0.0
8.867,0.14,-0.911,0.0
8.474,0.133,-0.92,0.0
10.711,0.165,-0.866,0.0
10.152,0.156,-0.88,0.0
9.679,0.148,-0.895,0.0
9.231,0.141,-0.908,0.0
8.768,0.133,-0.914,0.0
8.353,0.126,-0.92,0.0
10.527,0.156,-0.867,0.0
10.035,0.148,-0.885,0.0
9.58,0.14,-0.9,0.0
9.093,0.133,-0.909,0.0
8.675,0.126,-0.917,0.0
8.294,0.12,-0.926,0.0
10.412,0.147,-0.873,0.0
9.895,0.139,-0.887,0.0
9.419,0.132,-0.899,0.0
0.0,0.0,0.0,0.0
8.578,0.119,-0.92,0.0
8.184,0.113,-0.926,0.0
10.296,0.139,-0.878,0.0
9.794,0.131,-0.892,0.0
9.345,0.124,-0.906,0.0
0.0,0.0,0.0,0.0
8.483,0.111,-0.922,0.0
8.058,0.105,-0.923,0.0
10.15,0.129,-0.88,0.0
9.726,0.123,-0.9,0.0
9.186,0.116,-0.903,0.0
8.816,0.11,-0.919,0.0
8.358,0.104,-0.92,0.0
8.015,0.099,-0.929,0.0
10.037,0.121,-0.884,0.0
9.585,0.114,-0.9,0.0
9.155,0.108,-0.913,0.0
0.0,0.0,0.0,0.0
8.307,0.097,-0.926,0.0
7.921,0.091,-0.929,0.0
9.894,0.111,-0.885,0.0
9.493,0.106,-0.904,0.0
9.021,0.1,-0.911,0.0
0.0,0.0,0.0,0.0
8.206,0.089,-0.926,0.0
7.818,0.084,-0.928,0.0
9.843,0.103,-0.893,0.0
9.351,0.097,-0.903,0.0
8.973,0.092,-0.918,0.0
0.0,0.0,0.0,0.0
0.0,0.0,0.0,0.0
7.799,0.077,-0.936,0.0
9.715,0.094,-0.894,0.0
9.24,0.088,-0.904,0.0
0.0,0.0,0.0,0.0
0.0,0.0,0.0,0.0
8.094,0.075,-0.934,0.0
7.732,0.07,-0.937,0.0
9.621,0.085,-0.897,0.0
9.118,0.079,-0.903,0.0
8.738,0.075,-0.916,0.0
8.316,0.07,-0.921,0.0
7.973,0.067,-0.93,0.0
7.618,0.063,-0.933,0.0
9.547,0.076,-0.902,0.0
9.021,0.071,-0.904,0.0
8.644,0.067,-0.917,0.0
8.267,0.063,-0.926,0.0
7.955,0.059,-0.937,0.0
7.611,0.056,-0.941,0.0
9.413,0.066,-0.9,0.0
9.005,0.062,-0.913,0.0
8.54,0.058,-0.916,0.0
0.0,0.0,0.0,0.0
7.834,0.051,-0.932,0.0
7.523,0.048,-0.939,0.0
9.276,0.057,-0.898,0.0
0.0,0.0,0.0,0.0
8.503,0.05,-0.921,0.0
8.035,0.046,-0.918,0.0
7.828,0.044,-0.94,0.0
7.494,0.041,-0.943,0.0
9.232,0.048,-0.903,0.0
8.855,0.045,-0.918,0.0
8.435,0.042,-0.923,0.0
7.98,0.039,-0.92,0.0
7.727,0.036,-0.936,0.0
7.446,0.034,-0.945,0.0
9.148,0.039,-0.905,0.0
8.812,0.036,-0.922,0.0
8.355,0.033,-0.923,0.0
0.0,0.0,0.0,0.0
7.661,0.028,-0.936,0.0
7.367,0.026,-0.943,0.0
9.115,0.03,-0.911,0.0
8.708,0.028,-0.92,0.0
8.343,0.025,-0.93,0.0
0.0,0.0,0.0,0.0
7.594,0.021,-0.935,0.0
7.304,0.019,-0.942,0.0
9.041,0.021,-0.912,0.0
8.542,0.018,-0.911,0.0
8.14,0.016,-0.915,0.0
0.0,0.0,0.0,0.0
7.581,0.013,-0.941,0.0
7.284,0.012,-0.946,0.0
8.938,0.012,-0.91,0.0
8.467,0.01,-0.911,0.0
8.181,0.008,-0.927,0.0
0.0,0.0,0.0,0.0
7.541,0.005,-0.943,0.0
0.0,0.0,0.0,0.0
8.883,0.003,-0.912,0.0
8.434,0.001,-0.915,0.0
8.084,0.0,-0.923,0.0
7.735,0.0,-0.929,0.0
7.492,-0.002,-0.943,0.0
7.226,-0.003,-0.952,0.0
8.807,-0.006,-0.912,0.0
8.4,-0.007,-0.918,0.0
8.034,-0.008,-0.924,0.0
0.0,0.0,0.0,0.0
0.0,0.0,0.0,0.0
7.084,-0.01,-0.939,0.0
8.77,-0.015,-0.915,0.0
8.433,-0.016,-0.928,0.0
7.989,-0.016,-0.925,0.0
7.641,-0.016,-0.93,0.0
0.0,0.0,0.0,0.0
7.081,-0.018,-0.944,0.0
8.714,-0.024,-0.916,0.0
8.34,-0.024,-0.924,0.0
7.999,-0.025,-0.933,0.0
0.0,0.0,0.0,0.0
0.0,0.0,0.0,0.0
7.014,-0.025,-0.94,0.0
8.622,-0.033,-0.912,0.0
8.259,-0.033,-0.921,0.0
7.966,-0.033,-0.934,0.0
7.561,-0.033,-0.931,0.0
0.0,0.0,0.0,0.0
7.029,-0.033,-0.947,0.0
8.585,-0.042,-0.914,0.0
8.262,-0.042,-0.927,0.0
7.849,-0.041,-0.926,0.0
7.607,-0.041,-0.942,0.0
0.0,0.0,0.0,0.0
0.0,0.0,0.0,0.0
8.534,-0.051,-0.914,0.0
8.17,-0.051,-0.922,0.0
7.837,-0.05,-0.929,0.0
7.518,-0.049,-0.936,0.0
0.0,0.0,0.0,0.0
0.0,0.0,0.0,0.0
8.485,-0.061,-0.914,0.0
8.124,-0.059,-0.921,0.0
7.804,-0.059,-0.93,0.0
0.0,0.0,0.0,0.0
7.189,-0.056,-0.94,0.0
6.943,-0.056,-0.948,0.0
8.469,-0.07,-0.917,0.0
8.107,-0.068,-0.924,0.0
7.78,-0.067,-0.931,0.0
0.0,0.0,0.0,0.0
7.188,-0.065,-0.944,0.0
6.956,-0.064,-0.953,0.0
8.456,-0.079,-0.92,0.0
8.104,-0.078,-0.927,0.0
7.728,-0.075,-0.929,0.0
7.434,-0.074,-0.937,0.0
7.154,-0.072,-0.943,0.0
0.0,0.0,0.0,0.0
8.43,-0.089,-0.92,0.0
8.071,-0.087,-0.927,0.0
7.724,-0.084,-0.932,0.0
7.438,-0.083,-0.94,0.0
7.176,-0.081,-0.948,0.0
0.0,0.0,0.0,0.0
8.413,-0.098,-0.922,0.0
8.059,-0.096,-0.929,0.0
7.732,-0.093,-0.936,0.0
0.0,0.0,0.0,0.0
0.0,0.0,0.0,0.0
0.0,0.0,0.0,0.0
8.387,-0.108,-0.922,0.0
8.048,-0.105,-0.931,0.0
0.0,0.0,0.0,0.0
0.0,0.0,0.0,0.0
0.0,0.0,0.0,0.0
0.0,0.0,0.0,0.0
8.313,-0.116,-0.917,0.0
8.023,-0.114,-0.93,0.0
0.0,0.0,0.0,0.0
0.0,0.0,0.0,0.0
0.0,0.0,0.0,0.0
6.79,-0.102,-0.943,0.0
8.377,-0.127,-0.926,0.0
8.016,-0.123,-0.931,0.0
7.608,-0.118,-0.927,0.0
0.0,0.0,0.0,0.0
7.108,-0.113,-0.948,0.0
6.79,-0.109,-0.945,0.0
8.333,-0.136,-0.923,0.0
7.944,-0.131,-0.925,0.0
7.695,-0.128,-0.939,0.0
0.0,0.0,0.0,0.0
0.0,0.0,0.0,0.0
0.0,0.0,0.0,0.0
8.308,-0.145,-0.921,0.0
7.964,-0.14,-0.928,0.0
7.628,-0.136,-0.932,0.0
0.0,0.0,0.0,0.0
0.0,0.0,0.0,0.0
0.0,0.0,0.0,0.0
8.303,-0.154,-0.922,0.0
7.991,-0.15,-0.932,0.0
7.694,-0.146,-0.941,0.0
0.0,0.0,0.0,0.0
0.0,0.0,0.0,0.0
0.0,0.0,0.0,0.0
8.303,-0.164,-0.923,0.0
7.929,-0.158,-0.926,0.0
0.0,0.0,0.0,0.0
0.0,0.0,0.0,0.0
7.066,-0.145,-0.946,0.0
0.0,0.0,0.0,0.0
8.312,-0.173,-0.924,0.0
7.939,-0.167,-0.927,0.0
0.0,0.0,0.0,0.0
0.0,0.0,0.0,0.0
0.0,0.0,0.0,0.0
0.0,0.0,0.0,0.0
8.264,-0.182,-0.918,0.0
7.96,-0.177,-0.929,0.0
0.0,0.0,0.0,0.0
0.0,0.0,0.0,0.0
7.072,-0.161,-0.946,0.0
6.8,-0.157,-0.949,0.0
8.313,-0.192,-0.923,0.0
7.972,-0.186,-0.93,0.0
7.672,-0.181,-0.938,0.0
0.0,0.0,0.0,0.0
7.073,-0.17,-0.946,0.0
0.0,0.0,0.0,0.0
8.333,-0.202,-0.925,0.0
8.006,-0.196,-0.933,0.0
0.0,0.0,0.0,0.0
0.0,0.0,0.0,0.0
0.0,0.0,0.0,0.0
6.801,-0.172,-0.947,0.0
8.353,-0.212,-0.926,0.0
7.976,-0.204,-0.929,0.0
0.0,0.0,0.0,0.0
0.0,0.0,0.0,0.0
0.0,0.0,0.0,0.0
6.835,-0.181,-0.951,0.0
8.347,-0.221,-0.923,0.0
8.014,-0.214,-0.931,0.0
0.0,0.0,0.0,0.0
0.0,0.0,0.0,0.0
0.0,0.0,0.0,0.0
6.826,-0.188,-0.948,0.0
8.358,-0.231,-0.923,0.0
8.018,-0.223,-0.93,0.0
7.72,-0.216,-0.939,0.0
0.0,0.0,0.0,0.0
0.0,0.0,0.0,0.0
6.876,-0.197,-0.953,0.0
8.335,-0.239,-0.918,0.0
8.022,-0.232,-0.928,0.0
7.694,-0.224,-0.933,0.0
0.0,0.0,0.0,0.0
0.0,0.0,0.0,0.0
0.0,0.0,0.0,0.0
8.389,-0.25,-0.921,0.0
8.052,-0.242,-0.929,0.0
0.0,0.0,0.0,0.0
0.0,0.0,0.0,0.0
0.0,0.0,0.0,0.0
6.889,-0.212,-0.95,0.0
8.39,-0.259,-0.918,0.0
8.063,-0.251,-0.927,0.0
0.0,0.0,0.0,0.0
0.0,0.0,0.0,0.0
0.0,0.0,0.0,0.0
6.967,-0.222,-0.957,0.0
8.453,-0.27,-0.921,0.0
8.067,-0.259,-0.924,0.0
7.778,-0.251,-0.934,0.0
0.0,0.0,0.0,0.0
0.0,0.0,0.0,0.0
6.942,-0.229,-0.951,0.0
8.48,-0.279,-0.92,0.0
8.134,-0.27,-0.928,0.0
7.778,-0.26,-0.93,0.0
0.0,0.0,0.0,0.0
0.0,0.0,0.0,0.0
6.957,-0.236,-0.949,0.0
8.519,-0.29,-0.92,0.0
8.164,-0.279,-0.927,0.0
7.818,-0.269,-0.931,0.0
0.0,0.0,0.0,0.0
0.0,0.0,0.0,0.0
6.977,-0.244,-0.948,0.0
8.569,-0.3,-0.921,0.0
8.187,-0.288,-0.925,0.0
7.882,-0.279,-0.934,0.0
0.0,0.0,0.0,0.0
7.27,-0.26,-0.943,0.0
7.002,-0.252,-0.947,0.0
8.578,-0.309,-0.917,0.0
8.197,-0.297,-0.921,0.0
7.903,-0.288,-0.932,0.0
7.632,-0.279,-0.943,0.0
7.332,-0.27,-0.947,0.0
7.055,-0.261,-0.95,0.0
8.687,-0.321,-0.923,0.0
8.227,-0.306,-0.919,0.0
7.938,-0.297,-0.931,0.0
7.602,-0.286,-0.934,0.0
7.333,-0.277,-0.942,0.0
7.079,-0.269,-0.948,0.0
8.75,-0.332,-0.924,0.0
8.328,-0.317,-0.925,0.0
7.989,-0.306,-0.931,0.0
7.675,-0.296,-0.938,0.0
7.429,-0.288,-0.949,0.0
7.156,-0.278,-0.954,0.0
8.747,-0.34,-0.917,0.0
8.36,-0.326,-0.922,0.0
8.035,-0.315,-0.931,0.0
7.692,-0.303,-0.934,0.0
7.439,-0.295,-0.944,0.0
7.151,-0.285,-0.948,0.0
8.804,-0.35,-0.916,0.0
8.408,-0.336,-0.921,0.0
8.061,-0.324,-0.927,0.0
7.709,-0.311,-0.93,0.0
0.0,0.0,0.0,0.0
7.19,-0.293,-0.947,0.0
8.841,-0.36,-0.913,0.0
8.481,-0.346,-0.922,0.0
8.106,-0.333,-0.926,0.0
7.723,-0.318,-0.925,0.0
7.543,-0.312,-0.945,0.0
7.273,-0.303,-0.952,0.0
8.915,-0.37,-0.913,0.0
8.587,-0.358,-0.927,0.0
8.206,-0.344,-0.93,0.0
0.0,0.0,0.0,0.0
7.585,-0.321,-0.944,0.0
7.276,-0.309,-0.945,0.0
9.021,-0.382,-0.916,0.0
8.646,-0.368,-0.925,0.0
8.23,-0.352,-0.926,0.0
7.938,-0.341,-0.937,0.0
7.597,-0.328,-0.938,0.0
7.344,-0.318,-0.947,0.0
9.056,-0.391,-0.911,0.0
8.683,-0.377,-0.921,0.0
8.337,-0.363,-0.93,0.0
7.944,-0.348,-0.93,0.0
7.672,-0.337,-0.94,0.0
7.391,-0.326,-0.946,0.0
9.101,-0.401,-0.907,0.0
8.74,-0.386,-0.919,0.0
8.382,-0.372,-0.927,0.0
8.01,-0.357,-0.93,0.0
7.696,-0.344,-0.936,0.0
7.436,-0.334,-0.945,0.0
9.151,-0.41,-0.903,0.0
8.815,-0.396,-0.918,0.0
8.431,-0.38,-0.924,0.0
8.087,-0.366,-0.931,0.0
7.727,-0.351,-0.931,0.0
7.498,-0.342,-0.945,0.0
9.282,-0.423,-0.906,0.0
8.856,-0.405,-0.913,0.0
8.515,-0.391,-0.924,0.0
8.141,-0.375,-0.928,0.0
7.856,-0.363,-0.939,0.0
7.514,-0.348,-0.939,0.0
9.33,-0.432,-0.901,0.0
9.016,-0.418,-0.919,0.0
8.568,-0.399,-0.92,0.0
8.196,-0.383,-0.926,0.0
7.903,-0.371,-0.935,0.0
7.63,-0.359,-0.945,0.0
9.448,-0.443,-0.902,0.0
9.069,-0.427,-0.915,0.0
0.0,0.0,0.0,0.0
8.316,-0.394,-0.93,0.0
7.994,-0.38,-0.937,0.0
7.651,-0.365,-0.939,0.0
9.564,-0.455,-0.902,0.0
9.097,-0.434,-0.907,0.0
8.722,-0.418,-0.917,0.0
8.382,-0.403,-0.927,0.0
8.017,-0.386,-0.931,0.0
7.757,-0.375,-0.942,0.0
9.654,-0.465,-0.9,0.0
9.249,-0.447,-0.912,0.0
8.85,-0.429,-0.92,0.0
8.484,-0.413,-0.929,0.0
8.116,-0.396,-0.932,0.0
7.823,-0.383,-0.941,0.0
9.784,-0.478,-0.9,0.0
9.27,-0.454,-0.902,0.0
8.936,-0.439,-0.918,0.0
0.0,0.0,0.0,0.0
8.204,-0.405,-0.932,0.0
7.873,-0.39,-0.937,0.0
9.864,-0.487,-0.895,0.0
9.436,-0.467,-0.907,0.0
9.005,-0.447,-0.914,0.0
0.0,0.0,0.0,0.0
8.273,-0.413,-0.93,0.0
7.963,-0.398,-0.938,0.0
9.964,-0.497,-0.892,0.0
9.51,-0.476,-0.902,0.0
9.063,-0.454,-0.908,0.0
0.0,0.0,0.0,0.0
8.341,-0.42,-0.927,0.0
8.03,-0.406,-0.935,0.0
10.096,-0.509,-0.891,0.0
9.657,-0.488,-0.903,0.0
9.216,-0.466,-0.912,0.0
0.0,0.0,0.0,0.0
8.444,-0.43,-0.927,0.0
8.111,-0.414,-0.934,0.0
10.211,-0.519,-0.887,0.0
9.739,-0.496,-0.898,0.0
9.219,-0.471,-0.9,0.0
8.818,-0.451,-0.909,0.0
8.542,-0.438,-0.926,0.0
8.218,-0.423,-0.935,0.0
10.345,-0.53,-0.885,0.0
9.851,-0.506,-0.895,0.0
9.383,-0.483,-0.903,0.0
9.005,-0.465,-0.915,0.0
8.636,-0.447,-0.924,0.0
8.239,-0.427,-0.926,0.0
10.45,-0.54,-0.879,0.0
9.992,-0.517,-0.894,0.0
9.579,-0.497,-0.908,0.0
9.082,-0.472,-0.91,0.0
8.775,-0.457,-0.927,0.0
8.359,-0.436,-0.927,0.0
10.593,-0.551,-0.877,0.0
10.112,-0.527,-0.89,0.0
9.646,-0.504,-0.901,0.0
9.222,-0.482,-0.911,0.0
8.823,-0.462,-0.919,0.0
8.451,-0.444,-0.925,0.0
10.75,-0.563,-0.874,0.0
10.251,-0.537,-0.888,0.0
9.78,-0.514,-0.899,0.0
9.372,-0.493,-0.912,0.0
8.978,-0.473,-0.922,0.0
8.558,-0.452,-0.925,0.0
10.917,-0.574,-0.872,0.0
10.394,-0.548,-0.885,0.0
9.893,-0.522,-0.895,0.0
9.507,-0.503,-0.912,0.0
9.028,-0.478,-0.914,0.0
8.667,-0.46,-0.924,0.0
11.088,-0.586,-0.869,0.0
10.493,-0.556,-0.878,0.0
10.027,-0.532,-0.892,0.0
9.601,-0.51,-0.906,0.0
9.09,-0.483,-0.906,0.0
8.78,-0.468,-0.922,0.0
11.258,-0.598,-0.865,0.0
10.708,-0.569,-0.88,0.0
10.188,-0.542,-0.891,0.0
9.706,-0.517,-0.901,0.0
9.352,-0.499,-0.918,0.0
8.846,-0.473,-0.916,0.0
11.442,-0.609,-0.862,0.0
10.847,-0.578,-0.875,0.0
10.314,-0.55,-0.886,0.0
9.823,-0.525,-0.897,0.0
9.412,-0.504,-0.909,0.0
8.975,-0.481,-0.915,0.0
11.646,-0.622,-0.86,0.0
11.019,-0.589,-0.872,0.0
10.475,-0.56,-0.884,0.0
9.986,-0.535,-0.896,0.0
9.571,-0.513,-0.91,0.0
9.116,-0.489,-0.915,0.0
11.866,-0.634,-0.857,0.0
11.2,-0.599,-0.868,0.0
10.638,-0.57,-0.881,0.0
10.154,-0.544,-0.895,0.0
9.676,-0.519,-0.904,0.0
9.239,-0.496,-0.913,0.0
12.141,-0.65,-0.858,0.0
11.403,-0.611,-0.866,0.0
10.811,-0.579,-0.878,0.0
10.287,-0.552,-0.891,0.0
9.81,-0.527,-0.901,0.0
9.386,-0.504,-0.912,0.0
12.376,-0.663,-0.855,0.0
11.585,-0.621,-0.861,0.0
10.942,-0.586,-0.871,0.0
10.426,-0.559,-0.886,0.0
9.954,-0.534,-0.898,0.0
9.522,-0.511,-0.909,0.0
12.592,-0.674,-0.849,0.0
11.834,-0.634,-0.86,0.0
11.164,-0.598,-0.87,0.0
10.583,-0.567,-0.882,0.0
10.104,-0.542,-0.895,0.0
9.656,-0.518,-0.906,0.0
12.84,-0.686,-0.845,0.0
12.082,-0.646,-0.858,0.0
11.367,-0.608,-0.867,0.0
10.79,-0.577,-0.881,0.0
10.262,-0.549,-0.892,0.0
9.774,-0.523,-0.901,0.0
13.202,-0.704,-0.847,0.0
12.348,-0.659,-0.857,0.0
11.55,-0.616,-0.862,0.0
10.959,-0.585,-0.877,0.0
10.394,-0.555,-0.886,0.0
9.931,-0.53,-0.899,0.0
13.5,-0.718,-0.844,0.0
12.541,-0.667,-0.85,0.0
11.788,-0.627,-0.861,0.0
11.136,-0.593,-0.872,0.0
10.575,-0.563,-0.884,0.0
10.088,-0.537,-0.896,0.0
13.754,-0.729,-0.837,0.0
12.982,-0.688,-0.858,0.0
12.031,-0.638,-0.858,0.0
11.319,-0.6,-0.868,0.0
10.749,-0.57,-0.88,0.0
10.24,-0.543,-0.893,0.0
14.095,-0.744,-0.834,0.0
13.214,-0.697,-0.851,0.0
12.302,-0.649,-0.856,0.0
11.529,-0.608,-0.864,0.0
10.972,-0.579,-0.88,0.0
10.384,-0.547,-0.887,0.0
14.419,-0.757,-0.829,0.0
13.46,-0.707,-0.844,0.0
12.558,-0.659,-0.853,0.0
11.77,-0.617,-0.862,0.0
11.121,-0.583,-0.873,0.0
10.59,-0.555,-0.887,0.0
14.744,-0.77,-0.822,0.0
13.77,-0.719,-0.839,0.0
19.954,-1.041,-1.321,0.0
12.016,-0.626,-0.859,0.0
11.337,-0.59,-0.87,0.0
10.757,-0.56,-0.882,0.0
15.113,-0.784,-0.816,0.0
14.11,-0.731,-0.836,0.0
13.228,-0.685,-0.853,0.0
12.303,-0.637,-0.858,0.0
11.557,-0.598,-0.867,0.0
10.948,-0.566,-0.879,0.0
19.983,-1.029,-1.045,0.0
14.401,-0.741,-0.828,0.0
13.426,-0.69,-0.842,0.0
12.564,-0.645,-0.855,0.0
11.764,-0.603,-0.862,0.0
11.122,-0.57,-0.873,0.0
20.045,-1.023,-1.014,0.0
14.752,-0.752,-0.823,0.0
13.781,-0.702,-0.84,0.0
20.0,-1.018,-1.326,0.0
12.047,-0.612,-0.862,0.0
11.325,-0.575,-0.869,0.0
20.065,-1.015,-0.98,0.0
15.217,-0.768,-0.822,0.0
14.062,-0.709,-0.833,0.0
13.333,-0.672,-0.861,0.0
12.338,-0.621,-0.861,0.0
11.563,-0.581,-0.867,0.0
16.816,-0.841,-0.791,0.0
20.023,-1.001,-1.047,0.0
14.431,-0.72,-0.83,0.0
13.425,-0.669,-0.843,0.0
12.57,-0.625,-0.855,0.0
11.785,-0.585,-0.863,0.0
20.083,-0.994,-0.91,0.0
20.067,-0.992,-1.014,0.0
14.791,-0.73,-0.824,0.0
13.728,-0.676,-0.838,0.0
20.005,-0.984,-1.326,0.0
12.07,-0.592,-0.863,0.0
17.822,-0.871,-0.777,0.0
20.016,-0.977,-0.977,0.0
15.178,-0.739,-0.819,0.0
14.046,-0.683,-0.833,0.0
13.227,-0.642,-0.853,0.0
12.349,-0.598,-0.861,0.0
18.245,-0.88,-0.763,0.0
16.808,-0.809,-0.79,0.0
20.016,-0.962,-1.045,0.0
14.424,-0.692,-0.83,0.0
13.539,-0.648,-0.849,0.0
12.635,-0.603,-0.859,0.0
19.042,-0.906,-0.763,0.0
17.504,-0.831,-0.792,0.0
20.109,-0.952,-1.015,0.0
14.798,-0.699,-0.825,0.0
13.815,-0.651,-0.842,0.0
12.91,-0.607,-0.855,0.0
19.751,-0.925,-0.757,1.0
17.865,-0.835,-0.778,0.0
16.306,-0.76,-0.795,0.0
15.179,-0.706,-0.82,0.0
14.204,-0.659,-0.841,0.0
13.211,-0.611,-0.851,0.0
19.85,-0.915,-0.726,0.0
18.312,-0.842,-0.765,0.0
16.758,-0.768,-0.787,0.0
15.506,-0.709,-0.811,0.0
14.492,-0.661,-0.833,0.0
13.559,-0.616,-0.85,0.0
20.83,-0.943,-0.726,0.0
19.014,-0.858,-0.761,0.0
17.559,-0.79,-0.794,0.0
16.079,-0.722,-0.813,0.0
14.85,-0.665,-0.828,0.0
13.781,-0.615,-0.84,0.0
21.706,-0.964,-0.718,0.0
19.618,-0.869,-0.751,0.0
17.816,-0.787,-0.775,0.0
16.467,-0.725,-0.803,0.0
15.228,-0.668,-0.822,0.0
14.126,-0.618,-0.836,0.0
22.674,-0.988,-0.711,0.0
20.219,-0.878,-0.739,0.0
18.354,-0.794,-0.766,0.0
16.834,-0.726,-0.792,0.0
15.491,-0.666,-0.81,0.0
14.483,-0.62,-0.833,0.0
23.535,-1.003,-0.698,0.0
21.094,-0.896,-0.735,0.0
19.006,-0.805,-0.761,0.0
17.356,-0.732,-0.787,0.0
16.004,-0.672,-0.809,0.0
14.921,-0.625,-0.832,0.0
24.484,-1.021,-0.684,0.0
21.657,-0.899,-0.717,0.0
19.504,-0.806,-0.747,0.0
17.819,-0.734,-0.778,0.0
16.501,-0.677,-0.806,0.0
15.24,-0.623,-0.824,0.0
24.942,-1.015,-0.654,0.0
22.605,-0.916,-0.71,0.0
20.22,-0.816,-0.74,0.0
18.497,-0.743,-0.776,0.0
16.805,-0.672,-0.792,0.0
15.69,-0.625,-0.821,0.0
26.813,-1.063,-0.658,0.0
23.597,-0.931,-0.702,0.0
21.045,-0.827,-0.735,0.0
18.929,-0.74,-0.761,0.0
17.419,-0.678,-0.792,0.0
16.053,-0.622,-0.813,0.0
0.0,0.0,0.0,0.0
24.521,-0.941,-0.687,0.0
21.584,-0.824,-0.717,0.0
19.508,-0.741,-0.752,0.0
17.747,-0.671,-0.776,0.0
16.505,-0.621,-0.808,0.0
29.409,-1.101,-0.622,0.0
0.0,0.0,0.0,0.0
22.738,-0.843,-0.717,0.0
20.208,-0.745,-0.745,0.0
18.41,-0.675,-0.775,0.0
16.887,-0.616,-0.799,0.0
0.0,0.0,0.0,0.0
26.499,-0.957,-0.655,0.0
23.53,-0.845,-0.704,0.0
20.863,-0.745,-0.735,0.0
18.877,-0.67,-0.763,0.0
17.362,-0.613,-0.793,0.0
0.0,0.0,0.0,0.0
0.0,0.0,0.0,0.0
24.371,-0.846,-0.689,0.0
21.646,-0.746,-0.726,0.0
19.454,-0.667,-0.754,0.0
17.775,-0.605,-0.782,0.0
0.0,0.0,0.0,0.0
29.338,-0.987,-0.627,0.0
25.725,-0.86,-0.684,0.0
22.037,-0.732,-0.703,0.0
20.191,-0.667,-0.75,0.0
18.217,-0.598,-0.772,0.0
35.754,-1.166,-0.52,0.0
30.641,-0.992,-0.606,0.0
26.691,-0.859,-0.667,0.0
23.179,-0.74,-0.702,0.0
20.832,-0.661,-0.74,0.0
18.892,-0.595,-0.77,0.0
38.138,-1.194,-0.494,0.0
32.385,-1.007,-0.589,0.0
21.892,-0.676,-0.512,0.0
21.914,-0.671,-0.629,0.0
21.849,-0.664,-0.741,3.0
19.42,-0.586,-0.76,0.0
41.315,-1.239,-0.47,2.0
0.0,0.0,0.0,0.0
21.928,-0.647,-0.478,0.0
21.903,-0.641,-0.594,153.0
21.866,-0.635,-0.708,35.0
21.876,-0.631,-0.823,12.0
44.323,-1.269,-0.435,2.0
0.0,0.0,0.0,0.0
21.913,-0.617,-0.444,7.0
21.874,-0.611,-0.56,214.0
21.879,-0.605,-0.674,150.0
21.878,-0.6,-0.789,18.0
48.024,-1.308,-0.397,1.0
38.001,-1.026,-0.513,0.0
31.403,-0.84,-0.588,0.0
21.859,-0.579,-0.526,162.0
21.887,-0.575,-0.641,97.0
18.141,-0.472,-0.626,153.0
0.0,0.0,0.0,0.0
0.0,0.0,0.0,0.0
0.0,0.0,0.0,0.0
21.894,-0.549,-0.493,0.0
21.911,-0.544,-0.609,29.0
18.11,-0.445,-0.598,168.0
0.0,0.0,0.0,0.0
44.039,-1.061,-0.461,0.0
34.972,-0.834,-0.549,0.0
29.777,-0.703,-0.627,0.0
18.146,-0.423,-0.477,0.0
18.152,-0.419,-0.572,151.0
0.0,0.0,0.0,0.0
0.0,0.0,0.0,0.0
0.0,0.0,0.0,0.0
30.845,-0.681,-0.604,0.0
0.0,0.0,0.0,0.0
18.162,-0.391,-0.546,1.0
0.0,0.0,0.0,0.0
0.0,0.0,0.0,0.0
0.0,0.0,0.0,0.0
0.0,0.0,0.0,0.0
27.979,-0.567,-0.654,0.0
0.0,0.0,0.0,0.0
0.0,0.0,0.0,0.0
0.0,0.0,0.0,0.0
0.0,0.0,0.0,0.0
33.934,-0.643,-0.566,0.0
29.199,-0.546,-0.641,0.0
25.117,-0.463,-0.683,0.0
0.0,0.0,0.0,0.0
0.0,0.0,0.0,0.0
44.446,-0.784,-0.442,0.0
35.11,-0.61,-0.537,1.0
0.0,0.0,0.0,0.0
26.196,-0.441,-0.676,0.0
0.0,0.0,0.0,0.0
0.0,0.0,0.0,0.0
46.718,-0.749,-0.4,1.0
37.421,-0.59,-0.521,0.0
30.986,-0.48,-0.595,0.0
27.047,-0.411,-0.662,0.0
0.0,0.0,0.0,0.0
0.0,0.0,0.0,0.0
0.0,0.0,0.0,0.0
0.0,0.0,0.0,0.0
32.972,-0.456,-0.589,0.0
27.954,-0.379,-0.647,0.0
127.608,-1.699,0.591,3.0
0.0,0.0,0.0,0.0
0.0,0.0,0.0,0.0
0.0,0.0,0.0,0.0
0.0,0.0,0.0,0.0
29.138,-0.346,-0.636,0.0
139.153,-1.619,0.826,3.0
0.0,0.0,0.0,0.0
0.0,0.0,0.0,0.0
45.342,-0.488,-0.453,0.0
35.822,-0.375,-0.547,0.0
0.0,0.0,0.0,0.0
119.76,-1.189,0.863,85.0
0.0,0.0,0.0,0.0
0.0,0.0,0.0,0.0
46.918,-0.425,-0.41,0.0
38.487,-0.337,-0.54,0.0
30.888,-0.261,-0.596,0.0
119.683,-0.98,1.012,19.0
0.0,0.0,0.0,0.0
0.0,0.0,0.0,0.0
0.0,0.0,0.0,0.0
39.797,-0.279,-0.509,0.0
32.419,-0.218,-0.586,0.0
119.717,-0.77,1.159,17.0
110.974,-0.68,0.487,3.0
0.0,0.0,0.0,0.0
50.337,-0.278,-0.317,0.0
0.0,0.0,0.0,0.0
0.0,0.0,0.0,0.0
119.714,-0.557,1.302,16.0
111.067,-0.483,0.619,6.0
0.0,0.0,0.0,0.0
0.0,0.0,0.0,0.0
45.003,-0.154,-0.469,0.0
0.0,0.0,0.0,0.0
119.728,-0.341,1.441,18.0
114.467,-0.291,0.77,11.0
0.0,0.0,0.0,0.0
0.0,0.0,0.0,0.0
45.505,-0.074,-0.423,1.0
0.0,0.0,0.0,0.0
117.341,-0.121,1.545,15.0
111.267,-0.081,0.873,7.0
95.511,-0.041,0.241,2.0
0.0,0.0,0.0,0.0
45.748,0.008,-0.375,0.0
37.888,0.018,-0.512,0.0
111.096,0.088,1.584,18.0
111.181,0.124,0.994,10.0
93.797,0.133,0.339,1.0
0.0,0.0,0.0,0.0
49.674,0.101,-0.353,0.0
0.0,0.0,0.0,0.0
119.851,0.321,1.838,16.0
119.714,0.358,1.198,16.0
94.628,0.314,0.444,4.0
0.0,0.0,0.0,0.0
40.447,0.159,-0.245,2.0
42.786,0.182,-0.487,1.0
111.104,0.509,1.82,24.0
111.043,0.543,1.227,28.0
104.566,0.543,0.596,7.0
87.388,0.481,0.024,1.0
55.214,0.321,-0.279,0.0
42.808,0.263,-0.444,0.0
111.084,0.718,1.93,22.0
101.092,0.687,1.218,1.0
104.718,0.745,0.702,13.0
84.982,0.63,0.106,2.0
0.0,0.0,0.0,0.0
46.594,0.374,-0.439,0.0
100.24,0.84,1.839,3.0
104.772,0.911,1.362,2.0
98.52,0.887,0.753,16.0
84.046,0.783,0.184,3.0
0.0,0.0,0.0,0.0
46.51,0.463,-0.395,1.0
98.65,1.016,1.901,28.0
98.574,1.047,1.372,30.0
98.484,1.078,0.844,19.0
85.295,0.96,0.265,7.0
0.0,0.0,0.0,0.0
49.189,0.585,-0.373,0.0
98.55,1.207,1.988,30.0
98.483,1.238,1.459,29.0
98.537,1.27,0.931,25.0
85.213,1.125,0.339,15.0
0.0,0.0,0.0,0.0
53.426,0.739,-0.36,0.0
98.693,1.401,2.076,26.0
98.625,1.432,1.545,20.0
92.031,1.366,0.948,16.0
85.198,1.292,0.411,10.0
74.862,1.159,-0.04,1.0
0.0,0.0,0.0,0.0
91.922,1.488,2.01,32.0
91.88,1.517,1.516,45.0
91.882,1.545,1.021,42.0
91.76,1.573,0.517,11.0
73.082,1.277,0.019,8.0
57.832,1.028,-0.295,0.0
91.766,1.668,2.08,19.0
87.836,1.624,1.518,7.0
87.488,1.645,1.04,27.0
85.45,1.634,0.547,20.0
71.179,1.385,0.073,2.0
0.0,0.0,0.0,0.0
0.0,0.0,0.0,0.0
85.368,1.748,1.539,29.0
85.314,1.775,1.078,35.0
85.221,1.799,0.608,18.0
71.94,1.542,0.126,11.0
0.0,0.0,0.0,0.0
85.245,1.888,2.057,36.0
85.235,1.916,1.597,40.0
85.225,1.943,1.137,38.0
85.127,1.967,0.667,21.0
71.925,1.686,0.175,14.0
66.39,1.578,-0.196,3.0
85.289,2.062,2.117,28.0
85.345,2.089,1.657,25.0
85.347,2.116,1.195,10.0
78.958,1.983,0.671,31.0
71.741,1.824,0.221,10.0
65.391,1.684,-0.151,7.0
78.874,2.065,2.009,30.0
78.892,2.09,1.581,35.0
78.858,2.115,1.154,29.0
77.63,2.107,0.708,9.0
71.883,1.974,0.267,11.0
63.862,1.773,-0.108,6.0
77.292,2.179,2.015,5.0
76.476,2.18,1.579,9.0
75.085,2.164,1.143,5.0
74.593,2.173,0.724,8.0
71.887,2.117,0.307,10.0
62.922,1.873,-0.071,5.0
75.285,2.273,2.005,1.0
74.174,2.264,1.573,3.0
120.062,3.703,1.894,9.0
72.501,2.259,0.743,20.0
72.1,2.269,0.347,15.0
64.946,2.065,-0.039,4.0
72.479,2.337,1.969,28.0
72.431,2.357,1.574,33.0
72.385,2.378,1.179,34.0
72.351,2.401,0.778,40.0
72.156,2.417,0.384,22.0
65.06,2.2,-0.007,10.0
72.394,2.481,2.002,32.0
72.366,2.501,1.607,35.0
72.364,2.524,1.213,32.0
72.357,2.547,0.812,32.0
72.206,2.565,0.418,18.0
65.167,2.335,0.022,7.0
72.47,2.63,2.037,24.0
72.508,2.654,1.643,19.0
120.079,4.433,2.067,30.0
119.997,4.469,1.399,12.0
72.237,2.712,0.448,11.0
65.165,2.468,0.05,21.0
195.438,7.491,5.576,15.0
194.319,7.512,4.484,21.0
193.998,7.559,3.418,21.0
120.012,4.712,1.447,13.0
66.174,2.618,0.436,12.0
65.31,2.605,0.074,14.0
66.185,2.671,1.913,5.0
66.182,2.691,1.551,4.0
66.192,2.712,1.19,11.0
66.101,2.728,0.82,9.0
63.829,2.654,0.443,10.0
65.362,2.738,0.096,14.0
66.042,2.798,1.931,34.0
63.882,2.727,1.518,8.0
62.746,2.698,1.148,8.0
61.55,2.665,0.783,7.0
66.054,2.881,0.479,16.0
65.445,2.875,0.116,10.0
63.295,2.811,1.87,15.0
61.873,2.767,1.489,5.0
66.111,2.977,1.229,10.0
66.114,2.998,0.86,22.0
66.167,3.02,0.498,16.0
65.573,3.013,0.134,10.0
61.587,2.86,1.836,5.0
120.216,5.62,2.924,8.0
120.143,5.652,2.263,14.0
50.894,2.41,0.674,5.0
120.054,5.723,0.932,18.0
65.675,3.15,0.149,12.0
0.0,0.0,0.0,0.0
120.144,5.86,2.948,14.0
125.191,6.145,2.384,3.0
50.553,2.496,0.68,14.0
120.042,5.964,0.955,12.0
59.479,2.973,0.146,16.0
59.489,3.004,1.798,23.0
59.497,3.022,1.471,20.0
50.705,2.591,0.974,9.0
49.883,2.564,0.679,6.0
59.378,3.07,0.481,28.0
59.328,3.085,0.155,20.0
59.407,3.12,1.804,43.0
59.394,3.136,1.476,31.0
50.288,2.67,0.973,20.0
49.209,2.627,0.676,5.0
