X,Y,Z,Reflectivity
26.486,-0.539,-0.667,0.0
23.084,-0.466,-0.703,0.0
18.151,-0.364,-0.647,5.0
18.164,-0.361,-0.742,4.0
0.0,0.0,0.0,0.0
32.321,-0.631,-0.587,0.0
27.891,-0.54,-0.651,0.0
24.165,-0.464,-0.692,0.0
21.512,-0.409,-0.727,0.0
19.513,-0.368,-0.761,0.0
44.942,-0.84,-0.501,0.0
0.0,0.0,0.0,0.0
29.151,-0.535,-0.627,0.0
25.326,-0.46,-0.679,0.0
22.609,-0.407,-0.723,0.0
20.098,-0.358,-0.747,0.0
44.556,-0.786,-0.415,0.0
35.078,-0.613,-0.509,0.0
30.674,-0.53,-0.604,0.0
26.495,-0.453,-0.662,0.0
23.457,-0.397,-0.708,0.0
21.038,-0.352,-0.744,0.0
50.026,-0.828,-0.375,0.0
0.0,0.0,0.0,0.0
0.0,0.0,0.0,0.0
27.739,-0.444,-0.643,0.0
24.659,-0.39,-0.7,0.0
21.691,-0.339,-0.728,0.0
0.0,0.0,0.0,0.0
42.743,-0.652,-0.466,0.0
35.084,-0.528,-0.565,0.0
29.267,-0.435,-0.626,0.0
25.612,-0.376,-0.681,0.0
22.721,-0.329,-0.722,0.0
0.0,0.0,0.0,0.0
46.824,-0.659,-0.427,0.0
36.288,-0.504,-0.52,0.0
31.089,-0.426,-0.61,0.0
26.545,-0.358,-0.659,0.0
23.456,-0.312,-0.704,0.0
0.0,0.0,0.0,0.0
47.568,-0.613,-0.35,0.0
0.0,0.0,0.0,0.0
0.0,0.0,0.0,0.0
28.409,-0.349,-0.655,0.0
24.577,-0.296,-0.694,0.0
57.759,-0.685,-0.024,5.0
0.0,0.0,0.0,0.0
0.0,0.0,0.0,0.0
34.963,-0.393,-0.563,0.0
29.482,-0.325,-0.629,0.0
25.869,-0.28,-0.686,0.0
0.0,0.0,0.0,0.0
0.0,0.0,0.0,0.0
0.0,0.0,0.0,0.0
0.0,0.0,0.0,0.0
30.762,-0.3,-0.604,0.0
26.721,-0.255,-0.663,0.0
0.0,0.0,0.0,0.0
0.0,0.0,0.0,0.0
0.0,0.0,0.0,0.0
0.0,0.0,0.0,0.0
0.0,0.0,0.0,0.0
28.174,-0.231,-0.652,0.0
0.0,0.0,0.0,0.0
0.0,0.0,0.0,0.0
0.0,0.0,0.0,0.0
0.0,0.0,0.0,0.0
35.29,-0.25,-0.573,0.0
29.292,-0.201,-0.629,0.0
114.115,-0.758,0.727,4.0
0.0,0.0,0.0,0.0
0.0,0.0,0.0,0.0
46.286,-0.275,-0.434,0.0
37.168,-0.212,-0.542,0.0
30.446,-0.167,-0.603,0.0
119.742,-0.629,0.96,12.0
95.186,-0.478,0.266,3.0
0.0,0.0,0.0,0.0
48.476,-0.221,-0.376,0.0
0.0,0.0,0.0,0.0
0.0,0.0,0.0,0.0
119.742,-0.461,1.154,17.0
110.809,-0.399,0.489,2.0
0.0,0.0,0.0,0.0
0.0,0.0,0.0,0.0
44.911,-0.129,-0.511,0.0
34.132,-0.09,-0.567,0.0
119.743,-0.289,1.344,17.0
110.802,-0.24,0.664,12.0
0.0,0.0,0.0,0.0
0.0,0.0,0.0,0.0
45.504,-0.065,-0.446,1.0
0.0,0.0,0.0,0.0
117.352,-0.111,1.502,15.0
111.244,-0.077,0.841,8.0
95.616,-0.043,0.222,1.0
0.0,0.0,0.0,0.0
45.888,0.002,-0.379,1.0
37.498,0.011,-0.506,0.0
111.109,0.061,1.594,12.0
111.207,0.089,1.012,12.0
102.884,0.108,0.396,1.0
0.0,0.0,0.0,0.0
50.072,0.078,-0.337,0.0
42.797,0.077,-0.513,0.0
119.844,0.248,1.901,23.0
111.138,0.258,1.179,10.0
104.186,0.269,0.559,9.0
0.0,0.0,0.0,0.0
51.851,0.16,-0.271,0.0
42.8,0.144,-0.448,1.0
119.87,0.435,2.082,95.0
111.175,0.433,1.347,19.0
110.826,0.461,0.761,8.0
87.944,0.388,0.131,2.0
0.0,0.0,0.0,0.0
45.765,0.226,-0.412,1.0
111.072,0.578,2.092,29.0
111.057,0.607,1.507,28.0
111.047,0.637,0.923,10.0
87.211,0.523,0.257,1.0
0.0,0.0,0.0,0.0
48.206,0.314,-0.365,0.0
111.071,0.755,2.252,15.0
104.912,0.74,1.573,12.0
104.771,0.768,1.019,8.0
97.665,0.743,0.426,4.0
0.0,0.0,0.0,0.0
0.0,0.0,0.0,0.0
104.823,0.882,2.272,2.0
100.052,0.87,1.641,1.0
98.935,0.886,1.1,9.0
98.119,0.905,0.563,14.0
0.0,0.0,0.0,0.0
54.361,0.531,-0.261,0.0
98.752,0.993,2.276,18.0
98.636,1.02,1.753,26.0
98.583,1.047,1.231,25.0
98.344,1.07,0.698,11.0
80.76,0.901,0.146,6.0
0.0,0.0,0.0,0.0
98.566,1.155,2.404,26.0
98.55,1.183,1.883,33.0
98.51,1.209,1.36,30.0
98.494,1.236,0.829,21.0
85.113,1.092,0.266,9.0
0.0,0.0,0.0,0.0
98.528,1.321,2.533,27.0
98.586,1.349,2.012,29.0
98.526,1.376,1.489,25.0
98.674,1.405,0.957,24.0
85.118,1.235,0.375,10.0
75.715,1.119,-0.068,0.0
98.629,1.488,2.66,16.0
189.61,2.916,4.11,20.0
91.957,1.44,1.505,33.0
91.921,1.465,1.007,41.0
91.827,1.49,0.519,11.0
74.042,1.221,0.025,3.0
91.868,1.545,2.593,21.0
91.857,1.571,2.105,38.0
91.859,1.597,1.616,40.0
92.04,1.627,1.122,1.0
91.834,1.649,0.631,20.0
73.833,1.346,0.114,3.0
91.821,1.705,2.703,30.0
0.0,0.0,0.0,0.0
87.264,1.67,1.641,39.0
92.0,1.787,1.231,5.0
85.46,1.685,0.689,21.0
77.86,1.557,0.214,7.0
91.882,1.867,2.814,24.0
85.398,1.76,2.16,21.0
85.299,1.782,1.703,32.0
85.271,1.807,1.24,38.0
85.263,1.831,0.786,30.0
84.737,1.844,0.329,4.0
85.251,1.885,2.71,35.0
85.242,1.91,2.255,36.0
85.237,1.933,1.799,39.0
85.224,1.957,1.336,40.0
85.255,1.983,0.882,33.0
84.875,1.998,0.424,10.0
85.3,2.039,2.806,26.0
85.298,2.064,2.35,25.0
85.334,2.09,1.896,25.0
85.328,2.115,1.431,14.0
79.045,1.982,0.904,11.0
78.896,2.001,0.48,20.0
78.846,2.029,2.68,27.0
78.904,2.053,2.259,27.0
78.882,2.075,1.836,33.0
78.879,2.099,1.407,33.0
77.222,2.078,0.964,4.0
78.843,2.145,0.563,18.0
78.799,2.172,2.761,30.0
78.822,2.195,2.339,33.0
76.911,2.165,1.87,6.0
75.656,2.151,1.427,5.0
74.607,2.143,1.007,4.0
78.892,2.289,0.642,15.0
78.808,2.316,2.84,22.0
78.923,2.342,2.421,26.0
74.787,2.241,1.892,3.0
74.001,2.239,1.468,2.0
120.055,3.668,1.737,17.0
119.951,3.701,1.093,10.0
78.83,2.462,2.917,11.0
211.451,6.666,6.689,18.0
72.55,2.308,1.905,10.0
72.473,2.328,1.507,34.0
72.4,2.346,1.115,34.0
72.376,2.367,0.727,31.0
72.438,2.397,2.749,29.0
72.423,2.417,2.357,33.0
72.401,2.438,1.967,38.0
72.374,2.457,1.569,38.0
72.356,2.478,1.18,34.0
72.355,2.5,0.791,31.0
72.406,2.531,2.812,32.0
72.41,2.551,2.421,35.0
72.422,2.573,2.031,33.0
72.407,2.594,1.634,27.0
72.418,2.614,1.243,25.0
72.424,2.636,0.853,21.0
72.553,2.67,2.879,7.0
190.732,7.077,6.54,21.0
194.806,7.287,5.629,13.0
120.06,4.525,2.809,8.0
193.592,7.355,3.486,19.0
120.067,4.597,1.513,19.0
66.185,2.562,2.681,22.0
190.778,7.44,6.698,22.0
195.054,7.664,5.793,20.0
120.074,4.752,2.905,21.0
193.626,7.721,3.639,15.0
62.978,2.529,0.843,7.0
66.057,2.681,2.727,26.0
66.062,2.7,2.37,32.0
66.098,2.721,2.013,29.0
64.262,2.663,1.603,7.0
62.566,2.612,1.222,5.0
66.094,2.779,0.934,28.0
52.778,2.241,2.218,22.0
66.029,2.823,2.417,27.0
66.037,2.842,2.059,18.0
62.477,2.707,1.603,7.0
66.061,2.882,1.337,24.0
50.453,2.216,0.748,1.0
52.509,2.329,2.244,15.0
66.107,2.952,2.466,2.0
62.469,2.808,1.991,5.0
61.067,2.763,1.609,10.0
66.14,3.011,1.383,14.0
49.387,2.262,0.765,3.0
52.893,2.448,2.296,6.0
52.779,2.457,2.003,7.0
61.036,2.859,1.985,6.0
127.123,5.991,3.431,2.0
50.542,2.397,1.089,1.0
48.894,2.333,0.788,7.0
59.496,2.866,2.619,15.0
65.871,3.191,2.541,2.0
0.0,0.0,0.0,0.0
125.14,6.134,3.452,3.0
50.27,2.479,1.113,7.0
48.597,2.41,0.811,13.0
59.401,2.974,2.65,16.0
59.429,2.993,2.327,29.0
59.442,3.009,2.003,25.0
59.471,3.028,1.674,29.0
49.111,2.514,1.114,3.0
48.378,2.49,0.834,14.0
59.398,3.086,2.682,9.0
59.39,3.103,2.357,33.0
59.402,3.119,2.033,30.0
59.378,3.135,1.702,30.0
48.937,2.597,1.135,12.0
48.181,2.571,0.855,15.0
52.684,2.837,2.405,27.0
59.497,3.22,2.391,23.0
59.485,3.236,2.064,20.0
50.63,2.769,1.475,10.0
48.335,2.657,1.144,8.0
48.024,2.654,0.875,35.0
52.631,2.934,2.427,6.0
119.696,6.706,4.865,28.0
119.71,6.74,4.21,28.0
49.818,2.818,1.474,4.0
48.083,2.734,1.159,12.0
47.849,2.734,0.892,37.0
119.016,6.862,5.541,8.0
118.67,6.874,4.872,8.0
115.527,6.723,4.11,16.0
49.154,2.874,1.474,13.0
47.85,2.812,1.173,20.0
47.699,2.816,0.907,33.0
115.457,6.874,5.419,15.0
115.458,6.904,4.784,29.0
115.455,6.936,4.15,25.0
48.41,2.921,1.469,5.0
47.681,2.89,1.185,32.0
47.548,2.895,0.921,41.0
90.27,5.544,4.268,11.0
111.034,6.849,4.639,53.0
50.578,3.133,1.834,4.0
47.809,2.974,1.466,6.0
47.475,2.967,1.195,37.0
110.923,6.962,2.183,6.0
52.372,3.314,2.492,23.0
110.988,7.055,4.67,15.0
49.649,3.169,1.815,9.0
47.489,3.044,1.47,17.0
47.397,3.051,1.206,16.0
52.373,3.385,1.045,17.0
52.265,3.406,2.5,43.0
52.263,3.42,2.212,39.0
52.272,3.434,1.924,8.0
47.311,3.121,1.476,54.0
52.224,3.459,1.342,43.0
52.203,3.471,1.053,44.0
52.238,3.501,2.511,37.0
52.223,3.513,2.222,42.0
52.24,3.528,1.934,7.0
52.224,3.541,1.64,37.0
52.195,3.553,1.351,41.0
52.192,3.567,1.063,42.0
52.276,3.6,2.523,19.0
52.264,3.612,2.233,23.0
47.198,3.274,1.755,21.0
52.235,3.637,1.649,25.0
52.244,3.652,1.36,28.0
52.227,3.664,1.071,22.0
71.827,5.079,3.477,10.0
90.331,6.41,3.872,16.0
93.746,6.675,3.499,12.0
102.067,7.294,3.235,57.0
102.082,7.322,2.67,60.0
102.098,7.35,2.105,46.0
90.538,6.567,4.392,14.0
71.253,5.186,3.061,12.0
102.173,7.461,3.823,11.0
102.012,7.476,3.241,20.0
101.937,7.496,2.674,4.0
101.474,7.487,2.1,4.0
71.472,5.313,3.472,27.0
71.469,5.33,3.075,9.0
101.981,7.631,3.821,23.0
101.992,7.657,3.245,36.0
100.548,7.575,2.641,7.0
100.392,7.589,2.081,10.0
71.85,5.47,3.492,14.0
71.584,5.467,3.081,7.0
101.757,7.796,3.815,14.0
101.529,7.803,3.231,14.0
99.533,7.675,2.615,10.0
99.394,7.69,2.06,9.0
45.958,3.58,2.233,23.0
46.021,3.596,1.98,4.0
45.981,3.604,1.722,3.0
45.925,3.611,1.46,4.0
98.446,7.764,2.582,8.0
45.935,3.634,0.95,3.0
45.852,3.652,2.226,32.0
45.866,3.664,1.971,31.0
45.855,3.674,1.715,38.0
45.833,3.683,1.454,38.0
45.837,3.695,1.199,41.0
45.823,3.704,0.944,39.0
45.815,3.729,2.22,43.0
45.808,3.739,1.964,43.0
45.805,3.75,1.708,41.0
45.791,3.759,1.448,42.0
45.789,3.77,1.192,41.0
45.776,3.78,0.937,41.0
45.811,3.808,2.214,40.0
45.811,3.819,1.958,36.0
45.81,3.829,1.702,34.0
45.798,3.838,1.441,36.0
45.787,3.848,1.185,36.0
45.785,3.858,0.93,34.0
45.879,3.892,2.21,34.0
45.912,3.905,1.954,18.0
45.883,3.913,1.696,16.0
45.853,3.92,1.435,17.0
45.839,3.93,1.178,17.0
45.83,3.939,0.922,22.0
79.208,6.854,3.8,16.0
93.034,8.071,3.942,18.0
93.122,8.099,3.424,51.0
93.117,8.119,2.893,70.0
93.112,8.14,2.372,60.0
93.149,8.165,1.852,40.0
85.875,7.575,4.098,35.0
93.189,8.241,3.925,16.0
93.235,8.265,3.404,14.0
93.061,8.27,2.867,7.0
92.918,8.278,2.343,5.0
92.738,8.283,1.818,7.0
85.582,7.692,4.06,29.0
93.017,8.379,3.892,23.0
93.014,8.398,3.37,16.0
92.148,8.339,2.812,5.0
91.97,8.343,2.291,5.0
91.873,8.355,1.774,8.0
85.729,7.843,4.041,17.0
93.042,8.531,3.863,23.0
93.013,8.547,3.34,8.0
91.386,8.417,2.758,12.0
91.233,8.423,2.242,7.0
91.082,8.428,1.728,9.0
92.704,8.63,4.338,15.0
92.51,8.63,3.808,15.0
92.395,8.638,3.283,1.0
90.564,8.485,2.701,14.0
90.468,8.494,2.189,11.0
90.328,8.501,1.679,12.0
91.906,8.7,4.266,14.0
91.685,8.696,3.739,18.0
90.025,8.556,3.164,3.0
89.734,8.547,2.64,12.0
89.71,8.563,2.135,11.0
89.54,8.566,1.628,10.0
91.08,8.764,4.188,16.0
90.902,8.763,3.668,14.0
89.235,8.619,3.099,12.0
89.061,8.619,2.582,13.0
88.933,8.624,2.077,12.0
88.879,8.637,1.577,12.0
88.707,8.668,4.04,13.0
88.657,8.679,3.538,14.0
88.513,8.681,3.033,4.0
88.377,8.685,2.521,5.0
88.239,8.688,2.02,4.0
88.127,8.695,1.521,10.0
88.548,8.784,3.99,30.0
88.567,8.801,3.491,22.0
87.85,8.746,2.966,4.0
87.765,8.753,2.46,11.0
87.641,8.757,1.963,8.0
87.488,8.759,1.465,10.0
88.546,8.912,3.944,36.0
88.553,8.928,3.444,11.0
87.193,8.806,2.899,4.0
87.064,8.808,2.394,12.0
86.971,8.815,1.901,11.0
86.833,8.817,1.408,11.0
88.318,9.014,3.886,19.0
86.711,8.865,3.325,1.0
86.543,8.863,2.829,10.0
86.413,8.864,2.327,12.0
86.323,8.871,1.837,10.0
86.196,8.874,1.348,12.0
87.693,9.074,3.807,21.0
85.966,8.909,3.245,3.0
85.88,8.914,2.756,10.0
85.81,8.921,2.261,12.0
85.69,8.924,1.772,11.0
85.563,8.926,1.286,11.0
87.096,9.132,3.727,26.0
85.442,8.972,3.173,10.0
85.28,8.968,2.684,11.0
84.231,8.872,2.165,21.0
84.18,8.88,1.688,44.0
84.162,8.894,1.212,53.0
84.165,8.937,3.548,47.0
84.143,8.947,3.07,64.0
84.138,8.96,2.593,62.0
84.168,8.977,2.109,65.0
84.18,8.992,1.631,39.0
84.284,9.018,1.156,23.0
84.221,9.053,3.494,26.0
84.218,9.064,3.016,15.0
84.22,9.077,2.538,10.0
84.12,9.08,2.049,9.0
84.033,9.084,1.571,8.0
83.911,9.085,1.094,5.0
84.058,9.142,3.427,6.0
83.903,9.137,2.945,4.0
83.734,9.13,2.464,5.0
83.549,9.123,1.975,6.0
83.416,9.121,1.499,9.0
83.37,9.13,1.026,10.0
83.496,9.183,3.345,2.0
83.15,9.156,2.857,3.0
83.18,9.171,2.386,11.0
83.093,9.174,1.903,12.0
82.951,9.171,1.429,11.0
82.885,9.177,0.957,12.0
82.778,9.204,3.252,4.0
82.739,9.21,2.78,14.0
82.657,9.211,2.307,11.0
82.569,9.213,1.828,12.0
82.501,9.218,1.358,11.0
82.391,9.218,0.887,10.0
82.321,9.247,3.17,3.0
82.292,9.254,2.701,12.0
82.207,9.255,2.23,11.0
82.114,9.256,1.752,12.0
82.038,9.259,1.284,11.0
81.937,9.26,0.817,11.0
81.852,9.286,3.086,3.0
81.844,9.295,2.619,12.0
81.764,9.297,2.151,12.0
81.673,9.297,1.675,11.0
81.616,9.301,1.21,11.0
81.464,9.295,0.745,10.0
81.414,9.324,3.002,5.0
81.425,9.336,2.538,13.0
81.347,9.337,2.072,11.0
81.255,9.336,1.598,11.0
67.799,7.798,0.948,8.0
67.76,7.803,0.562,11.0
67.748,7.83,2.439,8.0
67.683,7.83,2.051,11.0
67.401,7.805,1.658,13.0
66.372,7.694,1.249,26.0
66.343,7.699,0.869,36.0
66.353,7.709,0.492,56.0
66.323,7.732,2.33,39.0
66.32,7.739,1.951,49.0
66.311,7.745,1.573,64.0
66.331,7.755,1.188,150.0
66.327,7.762,0.81,69.0
66.334,7.772,0.432,65.0
66.298,7.793,2.268,71.0
66.309,7.801,1.89,57.0
66.328,7.809,1.513,43.0
66.345,7.819,1.128,42.0
66.405,7.833,0.751,22.0
66.522,7.855,0.373,18.0
66.385,7.864,2.21,26.0
66.471,7.88,1.834,17.0
66.488,7.889,1.455,15.0
66.407,7.886,1.067,16.0
66.325,7.884,0.688,15.0
66.275,7.885,0.31,15.0
66.31,7.913,2.145,15.0
66.215,7.908,1.764,17.0
66.142,7.905,1.385,16.0
66.09,7.905,0.999,16.0
66.02,7.904,0.621,16.0
65.949,7.903,0.245,15.0
65.994,7.931,2.071,16.0
65.911,7.926,1.692,17.0
65.84,7.924,1.315,16.0
65.785,7.923,0.931,16.0
65.714,7.921,0.555,15.0
65.628,7.918,0.179,14.0
65.675,7.945,1.997,15.0
65.616,7.943,1.62,18.0
65.535,7.938,1.243,16.0
65.467,7.936,0.861,14.0
65.406,7.935,0.487,18.0
65.321,7.931,0.113,12.0
65.365,7.956,1.922,15.0
65.31,7.955,1.547,16.0
65.237,7.951,1.172,15.0
65.161,7.946,0.792,16.0
65.13,7.949,0.42,18.0
65.049,7.945,0.047,11.0
65.116,7.973,1.849,16.0
65.049,7.968,1.475,16.0
64.99,7.966,1.102,16.0
64.928,7.963,0.723,17.0
64.87,7.962,0.351,20.0
64.784,7.957,-0.018,12.0
64.874,7.986,1.775,17.0
64.815,7.983,1.403,16.0
64.749,7.979,1.031,18.0
64.681,7.975,0.653,18.0
64.609,7.971,0.282,19.0
64.566,7.971,-0.086,4.0
64.626,7.996,1.7,17.0
64.58,7.993,1.33,19.0
64.498,7.987,0.959,19.0
64.471,7.988,0.583,20.0
64.419,7.987,0.214,19.0
45.621,5.66,-0.109,3.0
64.431,8.009,1.627,19.0
64.364,8.004,1.256,17.0
64.316,8.001,0.887,17.0
64.239,7.996,0.512,17.0
64.206,7.996,0.144,14.0
45.635,5.686,-0.157,12.0
64.221,8.017,1.553,17.0
64.157,8.012,1.184,16.0
64.113,8.009,0.815,17.0
64.069,8.008,0.441,20.0
63.981,8.001,0.075,8.0
45.448,5.686,-0.207,12.0
64.034,8.024,1.479,16.0
63.974,8.02,1.111,15.0
63.956,8.02,0.744,17.0
63.904,8.017,0.371,20.0
63.82,8.01,0.005,9.0
41.981,5.272,-0.236,17.0
63.871,8.032,1.405,17.0
63.828,8.029,1.039,17.0
63.766,8.024,0.673,17.0
63.74,8.023,0.301,21.0
59.841,7.536,-0.059,6.0
40.9,5.153,-0.275,16.0
63.726,8.039,1.332,15.0
63.672,8.034,0.966,18.0
63.646,8.033,0.601,18.0
63.598,8.03,0.23,20.0
59.9,7.566,-0.126,5.0
39.968,5.05,-0.313,16.0
63.611,8.047,1.259,16.0
63.548,8.04,0.895,16.0
63.514,8.038,0.53,18.0
63.463,8.033,0.159,18.0
45.596,5.774,-0.146,15.0
39.414,4.993,-0.352,15.0
63.491,8.05,1.187,14.0
63.456,8.047,0.822,16.0
63.408,8.043,0.458,17.0
63.369,8.04,0.088,16.0
0.0,0.0,0.0,0.0
38.879,4.936,-0.391,17.0
112.71,-1.841,4.174,15.0
112.859,-1.862,3.595,10.0
112.813,-1.879,3.009,20.0
206.285,-3.468,4.412,9.0
193.669,-3.287,3.139,8.0
139.315,-2.386,1.537,4.0
106.611,-1.846,4.147,16.0
112.667,-1.968,3.798,26.0
113.023,-1.992,3.224,21.0
205.979,-3.661,4.788,15.0
193.629,-3.471,3.5,15.0
0.0,0.0,0.0,0.0
106.776,-1.951,4.354,18.0
112.757,-2.077,4.014,19.0
113.162,-2.1,3.442,23.0
112.876,-2.112,2.839,11.0
193.534,-3.65,3.867,21.0
138.992,-2.642,2.06,6.0
95.61,-1.836,4.082,14.0
96.665,-1.868,3.625,9.0
112.603,-2.193,3.641,26.0
112.887,-2.213,3.053,7.0
193.825,-3.827,4.241,8.0
193.06,-3.839,3.226,20.0
95.13,-1.909,4.241,17.0
106.674,-2.154,4.203,9.0
113.131,-2.3,3.872,23.0
112.635,-2.305,3.261,23.0
205.541,-4.234,4.889,9.0
193.051,-4.001,3.594,8.0
81.644,-1.707,3.796,14.0
106.449,-2.239,4.397,17.0
113.428,-2.399,4.098,17.0
112.5,-2.394,3.472,24.0
0.0,0.0,0.0,0.0
193.763,-4.172,3.978,5.0
80.812,-1.754,3.912,16.0
96.011,-2.095,4.151,29.0
96.613,-2.12,3.677,13.0
112.928,-2.492,3.703,17.0
207.486,-4.601,5.73,7.0
117.823,-2.627,2.645,6.0
74.45,-1.673,3.748,20.0
81.153,-1.832,3.665,13.0
96.656,-2.194,3.866,7.0
113.168,-2.581,3.928,22.0
207.382,-4.751,6.127,5.0
117.732,-2.71,2.869,18.0
74.204,-1.721,3.879,31.0
81.062,-1.888,3.816,29.0
96.667,-2.262,4.052,12.0
106.252,-2.497,3.893,10.0
120.821,-2.852,3.804,11.0
118.022,-2.797,3.104,13.0
74.139,-1.771,4.018,31.0
74.187,-1.779,3.637,19.0
82.036,-1.974,3.596,13.0
96.728,-2.337,3.73,18.0
120.723,-2.929,4.032,15.0
0.0,0.0,0.0,0.0
73.77,-1.809,4.141,18.0
74.203,-1.827,3.782,14.0
81.948,-2.025,3.752,8.0
96.641,-2.395,3.914,9.0
106.211,-2.642,3.752,10.0
120.831,-3.016,3.646,17.0
65.796,-1.654,3.822,8.0
81.186,-2.047,4.295,9.0
81.114,-2.052,3.87,9.0
101.86,-2.585,4.324,7.0
106.225,-2.703,3.958,8.0
120.744,-3.083,3.876,23.0
57.261,-1.472,3.437,13.0
78.759,-2.03,4.319,22.0
74.174,-1.917,3.683,13.0
81.805,-2.12,3.629,8.0
106.211,-2.76,4.163,14.0
120.664,-3.144,4.105,13.0
57.409,-1.506,3.556,16.0
78.426,-2.062,4.451,10.0
81.444,-2.147,4.2,12.0
81.379,-2.15,3.766,21.0
101.677,-2.693,4.18,8.0
117.062,-3.108,4.207,12.0
62.64,-1.673,4.0,7.0
71.568,-1.916,4.2,8.0
79.068,-2.122,4.23,11.0
81.008,-2.178,3.906,29.0
94.766,-2.553,4.079,12.0
106.016,-2.862,4.015,12.0
46.042,-1.251,3.03,8.0
56.88,-1.548,3.449,30.0
65.623,-1.789,3.637,8.0
81.636,-2.23,4.094,19.0
81.392,-2.227,3.661,11.0
106.014,-2.906,4.221,11.0
46.262,-1.276,3.135,21.0
56.92,-1.572,3.561,27.0
57.1,-1.58,3.276,22.0
85.418,-2.366,4.449,11.0
81.203,-2.253,3.81,34.0
94.612,-2.629,3.949,7.0
45.884,-1.283,3.198,39.0
56.802,-1.59,3.663,11.0
56.914,-1.595,3.375,30.0
66.004,-1.851,3.565,17.0
81.298,-2.283,3.969,14.0
81.475,-2.291,3.556,8.0
46.129,-1.305,3.303,22.0
46.313,-1.311,3.076,22.0
56.792,-1.609,3.477,30.0
65.95,-1.87,3.688,18.0
80.478,-2.284,4.083,11.0
81.273,-2.309,3.702,33.0
44.877,-1.283,3.3,35.0
46.391,-1.326,3.17,21.0
56.809,-1.625,3.586,30.0
56.97,-1.631,3.295,31.0
66.07,-1.892,3.478,12.0
81.123,-2.325,3.85,31.0
44.73,-1.29,3.375,31.0
45.859,-1.322,3.221,28.0
45.931,-1.325,2.987,25.0
56.874,-1.641,3.398,31.0
66.014,-1.906,3.601,26.0
80.816,-2.334,3.989,17.0
44.292,-1.286,3.427,39.0
46.387,-1.347,3.347,21.0
46.582,-1.353,3.118,31.0
56.796,-1.65,3.501,31.0
57.029,-1.656,3.218,7.0
80.437,-2.337,4.123,14.0
43.905,-1.283,3.48,48.0
45.007,-1.315,3.332,19.0
46.201,-1.349,3.18,21.0
56.881,-1.661,3.614,29.0
56.993,-1.664,3.325,30.0
66.067,-1.928,3.51,26.0
43.906,-1.289,3.563,45.0
44.717,-1.312,3.396,31.0
45.941,-1.347,3.249,20.0
46.092,-1.351,3.014,30.0
56.828,-1.665,3.42,30.0
65.973,-1.932,3.627,16.0
43.868,-1.292,3.642,42.0
44.291,-1.304,3.445,42.0
45.65,-1.342,3.313,21.0
46.469,-1.365,3.125,21.0
56.745,-1.666,3.521,29.0
57.021,-1.673,3.242,13.0
43.745,-1.291,3.714,48.0
43.983,-1.296,3.504,32.0
44.839,-1.32,3.338,36.0
45.986,-1.353,3.179,30.0
56.759,-1.668,3.628,21.0
56.961,-1.672,3.344,29.0
43.694,-1.29,3.791,42.0
43.838,-1.293,3.574,41.0
44.61,-1.314,3.403,37.0
45.966,-1.352,3.262,20.0
46.232,-1.358,3.039,20.0
56.796,-1.666,3.438,29.0
43.676,-1.288,3.87,39.0
43.85,-1.292,3.655,42.0
44.167,-1.299,3.45,45.0
45.586,-1.339,3.318,21.0
46.499,-1.363,3.141,21.0
56.79,-1.662,3.54,30.0
43.863,-1.291,3.967,35.0
43.703,-1.284,3.722,46.0
43.902,-1.288,3.508,41.0
44.894,-1.315,3.348,30.0
45.945,-1.343,3.186,29.0
56.863,-1.659,3.647,8.0
43.808,-1.285,4.04,19.0
43.665,-1.279,3.797,38.0
43.91,-1.283,3.587,37.0
44.495,-1.298,3.397,19.0
46.2,-1.345,3.286,20.0
46.304,-1.345,3.051,26.0
43.579,-1.273,4.096,34.0
43.78,-1.276,3.885,34.0
43.746,-1.272,3.652,48.0
43.953,-1.275,3.434,44.0
0.0,0.0,0.0,0.0
46.653,-1.347,3.155,26.0
43.585,-1.265,4.174,32.0
43.712,-1.266,3.955,23.0
43.609,-1.26,3.716,40.0
43.818,-1.262,3.499,37.0
44.842,-1.288,3.346,39.0
45.81,-1.313,3.178,29.0
91.836,1.789,3.001,32.0
91.801,1.767,2.47,15.0
87.678,1.668,1.854,4.0
87.444,1.645,1.337,29.0
91.895,1.708,0.876,25.0
84.341,1.548,0.318,4.0
91.86,1.665,2.853,27.0
91.853,1.643,2.323,36.0
91.834,1.621,1.793,39.0
91.875,1.6,1.256,34.0
91.806,1.578,0.726,22.0
77.523,1.315,0.167,2.0
91.958,1.537,2.707,16.0
91.939,1.516,2.178,27.0
91.917,1.494,1.648,35.0
91.924,1.472,1.109,39.0
91.803,1.448,0.58,8.0
75.426,1.173,0.044,0.0
98.6,1.508,2.748,17.0
119.928,1.806,2.652,71.0
98.637,1.462,1.614,20.0
98.654,1.438,1.036,19.0
85.059,1.219,0.404,8.0
0.0,0.0,0.0,0.0
98.526,1.362,2.59,26.0
98.552,1.339,2.025,29.0
98.504,1.315,1.458,28.0
98.496,1.29,0.881,23.0
81.199,1.044,0.26,4.0
0.0,0.0,0.0,0.0
98.537,1.217,2.44,29.0
98.541,1.192,1.874,32.0
98.544,1.168,1.307,28.0
98.134,1.139,0.729,9.0
80.102,0.91,0.135,3.0
0.0,0.0,0.0,0.0
98.643,1.069,2.294,27.0
98.642,1.043,1.727,25.0
98.616,1.019,1.161,25.0
98.008,0.988,0.581,6.0
0.0,0.0,0.0,0.0
0.0,0.0,0.0,0.0
0.0,0.0,0.0,0.0
100.234,0.906,1.607,1.0
104.736,0.919,1.077,8.0
91.041,0.776,0.405,3.0
0.0,0.0,0.0,0.0
48.382,0.387,-0.339,1.0
104.79,0.811,2.129,23.0
104.796,0.782,1.527,4.0
104.855,0.755,0.926,23.0
85.937,0.596,0.258,7.0
0.0,0.0,0.0,0.0
46.019,0.295,-0.389,1.0
111.049,0.681,2.096,32.0
111.052,0.65,1.459,31.0
104.828,0.587,0.777,9.0
87.968,0.468,0.138,2.0
0.0,0.0,0.0,0.0
42.833,0.205,-0.423,1.0
111.109,0.5,1.941,17.0
111.138,0.471,1.305,22.0
103.989,0.411,0.624,4.0
0.0,0.0,0.0,0.0
0.0,0.0,0.0,0.0
40.757,0.128,-0.458,0.0
119.861,0.344,1.93,17.0
111.137,0.288,1.152,15.0
94.465,0.218,0.438,1.0
0.0,0.0,0.0,0.0
0.0,0.0,0.0,0.0
37.965,0.055,-0.479,0.0
111.074,0.131,1.636,15.0
111.107,0.099,1.001,8.0
95.722,0.059,0.315,5.0
0.0,0.0,0.0,0.0
45.488,0.002,-0.375,2.0
37.441,-0.009,-0.523,0.0
117.342,-0.06,1.574,11.0
111.068,-0.088,0.855,13.0
0.0,0.0,0.0,0.0
54.587,-0.075,-0.209,0.0
45.469,-0.075,-0.434,0.0
0.0,0.0,0.0,0.0
119.761,-0.267,1.451,16.0
110.969,-0.279,0.711,9.0
0.0,0.0,0.0,0.0
0.0,0.0,0.0,0.0
0.0,0.0,0.0,0.0
0.0,0.0,0.0,0.0
119.704,-0.475,1.3,18.0
105.244,-0.448,0.543,1.0
0.0,0.0,0.0,0.0
47.376,-0.229,-0.301,0.0
40.104,-0.206,-0.484,0.0
0.0,0.0,0.0,0.0
75.36,-9.347,3.117,28.0
75.233,-9.322,2.707,33.0
76.49,-9.468,2.34,12.0
72.931,-9.019,1.832,18.0
76.677,-9.474,1.515,12.0
73.514,-9.075,1.056,25.0
75.558,-9.334,3.205,13.0
75.412,-9.306,2.793,32.0
76.318,-9.408,2.415,17.0
76.506,-9.422,2.002,10.0
76.729,-9.44,1.595,5.0
73.556,-9.041,1.133,24.0
73.966,-9.098,3.215,7.0
0.0,0.0,0.0,0.0
75.113,-9.218,2.454,13.0
76.702,-9.403,2.085,9.0
73.568,-9.009,1.604,7.0
73.602,-9.004,1.208,16.0
74.0,-9.06,3.291,11.0
73.811,-9.026,2.884,20.0
75.204,-9.185,2.533,32.0
72.895,-8.893,2.054,7.0
73.517,-8.958,1.676,6.0
73.616,-8.96,1.281,10.0
73.897,-9.002,3.36,17.0
75.772,-9.219,3.035,11.0
75.391,-9.16,2.613,23.0
72.946,-8.852,2.129,7.0
94.116,-11.406,2.239,9.0
73.403,-8.886,1.35,16.0
73.464,-8.901,3.412,22.0
0.0,0.0,0.0,0.0
75.278,-9.095,2.684,8.0
88.591,-10.69,2.671,9.0
72.916,-8.787,1.805,22.0
73.122,-8.801,1.415,27.0
73.526,-8.857,3.486,35.0
73.816,-8.879,3.101,18.0
73.466,-8.824,2.688,4.0
74.991,-8.994,2.332,16.0
73.126,-8.758,1.879,9.0
73.406,-8.78,1.49,10.0
73.353,-8.781,3.547,27.0
73.725,-8.812,3.166,30.0
75.459,-9.005,2.833,6.0
75.103,-8.95,2.405,20.0
73.574,-8.755,1.959,8.0
73.503,-8.734,1.559,6.0
73.237,-8.71,3.608,35.0
73.823,-8.766,3.237,27.0
73.159,-8.673,2.812,9.0
74.892,-8.864,2.465,10.0
74.178,-8.766,2.041,9.0
73.536,-8.677,1.626,10.0
0.0,0.0,0.0,0.0
73.583,-8.676,3.293,41.0
73.222,-8.619,2.88,20.0
78.246,-9.195,2.645,11.0
78.676,-9.23,2.234,3.0
73.632,-8.625,1.692,7.0
71.94,-8.435,3.672,16.0
73.503,-8.603,3.353,37.0
72.886,-8.515,2.929,18.0
74.743,-8.717,2.591,13.0
78.686,-9.161,2.302,9.0
189.029,-21.971,4.508,17.0
71.958,-8.371,3.735,11.0
73.312,-8.512,3.407,25.0
72.969,-8.457,2.995,26.0
73.0,-8.445,2.593,21.0
78.229,-9.034,2.354,4.0
75.204,-8.669,1.855,5.0
72.47,-8.362,3.821,13.0
73.2,-8.429,3.463,30.0
73.135,-8.406,3.062,19.0
72.952,-8.368,2.65,21.0
75.243,-8.615,2.325,33.0
74.327,-8.495,1.894,22.0
72.383,-8.281,3.875,16.0
73.248,-8.362,3.523,23.0
73.457,-8.369,3.134,12.0
72.888,-8.288,2.705,14.0
75.385,-8.555,2.389,29.0
74.431,-8.431,1.955,29.0
72.349,-8.203,3.93,27.0
0.0,0.0,0.0,0.0
69.646,-7.863,3.025,6.0
72.721,-8.193,2.755,11.0
75.296,-8.466,2.443,8.0
74.608,-8.371,2.015,37.0
33.215,-3.73,1.829,41.0
33.199,-3.72,1.647,32.0
33.203,-3.712,1.466,24.0
33.195,-3.703,1.282,6.0
72.49,-8.071,2.405,7.0
75.111,-8.346,2.083,20.0
33.189,-3.691,1.851,83.0
33.18,-3.681,1.67,80.0
33.182,-3.673,1.489,79.0
33.177,-3.664,1.304,75.0
33.171,-3.655,1.124,69.0
33.158,-3.646,0.942,54.0
33.199,-3.654,1.875,76.0
33.189,-3.644,1.693,79.0
33.167,-3.633,1.511,83.0
33.15,-3.623,1.326,83.0
33.149,-3.614,1.145,81.0
33.137,-3.605,0.964,79.0
33.21,-3.616,1.898,20.0
33.19,-3.605,1.715,46.0
33.196,-3.597,1.534,65.0
33.183,-3.587,1.349,73.0
33.175,-3.578,1.167,72.0
33.161,-3.568,0.986,68.0
73.0,-7.862,4.219,9.0
70.007,-7.521,3.662,16.0
71.815,-7.695,3.364,13.0
72.327,-7.731,2.985,11.0
72.335,-7.713,2.59,21.0
33.169,-3.528,1.006,1.0
70.431,-7.498,4.113,28.0
69.795,-7.411,3.693,20.0
71.316,-7.552,3.383,26.0
72.19,-7.625,3.022,10.0
74.955,-7.898,2.727,14.0
78.241,-8.223,2.419,9.0
69.101,-7.269,4.075,20.0
74.161,-7.78,3.966,5.0
71.742,-7.506,3.443,37.0
77.899,-8.129,3.303,10.0
78.72,-8.192,2.908,8.0
74.049,-7.686,2.33,23.0
69.837,-7.256,4.156,10.0
71.51,-7.409,3.862,31.0
72.036,-7.442,3.495,38.0
74.786,-7.706,3.21,35.0
72.701,-7.471,2.722,12.0
74.362,-7.622,2.376,27.0
68.927,-7.071,4.136,10.0
71.405,-7.303,3.892,18.0
76.679,-7.82,3.758,6.0
71.155,-7.236,3.089,17.0
72.461,-7.349,2.748,24.0
78.661,-7.955,2.552,15.0
69.177,-7.002,4.184,26.0
71.414,-7.206,3.925,24.0
71.006,-7.145,3.512,18.0
71.081,-7.132,3.117,11.0
72.481,-7.251,2.781,27.0
78.772,-7.857,2.59,15.0
69.211,-6.909,4.216,20.0
71.283,-7.094,3.949,16.0
71.164,-7.06,3.551,16.0
77.698,-7.685,3.441,9.0
0.0,0.0,0.0,0.0
78.715,-7.74,2.62,17.0
0.0,0.0,0.0,0.0
71.485,-7.011,3.989,32.0
70.939,-6.936,3.567,25.0
77.424,-7.546,3.459,11.0
78.62,-7.64,3.079,12.0
78.521,-7.607,2.643,10.0
70.452,-6.83,4.346,22.0
74.558,-7.204,4.187,7.0
71.356,-6.872,3.613,10.0
71.12,-6.828,3.202,13.0
78.559,-7.518,3.103,20.0
78.751,-7.513,2.677,12.0
69.802,-6.664,4.33,19.0
70.335,-6.693,3.973,3.0
0.0,0.0,0.0,0.0
71.147,-6.726,3.225,22.0
74.623,-7.031,2.971,15.0
78.586,-7.38,2.695,25.0
69.76,-6.555,4.347,20.0
73.925,-6.923,4.197,7.0
70.43,-6.574,3.609,26.0
71.109,-6.614,3.243,9.0
74.723,-6.928,2.995,20.0
78.405,-7.245,2.709,16.0
70.374,-6.506,4.403,14.0
69.781,-6.429,3.98,20.0
71.635,-6.577,3.688,24.0
71.328,-6.526,3.27,7.0
71.027,-6.476,2.863,3.0
78.114,-7.098,2.717,16.0
71.345,-6.486,4.48,18.0
0.0,0.0,0.0,0.0
71.393,-6.444,3.691,13.0
71.572,-6.436,3.295,7.0
71.015,-6.364,2.876,26.0
72.289,-6.456,2.527,2.0
70.912,-6.335,4.466,12.0
70.685,-6.291,4.058,25.0
67.977,-6.028,3.525,18.0
67.978,-6.006,3.14,53.0
67.965,-5.983,2.763,47.0
67.935,-5.96,2.385,45.0
74.96,-6.577,4.731,4.0
71.294,-6.232,4.103,10.0
67.947,-5.917,3.532,17.0
67.978,-5.897,3.149,48.0
67.98,-5.875,2.771,46.0
67.936,-5.85,2.393,44.0
71.796,-6.184,4.539,11.0
71.2,-6.108,4.104,18.0
67.95,-5.806,3.538,18.0
67.973,-5.787,3.155,44.0
67.968,-5.764,2.777,51.0
67.922,-5.738,2.397,39.0
71.39,-6.032,4.517,12.0
71.443,-6.012,4.123,33.0
67.933,-5.694,3.541,19.0
67.948,-5.674,3.156,48.0
67.959,-5.652,2.779,54.0
67.916,-5.627,2.399,38.0
71.782,-5.947,4.544,15.0
71.578,-5.906,4.131,31.0
71.189,-5.849,3.711,8.0
67.928,-5.559,3.156,49.0
67.944,-5.538,2.778,43.0
67.905,-5.513,2.398,20.0
72.028,-5.847,4.559,9.0
71.427,-5.774,4.121,15.0
70.961,-5.712,3.698,23.0
71.331,-5.717,3.311,10.0
72.242,-5.767,2.951,20.0
72.113,-5.733,2.544,13.0
75.753,-6.021,4.79,8.0
72.454,-5.734,4.176,11.0
67.935,-5.354,3.536,8.0
67.943,-5.332,3.149,44.0
67.92,-5.307,2.769,82.0
67.897,-5.283,2.389,77.0
67.963,-5.287,4.291,86.0
67.954,-5.263,3.91,81.0
67.956,-5.24,3.529,43.0
67.915,-5.215,3.14,9.0
71.998,-5.505,2.926,10.0
102.831,-7.828,3.606,19.0
72.184,-5.492,4.548,15.0
71.534,-5.418,4.105,33.0
67.903,-5.12,3.516,41.0
67.922,-5.098,3.13,58.0
67.917,-5.075,2.75,56.0
67.879,-5.05,2.368,34.0
72.041,-5.358,4.526,36.0
71.536,-5.296,4.092,28.0
67.89,-5.002,3.503,43.0
67.929,-4.983,3.117,59.0
67.92,-4.96,2.736,59.0
67.859,-4.933,2.353,25.0
71.831,-5.219,4.497,17.0
71.17,-5.146,4.056,25.0
67.896,-4.886,3.488,43.0
67.915,-4.864,3.101,60.0
67.911,-4.842,2.719,58.0
20.017,-1.42,0.689,8.0
71.648,-5.081,4.468,9.0
71.203,-5.024,4.039,23.0
67.887,-4.767,3.469,49.0
67.904,-4.745,3.081,44.0
67.883,-4.722,2.699,58.0
20.003,-1.384,0.683,11.0
71.637,-4.955,4.446,18.0
70.784,-4.872,3.993,47.0
70.625,-4.837,3.587,15.0
70.728,-4.82,3.187,18.0
72.253,-4.9,2.85,35.0
20.005,-1.35,0.676,11.0
71.556,-4.823,4.416,26.0
70.589,-4.734,3.958,32.0
70.906,-4.731,3.576,13.0
78.997,-5.245,3.531,12.0
20.026,-1.323,0.782,7.0
19.953,-1.311,0.667,12.0
71.156,-4.672,4.365,30.0
70.602,-4.61,3.932,39.0
70.987,-4.612,3.552,23.0
73.223,-4.733,3.244,11.0
19.981,-1.284,0.772,10.0
19.953,-1.276,0.659,19.0
70.815,-4.524,4.313,29.0
70.778,-4.497,3.911,38.0
70.931,-4.482,3.519,15.0
73.095,-4.594,3.206,18.0
19.992,-1.25,0.764,12.0
19.947,-1.24,0.65,20.0
94.426,-3.194,4.491,23.0
101.059,-3.389,4.227,12.0
119.402,-3.968,4.31,13.0
194.686,-6.411,5.893,7.0
193.917,-6.329,4.76,21.0
194.188,-6.28,3.654,17.0
81.351,-2.613,3.777,19.0
101.418,-3.227,4.126,21.0
106.018,-3.343,3.705,16.0
193.891,-6.057,5.647,20.0
194.447,-6.016,4.548,22.0
193.679,-5.938,3.422,4.0
81.225,-2.471,3.675,34.0
101.748,-3.067,4.02,13.0
120.395,-3.593,4.066,13.0
194.171,-5.737,5.423,19.0
194.873,-5.704,4.327,16.0
193.78,-5.615,3.192,4.0
81.496,-2.343,3.589,6.0
106.236,-3.023,4.068,14.0
120.639,-3.398,3.927,21.0
0.0,0.0,0.0,0.0
195.17,-5.386,4.093,7.0
138.762,-3.789,2.114,6.0
101.641,-2.753,4.35,9.0
106.195,-2.846,3.934,9.0
120.807,-3.203,3.782,23.0
205.596,-5.393,5.234,6.0
0.0,0.0,0.0,0.0
138.78,-3.562,1.939,4.0
96.703,-2.459,4.013,14.0
106.48,-2.678,3.807,12.0
121.07,-3.01,3.632,3.0
117.705,-2.894,2.843,12.0
192.967,-4.69,3.552,17.0
0.0,0.0,0.0,0.0
96.626,-2.3,3.884,9.0
113.231,-2.665,3.901,23.0
207.381,-4.825,5.951,10.0
117.746,-2.706,2.689,3.0
193.063,-4.384,3.299,18.0
0.0,0.0,0.0,0.0
106.367,-2.361,4.132,10.0
112.816,-2.473,3.733,21.0
209.373,-4.532,5.721,18.0
193.902,-4.147,4.165,12.0
193.182,-4.08,3.039,5.0
138.987,-2.9,1.389,15.0
113.295,-2.336,4.246,18.0
112.624,-2.292,3.572,23.0
113.071,-2.27,2.934,11.0
193.396,-3.833,3.888,20.0
138.972,-2.717,1.993,7.0
139.007,-2.681,1.193,22.0
112.723,-2.146,4.064,24.0
113.141,-2.125,3.428,18.0
113.161,-2.095,2.775,7.0
193.694,-3.534,3.615,18.0
139.1,-2.503,1.796,2.0
139.045,-2.467,0.995,16.0
112.85,-1.974,3.906,20.0
113.098,-1.95,3.263,12.0
206.103,-3.5,4.757,7.0
193.85,-3.242,3.338,14.0
139.144,-2.292,1.595,2.0
138.833,-2.25,0.79,8.0
112.919,-1.804,3.742,2.0
112.629,-1.769,3.082,17.0
206.032,-3.184,4.448,10.0
138.944,-2.113,2.186,14.0
138.934,-2.077,1.384,10.0
127.624,-1.876,0.535,2.0
209.706,-3.032,6.632,10.0
113.326,-1.61,2.93,2.0
0.0,0.0,0.0,0.0
139.102,-1.907,1.976,8.0
139.184,-1.874,1.175,25.0
0.0,0.0,0.0,0.0
209.617,-2.72,6.306,8.0
0.0,0.0,0.0,0.0
204.294,-2.551,3.787,8.0
0.0,0.0,0.0,0.0
139.26,-1.67,0.958,11.0
0.0,0.0,0.0,0.0
209.214,-2.41,5.966,10.0
119.77,-1.351,2.723,10.0
119.726,-1.322,2.031,90.0
119.73,-1.293,1.328,150.0
119.741,-1.265,0.636,38.0
0.0,0.0,0.0,0.0
119.713,-1.209,3.225,150.0
119.721,-1.181,2.533,150.0
119.748,-1.153,1.84,135.0
119.682,-1.124,1.136,16.0
0.0,0.0,0.0,0.0
41.885,-0.373,-0.086,0.0
119.741,-1.04,3.03,109.0
119.735,-1.012,2.337,70.0
119.681,-0.985,1.645,21.0
119.701,-0.957,0.94,8.0
0.0,0.0,0.0,0.0
0.0,0.0,0.0,0.0
119.786,-0.875,2.834,16.0
119.83,-0.849,2.141,24.0
119.67,-0.821,1.446,18.0
111.03,-0.737,0.689,3.0
0.0,0.0,0.0,0.0
0.0,0.0,0.0,0.0
119.803,-0.714,2.634,69.0
119.817,-0.688,1.941,28.0
119.753,-0.661,1.246,15.0
0.0,0.0,0.0,0.0
0.0,0.0,0.0,0.0
47.967,-0.233,-0.338,0.0
119.807,-0.556,2.431,17.0
0.0,0.0,0.0,0.0
119.738,-0.503,1.041,10.0
0.0,0.0,0.0,0.0
0.0,0.0,0.0,0.0
45.162,-0.161,-0.395,1.0
119.79,-0.401,2.224,16.0
119.693,-0.376,1.53,10.0
111.103,-0.325,0.776,8.0
0.0,0.0,0.0,0.0
0.0,0.0,0.0,0.0
0.0,0.0,0.0,0.0
112.667,-0.235,1.895,5.0
117.432,-0.22,1.294,11.0
110.348,-0.184,0.577,1.0
0.0,0.0,0.0,0.0
0.0,0.0,0.0,0.0
40.032,-0.042,-0.49,0.0
117.296,-0.1,1.766,10.0
117.237,-0.076,1.084,6.0
0.0,0.0,0.0,0.0
0.0,0.0,0.0,0.0
45.655,-0.001,-0.377,2.0
36.237,0.006,-0.509,0.0
111.145,0.04,1.471,20.0
110.696,0.062,0.822,8.0
0.0,0.0,0.0,0.0
0.0,0.0,0.0,0.0
42.869,0.049,-0.431,1.0
34.484,0.046,-0.547,0.0
111.103,0.17,1.268,20.0
103.699,0.179,0.581,6.0
0.0,0.0,0.0,0.0
0.0,0.0,0.0,0.0
39.996,0.092,-0.475,0.0
31.977,0.079,-0.565,0.0
119.695,0.318,1.149,7.0
94.625,0.269,0.359,2.0
0.0,0.0,0.0,0.0
0.0,0.0,0.0,0.0
36.315,0.123,-0.497,0.0
30.74,0.11,-0.599,0.0
110.863,0.417,0.859,7.0
87.647,0.346,0.171,1.0
0.0,0.0,0.0,0.0
42.834,0.184,-0.417,1.0
34.977,0.156,-0.544,0.0
28.908,0.134,-0.617,0.0
98.001,0.473,0.578,3.0
0.0,0.0,0.0,0.0
52.751,0.273,-0.3,0.0
40.126,0.215,-0.466,0.0
0.0,0.0,0.0,0.0
27.486,0.156,-0.638,0.0
91.528,0.536,0.369,1.0
0.0,0.0,0.0,0.0
46.15,0.286,-0.349,0.0
0.0,0.0,0.0,0.0
30.524,0.199,-0.589,0.0
26.109,0.175,-0.656,0.0
85.358,0.585,0.182,5.0
0.0,0.0,0.0,0.0
42.897,0.308,-0.407,1.0
35.372,0.26,-0.544,0.0
29.147,0.219,-0.618,0.0
24.82,0.191,-0.671,0.0
63.959,0.501,0.014,0.0
0.0,0.0,0.0,0.0
0.0,0.0,0.0,0.0
32.418,0.269,-0.561,0.0
27.387,0.232,-0.633,0.0
23.607,0.203,-0.683,0.0
0.0,0.0,0.0,0.0
46.554,0.415,-0.35,0.0
37.947,0.344,-0.506,0.0
30.428,0.281,-0.585,0.0
26.509,0.248,-0.664,0.0
22.579,0.215,-0.697,0.0
0.0,0.0,0.0,0.0
42.998,0.421,-0.405,0.0
34.666,0.345,-0.528,0.0
28.967,0.292,-0.613,0.0
24.698,0.253,-0.666,0.0
21.826,0.227,-0.716,0.0
48.226,0.507,-0.268,0.0
41.03,0.437,-0.467,0.0
32.619,0.352,-0.561,0.0
27.009,0.295,-0.624,0.0
23.547,0.261,-0.681,0.0
20.828,0.234,-0.724,0.0
46.319,0.525,-0.348,0.0
37.403,0.429,-0.499,0.0
30.406,0.353,-0.582,0.0
26.046,0.306,-0.653,0.0
22.557,0.268,-0.697,0.0
20.037,0.241,-0.736,0.0
43.97,0.533,-0.417,1.0
0.0,0.0,0.0,0.0
28.872,0.357,-0.61,0.0
24.542,0.307,-0.663,0.0
21.64,0.273,-0.711,0.0
19.297,0.246,-0.746,0.0
41.068,0.528,-0.47,0.0
32.368,0.42,-0.559,0.0
26.941,0.353,-0.622,0.0
23.633,0.313,-0.685,0.0
20.801,0.278,-0.724,0.0
18.386,0.248,-0.747,0.0
0.0,0.0,0.0,0.0
0.0,0.0,0.0,0.0
26.054,0.36,-0.653,0.0
22.457,0.313,-0.696,0.0
19.999,0.281,-0.736,0.0
17.993,0.255,-0.767,1.0
35.102,0.5,-0.54,0.0
28.628,0.411,-0.607,0.0
24.696,0.357,-0.668,0.0
0.0,0.0,0.0,0.0
19.256,0.283,-0.747,0.0
17.585,0.261,-0.785,2.0
32.021,0.476,-0.557,0.0
27.195,0.408,-0.631,0.0
23.512,0.355,-0.682,0.0
20.603,0.313,-0.721,0.0
18.403,0.282,-0.751,0.0
16.852,0.26,-0.786,0.0
0.0,0.0,0.0,0.0
25.839,0.403,-0.652,0.0
22.341,0.351,-0.694,0.0
19.875,0.314,-0.735,0.0
17.657,0.281,-0.756,0.0
16.349,0.262,-0.796,0.0
28.487,0.457,-0.61,0.0
24.591,0.397,-0.67,0.0
21.507,0.349,-0.711,0.0
19.168,0.313,-0.748,0.0
17.566,0.289,-0.788,1.0
15.794,0.261,-0.801,0.0
26.797,0.444,-0.628,0.0
23.313,0.388,-0.682,0.0
20.729,0.347,-0.727,0.0
18.545,0.313,-0.761,0.0
16.853,0.286,-0.79,0.0
15.342,0.261,-0.808,0.0
25.41,0.433,-0.647,0.0
22.349,0.383,-0.699,0.0
19.758,0.34,-0.733,0.0
17.642,0.306,-0.759,1.0
16.24,0.283,-0.794,0.0
14.926,0.261,-0.816,0.0
24.495,0.429,-0.672,0.0
21.274,0.374,-0.707,0.0
19.066,0.337,-0.745,0.0
17.465,0.31,-0.786,0.0
15.775,0.281,-0.802,0.0
14.505,0.26,-0.822,0.0
23.097,0.413,-0.68,0.0
20.483,0.368,-0.722,0.0
18.461,0.333,-0.759,0.0
16.733,0.303,-0.787,0.0
15.274,0.278,-0.808,0.0
14.034,0.257,-0.824,0.0
22.367,0.409,-0.703,0.0
19.686,0.361,-0.734,0.0
17.64,0.325,-0.76,0.0
16.198,0.299,-0.794,0.0
14.841,0.275,-0.814,0.0
13.827,0.258,-0.84,0.0
21.316,0.396,-0.713,0.0
18.983,0.354,-0.745,0.0
17.203,0.322,-0.776,0.0
15.634,0.294,-0.798,0.0
14.439,0.272,-0.821,0.0
13.396,0.254,-0.84,0.0
20.278,0.383,-0.719,0.0
18.359,0.348,-0.758,0.0
16.627,0.316,-0.783,0.0
15.219,0.29,-0.807,0.0
14.034,0.269,-0.826,0.0
13.086,0.251,-0.847,0.0
19.572,0.374,-0.733,0.0
17.725,0.34,-0.767,0.0
16.208,0.312,-0.796,0.0
14.826,0.286,-0.816,0.0
13.767,0.267,-0.838,0.0
12.71,0.247,-0.848,0.0
18.979,0.367,-0.748,0.0
17.143,0.332,-0.776,0.0
15.606,0.303,-0.797,0.0
14.433,0.281,-0.823,0.0
13.368,0.261,-0.84,0.0
12.337,0.242,-0.848,0.0
18.194,0.355,-0.753,0.0
16.553,0.324,-0.782,0.0
15.209,0.298,-0.807,0.0
14.031,0.276,-0.828,0.0
13.088,0.258,-0.849,0.0
11.972,0.236,-0.846,0.0
17.697,0.348,-0.767,0.0
16.111,0.317,-0.793,0.0
14.807,0.292,-0.815,0.0
13.706,0.271,-0.835,0.0
12.538,0.248,-0.837,0.0
11.669,0.232,-0.848,0.0
17.134,0.338,-0.776,0.0
15.658,0.31,-0.801,0.0
14.436,0.286,-0.822,0.0
13.361,0.265,-0.841,0.0
12.329,0.245,-0.848,0.0
11.417,0.227,-0.852,0.0
16.565,0.328,-0.783,0.0
15.13,0.3,-0.803,0.0
14.013,0.278,-0.825,0.0
13.054,0.26,-0.847,0.0
11.965,0.238,-0.846,0.0
11.293,0.225,-0.865,0.0
16.025,0.317,-0.788,0.0
14.865,0.295,-0.818,0.0
13.696,0.272,-0.833,0.0
12.616,0.251,-0.843,0.0
11.67,0.232,-0.848,0.0
11.091,0.221,-0.871,0.0
15.623,0.309,-0.798,0.0
14.438,0.286,-0.822,0.0
13.398,0.266,-0.841,0.0
12.302,0.244,-0.845,0.0
11.433,0.227,-0.853,0.0
10.833,0.215,-0.871,0.0
15.198,0.3,-0.806,0.0
14.055,0.277,-0.827,0.0
13.11,0.259,-0.848,0.0
11.945,0.236,-0.844,0.0
11.281,0.223,-0.863,0.0
10.601,0.21,-0.873,0.0
14.768,0.29,-0.811,0.0
13.73,0.27,-0.834,0.0
12.676,0.249,-0.844,0.0
11.667,0.229,-0.846,0.0
11.089,0.218,-0.869,0.0
10.402,0.205,-0.876,0.0
14.397,0.281,-0.818,0.0
13.4,0.261,-0.839,0.0
12.352,0.241,-0.846,0.0
11.435,0.223,-0.851,0.0
10.849,0.212,-0.871,0.0
10.237,0.2,-0.882,0.0
14.02,0.271,-0.822,0.0
13.088,0.253,-0.844,0.0
11.969,0.231,-0.842,0.0
11.303,0.218,-0.862,0.0
10.632,0.205,-0.873,0.0
10.122,0.196,-0.89,0.0
13.715,0.262,-0.83,0.0
12.616,0.241,-0.837,0.0
11.707,0.224,-0.845,0.0
11.119,0.212,-0.868,0.0
10.412,0.199,-0.874,0.0
9.91,0.189,-0.89,0.0
13.419,0.253,-0.836,0.0
12.386,0.234,-0.844,0.0
11.438,0.215,-0.846,0.0
10.889,0.205,-0.87,0.0
10.27,0.193,-0.881,0.0
9.787,0.184,-0.897,0.0
13.148,0.244,-0.843,0.0
12.067,0.224,-0.844,0.0
11.363,0.211,-0.861,1.0
10.623,0.197,-0.868,0.0
10.161,0.188,-0.89,0.0
9.631,0.178,-0.9,0.0
12.821,0.234,-0.845,0.0
11.766,0.215,-0.844,0.0
11.166,0.204,-0.866,0.0
10.478,0.191,-0.875,0.0
9.951,0.181,-0.889,0.0
9.503,0.173,-0.905,0.0
12.451,0.223,-0.842,0.0
11.52,0.206,-0.846,0.0
10.966,0.196,-0.87,0.0
10.293,0.184,-0.878,0.0
9.828,0.175,-0.895,0.0
9.328,0.166,-0.904,0.0
12.129,0.213,-0.841,0.0
11.384,0.199,-0.856,0.0
10.717,0.187,-0.868,0.0
10.19,0.178,-0.886,0.0
9.724,0.169,-0.903,0.0
9.241,0.16,-0.912,0.0
11.832,0.203,-0.841,0.0
11.233,0.192,-0.864,0.0
10.544,0.18,-0.872,0.0
9.98,0.17,-0.885,0.0
9.523,0.162,-0.9,0.0
9.042,0.153,-0.908,0.0
11.615,0.194,-0.845,0.0
11.055,0.184,-0.869,0.0
10.378,0.172,-0.876,0.0
9.878,0.163,-0.892,0.0
9.405,0.155,-0.905,0.0
8.999,0.148,-0.918,0.0
11.414,0.185,-0.849,0.0
10.788,0.174,-0.866,0.0
10.233,0.165,-0.881,0.0
9.69,0.155,-0.891,0.0
9.256,0.148,-0.906,0.0
8.849,0.141,-0.918,0.0
11.287,0.177,-0.858,0.0
10.634,0.166,-0.87,0.0
10.087,0.157,-0.884,0.0
9.63,0.149,-0.901,0.0
9.134,0.141,-0.909,0.0
8.756,0.135,-0.922,0.0
11.143,0.168,-0.865,0.0
10.452,0.157,-0.872,0.0
9.954,0.149,-0.889,0.0
9.482,0.142,-0.903,0.0
8.997,0.134,-0.909,0.0
8.623,0.128,-0.922,0.0
10.911,0.159,-0.864,0.0
10.335,0.149,-0.879,0.0
9.79,0.141,-0.889,0.0
9.28,0.133,-0.898,0.0
8.919,0.127,-0.915,0.0
8.465,0.12,-0.918,0.0
10.706,0.149,-0.864,0.0
10.199,0.141,-0.883,0.0
9.726,0.134,-0.898,0.0
9.229,0.127,-0.907,0.0
8.805,0.12,-0.917,0.0
8.414,0.114,-0.926,0.0
10.555,0.14,-0.868,0.0
10.053,0.133,-0.885,0.0
9.624,0.126,-0.903,0.0
9.162,0.12,-0.914,0.0
0.0,0.0,0.0,0.0
8.343,0.108,-0.93,0.0
10.4,0.131,-0.871,0.0
9.903,0.124,-0.887,0.0
9.486,0.118,-0.904,0.0
0.0,0.0,0.0,0.0
8.702,0.107,-0.932,0.0
8.228,0.1,-0.93,0.0
10.307,0.123,-0.878,0.0
9.819,0.116,-0.893,0.0
9.348,0.11,-0.905,0.0
0.0,0.0,0.0,0.0
8.51,0.098,-0.924,0.0
8.152,0.093,-0.933,0.0
10.181,0.114,-0.882,0.0
9.729,0.108,-0.899,0.0
9.195,0.101,-0.903,0.0
0.0,0.0,0.0,0.0
8.358,0.09,-0.919,0.0
8.046,0.086,-0.932,0.0
10.052,0.105,-0.884,0.0
9.627,0.099,-0.903,0.0
9.106,0.093,-0.907,0.0
8.661,0.088,-0.914,0.0
8.307,0.083,-0.925,0.0
7.996,0.079,-0.937,0.0
9.934,0.096,-0.887,0.0
9.506,0.091,-0.904,0.0
9.007,0.085,-0.909,0.0
8.586,0.08,-0.917,0.0
8.283,0.076,-0.933,0.0
7.868,0.072,-0.933,0.0
9.85,0.087,-0.893,0.0
9.31,0.081,-0.898,0.0
8.937,0.077,-0.914,0.0
0.0,0.0,0.0,0.0
8.119,0.068,-0.925,0.0
7.776,0.064,-0.932,0.0
9.729,0.078,-0.894,0.0
9.215,0.073,-0.9,0.0
8.788,0.068,-0.91,0.0
8.397,0.064,-0.919,0.0
8.046,0.061,-0.927,0.0
7.72,0.057,-0.935,0.0
9.619,0.069,-0.896,0.0
9.18,0.064,-0.908,0.0
8.715,0.06,-0.913,0.0
8.337,0.057,-0.922,0.0
7.957,0.053,-0.927,0.0
7.658,0.05,-0.937,0.0
9.496,0.059,-0.896,0.0
9.086,0.056,-0.91,0.0
0.0,0.0,0.0,0.0
8.217,0.048,-0.919,0.0
7.905,0.046,-0.93,0.0
7.571,0.043,-0.935,0.0
9.409,0.05,-0.898,0.0
9.01,0.047,-0.912,0.0
0.0,0.0,0.0,0.0
0.0,0.0,0.0,0.0
7.802,0.038,-0.927,0.0
7.549,0.036,-0.941,0.0
9.357,0.042,-0.904,0.0
8.925,0.039,-0.914,0.0
8.49,0.036,-0.918,0.0
0.0,0.0,0.0,0.0
0.0,0.0,0.0,0.0
7.472,0.028,-0.939,0.0
9.232,0.032,-0.902,0.0
8.848,0.03,-0.915,0.0
8.424,0.027,-0.92,0.0
0.0,0.0,0.0,0.0
7.72,0.023,-0.934,0.0
7.43,0.021,-0.942,0.0
9.189,0.023,-0.907,0.0
8.76,0.021,-0.915,0.0
8.339,0.019,-0.92,0.0
0.0,0.0,0.0,0.0
7.689,0.015,-0.938,0.0
7.351,0.013,-0.939,0.0
9.124,0.014,-0.91,0.0
8.721,0.012,-0.92,0.0
8.301,0.011,-0.924,0.0
0.0,0.0,0.0,0.0
7.623,0.007,-0.937,0.0
7.335,0.006,-0.945,0.0
9.023,0.005,-0.908,0.0
8.615,0.003,-0.917,0.0
8.176,0.002,-0.918,0.0
7.895,0.001,-0.933,0.0
7.562,0.0,-0.937,0.0
7.265,0.0,-0.943,0.0
8.938,-0.003,-0.908,0.0
8.558,-0.004,-0.919,0.0
8.171,-0.005,-0.924,0.0
0.0,0.0,0.0,0.0
7.6,-0.007,-0.949,0.0
0.0,0.0,0.0,0.0
8.964,-0.012,-0.919,0.0
8.483,-0.013,-0.918,0.0
8.126,-0.014,-0.926,0.0
0.0,0.0,0.0,0.0
7.472,-0.015,-0.939,0.0
7.227,-0.016,-0.95,0.0
8.865,-0.022,-0.916,0.0
8.425,-0.022,-0.919,0.0
8.134,-0.022,-0.934,0.0
0.0,0.0,0.0,0.0
0.0,0.0,0.0,0.0
7.166,-0.023,-0.948,0.0
8.804,-0.031,-0.917,0.0
8.385,-0.031,-0.921,0.0
8.11,-0.031,-0.938,0.0
7.693,-0.031,-0.935,0.0
7.416,-0.031,-0.944,0.0
0.0,0.0,0.0,0.0
8.756,-0.04,-0.918,0.0
8.358,-0.04,-0.924,0.0
7.947,-0.039,-0.925,0.0
7.608,-0.039,-0.93,0.0
0.0,0.0,0.0,0.0
0.0,0.0,0.0,0.0
8.712,-0.049,-0.92,0.0
8.267,-0.048,-0.92,0.0
7.943,-0.048,-0.93,0.0
7.606,-0.047,-0.935,0.0
0.0,0.0,0.0,0.0
7.038,-0.046,-0.946,0.0
8.632,-0.058,-0.917,0.0
8.256,-0.057,-0.924,0.0
7.899,-0.056,-0.93,0.0
7.555,-0.055,-0.933,0.0
0.0,0.0,0.0,0.0
7.015,-0.053,-0.948,0.0
8.543,-0.067,-0.913,0.0
8.172,-0.066,-0.92,0.0
7.847,-0.065,-0.928,0.0
0.0,0.0,0.0,0.0
0.0,0.0,0.0,0.0
7.004,-0.061,-0.95,0.0
8.501,-0.077,-0.913,0.0
8.188,-0.075,-0.926,0.0
7.856,-0.074,-0.934,0.0
0.0,0.0,0.0,0.0
7.134,-0.069,-0.931,0.0
6.962,-0.069,-0.949,0.0
8.472,-0.086,-0.915,0.0
8.139,-0.084,-0.925,0.0
7.847,-0.082,-0.937,0.0
0.0,0.0,0.0,0.0
7.22,-0.078,-0.946,0.0
6.967,-0.077,-0.953,0.0
8.455,-0.095,-0.917,0.0
8.131,-0.093,-0.928,0.0
7.77,-0.09,-0.931,0.0
0.0,0.0,0.0,0.0
0.0,0.0,0.0,0.0
0.0,0.0,0.0,0.0
8.428,-0.104,-0.918,0.0
8.134,-0.102,-0.932,0.0
7.777,-0.099,-0.935,0.0
0.0,0.0,0.0,0.0
0.0,0.0,0.0,0.0
6.93,-0.092,-0.954,0.0
8.407,-0.114,-0.919,0.0
8.043,-0.11,-0.925,0.0
7.759,-0.108,-0.936,0.0
0.0,0.0,0.0,0.0
0.0,0.0,0.0,0.0
0.0,0.0,0.0,0.0
8.363,-0.123,-0.917,0.0
8.054,-0.12,-0.929,0.0
0.0,0.0,0.0,0.0
0.0,0.0,0.0,0.0
0.0,0.0,0.0,0.0
0.0,0.0,0.0,0.0
8.387,-0.133,-0.922,0.0
8.019,-0.129,-0.927,0.0
0.0,0.0,0.0,0.0
0.0,0.0,0.0,0.0
7.131,-0.119,-0.947,0.0
0.0,0.0,0.0,0.0
8.364,-0.142,-0.922,0.0
8.074,-0.139,-0.935,0.0
7.76,-0.135,-0.943,0.0
0.0,0.0,0.0,0.0
0.0,0.0,0.0,0.0
0.0,0.0,0.0,0.0
8.37,-0.152,-0.924,0.0
7.957,-0.146,-0.923,0.0
0.0,0.0,0.0,0.0
0.0,0.0,0.0,0.0
0.0,0.0,0.0,0.0
6.828,-0.131,-0.949,0.0
8.369,-0.162,-0.925,0.0
7.992,-0.156,-0.929,0.0
0.0,0.0,0.0,0.0
0.0,0.0,0.0,0.0
7.076,-0.142,-0.944,0.0
0.0,0.0,0.0,0.0
8.345,-0.171,-0.923,0.0
7.964,-0.165,-0.926,0.0
0.0,0.0,0.0,0.0
0.0,0.0,0.0,0.0
7.13,-0.152,-0.951,0.0
0.0,0.0,0.0,0.0
8.338,-0.18,-0.923,0.0
7.999,-0.174,-0.931,0.0
0.0,0.0,0.0,0.0
0.0,0.0,0.0,0.0
7.172,-0.161,-0.957,0.0
0.0,0.0,0.0,0.0
8.33,-0.19,-0.923,0.0
7.996,-0.184,-0.931,0.0
0.0,0.0,0.0,0.0
0.0,0.0,0.0,0.0
0.0,0.0,0.0,0.0
0.0,0.0,0.0,0.0
8.312,-0.199,-0.921,0.0
7.966,-0.192,-0.927,0.0
0.0,0.0,0.0,0.0
0.0,0.0,0.0,0.0
0.0,0.0,0.0,0.0
0.0,0.0,0.0,0.0
8.355,-0.209,-0.925,0.0
8.012,-0.202,-0.932,0.0
0.0,0.0,0.0,0.0
0.0,0.0,0.0,0.0
0.0,0.0,0.0,0.0
0.0,0.0,0.0,0.0
8.327,-0.218,-0.921,0.0
8.017,-0.211,-0.931,0.0
0.0,0.0,0.0,0.0
0.0,0.0,0.0,0.0
0.0,0.0,0.0,0.0
0.0,0.0,0.0,0.0
8.356,-0.228,-0.923,0.0
8.002,-0.22,-0.928,0.0
0.0,0.0,0.0,0.0
0.0,0.0,0.0,0.0
0.0,0.0,0.0,0.0
0.0,0.0,0.0,0.0
8.377,-0.238,-0.923,0.0
8.064,-0.231,-0.934,0.0
0.0,0.0,0.0,0.0
0.0,0.0,0.0,0.0
0.0,0.0,0.0,0.0
0.0,0.0,0.0,0.0
8.39,-0.248,-0.923,0.0
8.039,-0.239,-0.929,0.0
0.0,0.0,0.0,0.0
0.0,0.0,0.0,0.0
7.109,-0.216,-0.942,0.0
6.897,-0.211,-0.952,0.0
8.405,-0.257,-0.922,0.0
8.052,-0.248,-0.928,0.0
0.0,0.0,0.0,0.0
0.0,0.0,0.0,0.0
0.0,0.0,0.0,0.0
6.897,-0.218,-0.95,0.0
8.434,-0.267,-0.922,0.0
8.068,-0.257,-0.927,0.0
0.0,0.0,0.0,0.0
0.0,0.0,0.0,0.0
7.191,-0.234,-0.948,0.0
6.912,-0.226,-0.95,0.0
8.484,-0.278,-0.924,0.0
8.092,-0.267,-0.927,0.0
0.0,0.0,0.0,0.0
0.0,0.0,0.0,0.0
7.214,-0.242,-0.948,0.0
6.95,-0.235,-0.952,0.0
8.469,-0.286,-0.919,0.0
8.107,-0.276,-0.925,0.0
7.785,-0.266,-0.931,0.0
0.0,0.0,0.0,0.0
7.239,-0.251,-0.948,0.0
6.941,-0.242,-0.947,0.0
8.517,-0.297,-0.92,0.0
8.132,-0.285,-0.924,0.0
7.851,-0.277,-0.935,0.0
0.0,0.0,0.0,0.0
7.266,-0.259,-0.947,0.0
7.042,-0.253,-0.958,0.0
8.58,-0.308,-0.923,0.0
8.19,-0.295,-0.926,0.0
7.903,-0.287,-0.937,0.0
7.586,-0.277,-0.943,0.0
7.278,-0.267,-0.945,0.0
7.039,-0.26,-0.953,0.0
8.609,-0.318,-0.921,0.0
8.305,-0.308,-0.934,0.0
7.883,-0.294,-0.93,0.0
0.0,0.0,0.0,0.0
7.286,-0.275,-0.941,0.0
7.019,-0.266,-0.946,0.0
8.662,-0.328,-0.921,0.0
8.266,-0.315,-0.925,0.0
7.966,-0.305,-0.935,0.0
0.0,0.0,0.0,0.0
7.369,-0.285,-0.948,0.0
7.08,-0.275,-0.95,0.0
8.71,-0.338,-0.921,0.0
8.34,-0.326,-0.928,0.0
7.995,-0.314,-0.933,0.0
0.0,0.0,0.0,0.0
7.362,-0.292,-0.942,0.0
7.074,-0.282,-0.944,0.0
8.755,-0.349,-0.92,0.0
8.364,-0.335,-0.924,0.0
8.047,-0.323,-0.934,0.0
0.0,0.0,0.0,0.0
7.387,-0.3,-0.939,0.0
7.147,-0.292,-0.948,0.0
8.747,-0.356,-0.912,0.0
8.402,-0.344,-0.922,0.0
8.101,-0.333,-0.934,0.0
7.744,-0.32,-0.936,0.0
7.445,-0.309,-0.941,0.0
7.204,-0.301,-0.95,0.0
8.878,-0.37,-0.919,0.0
8.481,-0.355,-0.924,0.0
8.141,-0.342,-0.932,0.0
0.0,0.0,0.0,0.0
7.511,-0.319,-0.943,0.0
7.262,-0.309,-0.952,0.0
8.884,-0.378,-0.912,0.0
8.502,-0.363,-0.92,0.0
8.196,-0.352,-0.932,0.0
7.813,-0.337,-0.932,0.0
7.52,-0.326,-0.938,0.0
7.257,-0.316,-0.945,0.0
8.975,-0.39,-0.914,0.0
8.569,-0.374,-0.92,0.0
8.266,-0.362,-0.932,0.0
7.919,-0.348,-0.937,0.0
7.62,-0.336,-0.944,0.0
7.325,-0.325,-0.948,0.0
9.044,-0.4,-0.913,0.0
8.713,-0.387,-0.927,0.0
8.262,-0.368,-0.924,0.0
7.904,-0.354,-0.928,0.0
7.632,-0.343,-0.938,0.0
7.393,-0.334,-0.95,0.0
9.14,-0.412,-0.915,0.0
8.763,-0.396,-0.924,0.0
8.338,-0.379,-0.925,0.0
8.006,-0.365,-0.933,0.0
7.697,-0.352,-0.939,0.0
7.448,-0.342,-0.949,0.0
9.175,-0.421,-0.909,0.0
8.786,-0.404,-0.918,0.0
8.42,-0.389,-0.926,0.0
8.035,-0.372,-0.928,0.0
7.762,-0.361,-0.939,0.0
7.455,-0.348,-0.943,0.0
9.278,-0.432,-0.91,0.0
8.924,-0.417,-0.924,0.0
8.47,-0.397,-0.923,0.0
8.126,-0.383,-0.93,0.0
7.847,-0.371,-0.941,0.0
7.538,-0.358,-0.945,0.0
9.312,-0.441,-0.904,0.0
8.954,-0.425,-0.917,0.0
8.599,-0.41,-0.928,0.0
8.154,-0.39,-0.925,0.0
7.886,-0.378,-0.937,0.0
7.566,-0.364,-0.941,0.0
9.456,-0.454,-0.908,0.0
9.002,-0.434,-0.913,0.0
8.64,-0.418,-0.923,0.0
8.306,-0.403,-0.933,0.0
7.951,-0.387,-0.936,0.0
7.63,-0.373,-0.94,0.0
9.524,-0.464,-0.904,0.0
9.126,-0.446,-0.915,0.0
8.724,-0.427,-0.922,0.0
8.353,-0.411,-0.929,0.0
8.018,-0.395,-0.935,0.0
7.668,-0.379,-0.936,0.0
9.624,-0.475,-0.902,0.0
9.199,-0.455,-0.912,0.0
8.825,-0.438,-0.922,0.0
8.397,-0.418,-0.924,0.0
8.069,-0.403,-0.931,0.0
7.793,-0.39,-0.942,0.0
9.714,-0.485,-0.899,0.0
9.348,-0.468,-0.916,0.0
8.855,-0.445,-0.915,0.0
8.484,-0.427,-0.923,0.0
8.106,-0.41,-0.926,0.0
7.856,-0.398,-0.94,0.0
9.799,-0.495,-0.895,0.0
9.395,-0.476,-0.909,0.0
8.931,-0.454,-0.912,0.0
0.0,0.0,0.0,0.0
8.22,-0.42,-0.929,0.0
7.947,-0.407,-0.941,0.0
9.9,-0.506,-0.892,0.0
9.486,-0.486,-0.906,0.0
9.101,-0.467,-0.918,0.0
0.0,0.0,0.0,0.0
8.345,-0.431,-0.932,0.0
8.003,-0.414,-0.937,0.0
10.051,-0.519,-0.893,0.0
9.591,-0.496,-0.903,0.0
9.179,-0.476,-0.914,0.0
0.0,0.0,0.0,0.0
8.436,-0.44,-0.931,0.0
8.088,-0.422,-0.937,0.0
10.142,-0.528,-0.888,0.0
9.661,-0.504,-0.897,0.0
9.255,-0.484,-0.909,0.0
0.0,0.0,0.0,0.0
8.498,-0.447,-0.927,0.0
8.174,-0.431,-0.936,0.0
10.28,-0.54,-0.886,0.0
9.795,-0.515,-0.897,0.0
9.378,-0.495,-0.909,0.0
8.896,-0.47,-0.911,0.0
8.582,-0.455,-0.925,0.0
8.249,-0.438,-0.933,0.0
10.387,-0.55,-0.882,0.0
9.902,-0.525,-0.893,0.0
9.456,-0.502,-0.903,0.0
9.076,-0.483,-0.917,0.0
8.665,-0.462,-0.921,0.0
8.305,-0.444,-0.928,0.0
10.526,-0.561,-0.879,0.0
10.057,-0.537,-0.893,0.0
9.596,-0.513,-0.903,0.0
9.159,-0.491,-0.912,0.0
8.825,-0.474,-0.926,0.0
