X,Y,Z,Reflectivity
51.679,2.434,-0.326,0.0
0.0,0.0,0.0,0.0
32.101,1.528,-0.567,0.0
27.194,1.301,-0.638,0.0
23.789,1.144,-0.693,0.0
20.958,1.013,-0.73,0.0
0.0,0.0,0.0,0.0
38.24,1.873,-0.504,0.0
0.0,0.0,0.0,0.0
26.491,1.31,-0.653,0.0
22.965,1.142,-0.697,0.0
20.459,1.022,-0.738,0.0
43.617,2.195,-0.381,0.0
35.452,1.793,-0.511,0.0
29.669,1.507,-0.597,0.0
25.656,1.31,-0.665,0.0
22.413,1.149,-0.708,0.0
19.873,1.024,-0.741,0.0
42.515,2.206,-0.424,2.0
0.0,0.0,0.0,0.0
28.788,1.507,-0.615,0.0
24.925,1.311,-0.677,0.0
21.623,1.142,-0.711,0.0
19.477,1.033,-0.751,0.0
42.527,2.271,-0.478,0.0
33.187,1.78,-0.562,0.0
27.756,1.495,-0.628,0.0
23.981,1.297,-0.682,0.0
21.095,1.146,-0.72,0.0
19.026,1.038,-0.758,0.0
38.682,2.123,-0.485,0.0
31.542,1.739,-0.575,0.0
26.685,1.477,-0.639,0.0
23.246,1.292,-0.691,0.0
20.653,1.153,-0.732,0.0
18.513,1.037,-0.762,0.0
35.903,2.024,-0.497,0.0
29.916,1.693,-0.585,0.0
25.792,1.465,-0.651,0.0
22.555,1.286,-0.701,0.0
20.129,1.152,-0.74,0.0
18.197,1.046,-0.773,0.0
35.178,2.033,-0.534,0.0
29.076,1.686,-0.607,0.0
25.044,1.457,-0.666,0.0
21.975,1.284,-0.712,0.0
19.571,1.147,-0.746,0.0
17.717,1.043,-0.776,0.0
0.0,0.0,0.0,0.0
27.904,1.657,-0.62,0.0
24.415,1.454,-0.682,0.0
21.281,1.272,-0.718,0.0
19.157,1.149,-0.756,0.0
17.371,1.046,-0.785,0.0
31.403,1.9,-0.561,0.0
26.86,1.631,-0.634,0.0
23.488,1.431,-0.689,0.0
20.667,1.263,-0.726,0.0
18.574,1.139,-0.759,0.0
16.963,1.044,-0.79,0.0
30.209,1.868,-0.582,0.0
26.099,1.619,-0.652,0.0
22.761,1.416,-0.699,0.0
19.991,1.248,-0.73,0.0
18.196,1.139,-0.769,0.0
16.658,1.047,-0.799,0.0
28.922,1.825,-0.598,0.0
25.188,1.594,-0.664,0.0
21.988,1.396,-0.706,0.0
19.652,1.251,-0.745,1.0
17.744,1.133,-0.775,0.0
16.256,1.041,-0.803,0.0
27.986,1.8,-0.617,0.0
24.389,1.573,-0.677,0.0
21.504,1.391,-0.721,0.0
19.055,1.236,-0.75,0.0
17.319,1.127,-0.781,0.0
15.745,1.028,-0.8,0.0
26.722,1.751,-0.628,0.0
23.653,1.554,-0.691,0.0
20.753,1.367,-0.725,0.0
18.526,1.224,-0.755,0.0
16.919,1.121,-0.787,0.0
15.47,1.028,-0.808,0.0
26.204,1.747,-0.653,0.0
22.648,1.514,-0.694,0.0
20.322,1.362,-0.739,0.0
18.156,1.22,-0.766,0.0
16.557,1.116,-0.794,0.0
15.164,1.025,-0.814,0.0
25.046,1.698,-0.661,0.0
22.187,1.508,-0.712,0.0
19.646,1.339,-0.743,0.0
17.707,1.21,-0.773,0.0
16.124,1.104,-0.797,0.0
14.83,1.018,-0.818,0.0
24.288,1.673,-0.676,0.0
21.308,1.471,-0.715,0.0
19.042,1.318,-0.748,0.0
17.227,1.195,-0.778,0.0
15.785,1.098,-0.803,0.0
14.484,1.01,-0.821,0.0
23.308,1.63,-0.683,0.0
20.598,1.443,-0.722,0.0
18.484,1.298,-0.754,0.0
16.823,1.184,-0.784,0.0
15.348,1.083,-0.804,0.0
14.268,1.009,-0.829,0.0
22.634,1.605,-0.697,0.0
20.001,1.421,-0.73,0.0
18.167,1.294,-0.768,0.0
16.537,1.18,-0.795,0.0
15.077,1.079,-0.812,0.0
13.977,1.002,-0.833,0.0
21.816,1.568,-0.704,0.0
19.629,1.414,-0.746,0.0
17.672,1.275,-0.773,0.0
16.136,1.167,-0.8,0.0
14.723,1.067,-0.815,0.0
13.703,0.995,-0.838,0.0
21.245,1.546,-0.717,0.0
18.935,1.381,-0.748,0.0
17.243,1.26,-0.78,0.0
15.746,1.153,-0.805,0.0
14.51,1.065,-0.825,0.0
13.472,0.99,-0.844,0.0
20.575,1.516,-0.726,0.0
18.41,1.359,-0.755,0.0
16.704,1.235,-0.781,0.0
15.333,1.136,-0.807,0.0
14.212,1.055,-0.83,0.0
13.178,0.98,-0.845,0.0
19.921,1.484,-0.732,0.0
17.959,1.34,-0.764,0.0
16.368,1.224,-0.79,0.0
15.058,1.128,-0.815,0.0
13.856,1.04,-0.83,0.0
12.931,0.972,-0.849,0.0
19.319,1.455,-0.74,0.0
17.603,1.327,-0.775,0.0
16.067,1.214,-0.8,0.0
14.68,1.111,-0.817,0.0
13.62,1.033,-0.837,0.0
12.72,0.966,-0.855,0.0
18.77,1.427,-0.747,0.0
17.127,1.304,-0.78,0.0
15.608,1.191,-0.801,0.0
14.326,1.095,-0.819,0.0
13.403,1.026,-0.844,0.0
12.352,0.947,-0.849,0.0
18.311,1.405,-0.757,0.0
16.711,1.284,-0.787,0.0
15.305,1.178,-0.809,0.0
14.076,1.085,-0.826,0.0
13.161,1.017,-0.849,0.0
12.118,0.937,-0.851,0.0
17.85,1.382,-0.765,0.0
16.299,1.264,-0.792,0.0
14.957,1.161,-0.813,0.0
13.798,1.073,-0.831,0.0
12.837,1.0,-0.848,0.0
11.886,0.927,-0.853,0.0
17.403,1.358,-0.772,0.0
15.997,1.25,-0.802,0.0
14.594,1.142,-0.816,0.0
13.551,1.062,-0.837,0.0
12.416,0.974,-0.839,0.0
11.713,0.921,-0.859,0.0
16.977,1.335,-0.779,0.0
15.466,1.217,-0.799,0.0
14.342,1.13,-0.824,0.0
13.245,1.045,-0.838,0.0
12.275,0.97,-0.848,0.0
11.429,0.905,-0.856,0.0
16.516,1.307,-0.783,0.0
15.188,1.204,-0.808,0.0
14.097,1.119,-0.831,0.0
13.027,1.035,-0.844,0.0
12.08,0.961,-0.853,0.0
11.26,0.897,-0.86,0.0
16.204,1.29,-0.793,0.0
14.964,1.193,-0.819,0.0
13.684,1.092,-0.827,0.0
12.836,1.026,-0.851,0.0
11.848,0.948,-0.854,0.0
11.071,0.887,-0.862,0.0
15.887,1.272,-0.801,0.0
14.483,1.161,-0.814,0.0
13.562,1.088,-0.84,0.0
12.488,1.003,-0.847,0.0
11.628,0.935,-0.856,0.0
10.899,0.878,-0.866,0.0
15.44,1.243,-0.802,0.0
14.223,1.146,-0.821,0.0
13.24,1.068,-0.84,0.0
12.175,0.983,-0.844,0.0
11.377,0.92,-0.855,0.0
10.738,0.869,-0.869,0.0
15.16,1.226,-0.81,0.0
13.944,1.128,-0.825,0.0
12.974,1.051,-0.843,0.0
11.984,0.972,-0.849,0.0
11.264,0.914,-0.863,0.0
10.581,0.86,-0.872,0.0
14.893,1.209,-0.818,0.0
13.805,1.121,-0.838,0.0
12.801,1.041,-0.851,0.0
11.769,0.958,-0.851,0.0
11.082,0.903,-0.866,0.0
10.418,0.849,-0.874,0.0
14.534,1.184,-0.82,0.0
13.518,1.102,-0.84,0.0
12.454,1.016,-0.846,0.0
11.564,0.944,-0.854,0.0
10.882,0.889,-0.866,0.0
10.315,0.844,-0.881,0.0
14.123,1.153,-0.817,0.0
13.135,1.073,-0.836,0.0
12.258,1.002,-0.851,0.0
11.377,0.931,-0.856,0.0
10.727,0.879,-0.87,0.0
10.174,0.834,-0.884,0.0
13.914,1.139,-0.825,0.0
13.098,1.073,-0.852,0.0
11.945,0.979,-0.846,0.0
11.218,0.92,-0.861,0.0
10.574,0.868,-0.873,0.0
10.01,0.822,-0.884,0.0
13.76,1.128,-0.836,0.0
12.748,1.046,-0.848,0.0
11.819,0.97,-0.854,0.0
11.035,0.906,-0.863,0.0
10.422,0.857,-0.875,0.0
9.895,0.814,-0.888,0.0
13.46,1.105,-0.837,0.0
12.451,1.023,-0.846,0.0
11.576,0.951,-0.853,0.0
10.85,0.892,-0.864,0.0
10.275,0.845,-0.878,0.0
9.798,0.807,-0.894,0.0
13.156,1.081,-0.837,0.0
12.247,1.006,-0.85,0.0
11.379,0.936,-0.855,0.0
10.687,0.879,-0.866,0.0
10.183,0.838,-0.884,0.0
9.678,0.797,-0.897,0.0
13.047,1.072,-0.848,0.0
11.997,0.986,-0.849,0.0
11.216,0.922,-0.859,0.0
10.559,0.869,-0.871,0.0
10.027,0.825,-0.885,0.0
9.548,0.786,-0.898,0.0
12.827,1.054,-0.852,0.0
11.785,0.968,-0.85,0.0
11.042,0.908,-0.861,0.0
10.408,0.856,-0.872,0.0
9.919,0.816,-0.889,0.0
9.471,0.779,-0.904,0.0
12.452,1.022,-0.844,0.0
11.607,0.953,-0.853,0.0
10.862,0.892,-0.861,0.0
10.272,0.844,-0.875,0.0
9.765,0.802,-0.888,0.0
9.318,0.766,-0.902,0.0
12.23,1.002,-0.845,0.0
11.369,0.932,-0.851,0.0
10.724,0.879,-0.865,0.0
10.218,0.838,-0.884,0.0
9.693,0.795,-0.895,0.0
9.222,0.757,-0.905,0.0
12.012,0.983,-0.846,0.0
11.248,0.92,-0.857,0.0
10.597,0.867,-0.869,0.0
10.015,0.82,-0.88,0.0
9.593,0.785,-0.899,0.0
9.126,0.747,-0.908,0.0
11.81,0.964,-0.848,0.0
11.072,0.904,-0.858,0.0
10.443,0.853,-0.87,0.0
9.968,0.814,-0.889,0.0
9.538,0.779,-0.906,0.0
8.993,0.734,-0.906,0.0
11.718,0.954,-0.856,0.0
10.913,0.888,-0.86,0.0
10.309,0.839,-0.872,0.0
9.739,0.793,-0.881,0.0
9.365,0.762,-0.901,0.0
8.94,0.728,-0.912,0.0
11.445,0.929,-0.85,0.0
10.793,0.876,-0.864,0.0
10.238,0.83,-0.879,0.0
9.731,0.789,-0.893,0.0
9.21,0.747,-0.898,0.0
8.819,0.715,-0.911,0.0
11.329,0.916,-0.856,0.0
10.672,0.862,-0.868,0.0
10.086,0.815,-0.878,0.0
9.667,0.781,-0.899,0.0
9.161,0.74,-0.905,0.0
8.697,0.703,-0.909,0.0
11.158,0.898,-0.856,0.0
10.557,0.849,-0.871,0.0
9.994,0.804,-0.882,0.0
9.54,0.767,-0.898,0.0
9.056,0.728,-0.905,0.0
8.637,0.695,-0.913,0.0
11.018,0.882,-0.859,0.0
10.413,0.834,-0.872,0.0
9.89,0.792,-0.885,0.0
9.381,0.751,-0.894,0.0
8.966,0.717,-0.907,0.0
8.537,0.683,-0.913,0.0
10.876,0.866,-0.86,0.0
10.308,0.821,-0.875,0.0
9.783,0.779,-0.887,0.0
9.344,0.744,-0.902,0.0
8.932,0.711,-0.914,0.0
8.452,0.672,-0.914,0.0
10.773,0.853,-0.865,0.0
10.235,0.81,-0.88,0.0
9.758,0.772,-0.896,0.0
9.277,0.734,-0.906,0.0
8.848,0.7,-0.915,0.0
8.447,0.668,-0.923,0.0
10.66,0.839,-0.867,0.0
10.108,0.795,-0.881,0.0
9.642,0.758,-0.896,0.0
9.17,0.721,-0.906,0.0
8.762,0.688,-0.916,0.0
8.363,0.657,-0.923,0.0
10.535,0.824,-0.869,0.0
10.047,0.785,-0.886,0.0
9.538,0.745,-0.896,0.0
9.109,0.711,-0.91,0.0
8.725,0.681,-0.922,0.0
8.29,0.646,-0.924,0.0
10.411,0.808,-0.87,0.0
9.9,0.768,-0.884,0.0
9.515,0.737,-0.904,0.0
0.0,0.0,0.0,0.0
8.63,0.668,-0.921,0.0
8.235,0.637,-0.926,0.0
10.328,0.795,-0.873,0.0
9.9,0.762,-0.894,0.0
9.39,0.722,-0.902,0.0
8.91,0.685,-0.908,0.0
8.565,0.658,-0.922,0.0
8.167,0.627,-0.927,0.0
10.269,0.784,-0.878,0.0
9.819,0.749,-0.896,0.0
9.281,0.708,-0.9,0.0
8.867,0.676,-0.912,0.0
8.43,0.642,-0.916,0.0
8.102,0.617,-0.927,0.0
10.179,0.771,-0.88,0.0
9.688,0.733,-0.894,0.0
9.174,0.693,-0.899,0.0
8.804,0.665,-0.914,0.0
8.391,0.633,-0.92,0.0
8.028,0.605,-0.927,0.0
10.121,0.759,-0.885,0.0
9.637,0.722,-0.898,0.0
9.103,0.681,-0.9,0.0
8.706,0.651,-0.912,0.0
8.376,0.626,-0.926,0.0
8.042,0.6,-0.935,0.0
9.995,0.742,-0.883,0.0
9.563,0.709,-0.899,0.0
9.138,0.677,-0.912,0.0
8.713,0.645,-0.921,0.0
8.342,0.617,-0.93,0.0
7.949,0.588,-0.932,0.0
9.955,0.732,-0.888,0.0
9.527,0.699,-0.904,0.0
9.035,0.663,-0.909,0.0
8.619,0.631,-0.918,0.0
8.236,0.603,-0.925,0.0
7.912,0.579,-0.934,0.0
9.884,0.719,-0.89,0.0
9.372,0.681,-0.897,0.0
9.002,0.653,-0.913,0.0
8.6,0.623,-0.923,0.0
8.212,0.594,-0.929,0.0
7.862,0.568,-0.934,0.0
9.807,0.705,-0.89,0.0
9.39,0.674,-0.906,0.0
8.92,0.64,-0.912,0.0
0.0,0.0,0.0,0.0
8.176,0.585,-0.931,0.0
7.804,0.558,-0.934,0.0
9.707,0.69,-0.889,0.0
9.323,0.661,-0.907,0.0
8.887,0.63,-0.915,0.0
0.0,0.0,0.0,0.0
8.103,0.573,-0.929,0.0
7.778,0.549,-0.936,0.0
9.693,0.68,-0.894,0.0
9.226,0.646,-0.904,0.0
8.781,0.614,-0.911,0.0
0.0,0.0,0.0,0.0
8.033,0.56,-0.926,0.0
7.764,0.541,-0.94,0.0
9.655,0.668,-0.897,0.0
9.208,0.636,-0.908,0.0
8.746,0.604,-0.913,0.0
8.362,0.576,-0.922,0.0
8.019,0.552,-0.93,0.0
7.69,0.528,-0.936,0.0
9.593,0.655,-0.898,0.0
9.151,0.624,-0.909,0.0
8.737,0.595,-0.918,0.0
0.0,0.0,0.0,0.0
7.996,0.543,-0.932,0.0
7.648,0.518,-0.936,0.0
9.578,0.645,-0.902,0.0
9.138,0.614,-0.913,0.0
8.713,0.585,-0.92,0.0
8.294,0.556,-0.924,0.0
7.917,0.53,-0.928,0.0
7.611,0.508,-0.936,0.0
9.476,0.629,-0.898,0.0
9.055,0.6,-0.91,0.0
8.649,0.572,-0.918,0.0
8.319,0.549,-0.932,0.0
7.938,0.523,-0.934,0.0
7.6,0.5,-0.938,0.0
9.458,0.618,-0.901,0.0
9.021,0.588,-0.911,0.0
8.62,0.561,-0.919,0.0
8.215,0.534,-0.924,0.0
7.922,0.514,-0.936,0.0
7.58,0.491,-0.94,0.0
9.392,0.604,-0.899,0.0
8.971,0.576,-0.91,0.0
8.522,0.546,-0.913,0.0
0.0,0.0,0.0,0.0
7.819,0.499,-0.928,0.0
7.583,0.483,-0.943,0.0
9.352,0.592,-0.9,0.0
8.919,0.563,-0.909,0.0
8.59,0.541,-0.924,0.0
0.0,0.0,0.0,0.0
7.856,0.493,-0.936,0.0
0.0,0.0,0.0,0.0
9.359,0.582,-0.904,0.0
8.902,0.552,-0.91,0.0
8.484,0.525,-0.916,0.0
8.111,0.501,-0.923,0.0
7.822,0.482,-0.935,0.0
7.507,0.462,-0.94,0.0
9.307,0.569,-0.902,0.0
8.883,0.542,-0.912,0.0
8.478,0.516,-0.918,0.0
8.086,0.491,-0.923,0.0
7.835,0.474,-0.939,0.0
7.484,0.452,-0.939,0.0
9.325,0.56,-0.907,0.0
8.893,0.532,-0.915,0.0
8.501,0.508,-0.923,0.0
8.145,0.485,-0.932,0.0
7.808,0.464,-0.938,0.0
7.472,0.443,-0.94,0.0
9.298,0.547,-0.907,0.0
8.894,0.522,-0.918,0.0
8.476,0.496,-0.923,0.0
8.053,0.47,-0.923,0.0
7.79,0.454,-0.938,0.0
7.491,0.436,-0.944,0.0
9.25,0.534,-0.904,0.0
8.865,0.51,-0.917,0.0
8.422,0.484,-0.919,0.0
8.141,0.466,-0.935,0.0
7.792,0.445,-0.939,0.0
7.479,0.426,-0.944,0.0
9.207,0.521,-0.902,0.0
8.822,0.498,-0.914,0.0
8.499,0.478,-0.929,0.0
8.079,0.453,-0.929,0.0
7.778,0.435,-0.939,0.0
7.461,0.416,-0.943,0.0
9.195,0.509,-0.902,0.0
8.839,0.488,-0.917,0.0
8.443,0.465,-0.924,0.0
0.0,0.0,0.0,0.0
7.745,0.424,-0.936,0.0
7.464,0.407,-0.944,0.0
9.201,0.499,-0.903,0.0
8.811,0.476,-0.915,0.0
8.406,0.453,-0.92,0.0
8.081,0.434,-0.931,0.0
7.742,0.415,-0.936,0.0
7.394,0.395,-0.936,0.0
9.21,0.488,-0.905,0.0
8.774,0.464,-0.911,0.0
8.388,0.442,-0.919,0.0
8.039,0.422,-0.927,0.0
7.701,0.403,-0.931,0.0
7.434,0.388,-0.941,0.0
9.204,0.477,-0.904,0.0
8.842,0.456,-0.918,0.0
8.444,0.434,-0.925,0.0
0.0,0.0,0.0,0.0
7.742,0.396,-0.936,0.0
7.441,0.379,-0.942,0.0
9.231,0.467,-0.907,0.0
8.825,0.445,-0.916,0.0
8.393,0.422,-0.919,0.0
0.0,0.0,0.0,0.0
7.76,0.387,-0.938,0.0
7.453,0.37,-0.943,0.0
9.25,0.456,-0.908,0.0
8.834,0.434,-0.916,0.0
8.404,0.412,-0.919,0.0
8.014,0.391,-0.922,0.0
7.733,0.376,-0.934,0.0
7.498,0.363,-0.948,0.0
9.266,0.446,-0.908,0.0
8.836,0.423,-0.915,0.0
8.448,0.403,-0.923,0.0
0.0,0.0,0.0,0.0
7.765,0.368,-0.936,0.0
7.458,0.352,-0.941,0.0
9.284,0.435,-0.908,0.0
8.856,0.413,-0.916,0.0
8.468,0.394,-0.923,0.0
0.0,0.0,0.0,0.0
7.805,0.36,-0.939,0.0
7.491,0.344,-0.944,0.0
9.296,0.424,-0.908,0.0
8.803,0.4,-0.909,0.0
8.46,0.383,-0.92,0.0
0.0,0.0,0.0,0.0
7.796,0.35,-0.936,0.0
7.501,0.335,-0.943,0.0
9.272,0.411,-0.903,0.0
8.882,0.392,-0.914,0.0
8.484,0.373,-0.921,0.0
0.0,0.0,0.0,0.0
7.779,0.339,-0.932,0.0
7.526,0.327,-0.944,0.0
9.304,0.401,-0.903,0.0
8.932,0.383,-0.917,0.0
8.503,0.363,-0.92,0.0
8.151,0.346,-0.928,0.0
7.807,0.33,-0.933,0.0
7.524,0.317,-0.941,0.0
9.314,0.389,-0.901,0.0
8.908,0.371,-0.911,0.0
8.511,0.353,-0.918,0.0
0.0,0.0,0.0,0.0
7.852,0.322,-0.935,0.0
7.561,0.309,-0.943,0.0
9.371,0.38,-0.902,0.0
9.017,0.364,-0.918,0.0
8.533,0.343,-0.917,0.0
8.245,0.33,-0.932,0.0
7.883,0.313,-0.935,0.0
7.573,0.3,-0.941,0.0
9.45,0.371,-0.906,0.0
9.053,0.354,-0.918,0.0
8.666,0.337,-0.927,0.0
8.281,0.32,-0.932,0.0
7.884,0.304,-0.932,0.0
7.591,0.291,-0.939,0.0
9.44,0.359,-0.9,0.0
8.99,0.34,-0.907,0.0
8.703,0.327,-0.926,0.0
8.27,0.31,-0.927,0.0
7.943,0.296,-0.935,0.0
7.637,0.283,-0.941,0.0
9.542,0.351,-0.905,0.0
9.02,0.33,-0.905,0.0
8.66,0.315,-0.917,0.0
8.284,0.299,-0.924,0.0
7.971,0.287,-0.933,0.0
7.674,0.274,-0.941,0.0
9.502,0.337,-0.896,0.0
9.106,0.321,-0.909,0.0
8.691,0.305,-0.915,0.0
8.295,0.289,-0.92,0.0
7.995,0.277,-0.931,0.0
7.713,0.266,-0.941,0.0
9.602,0.329,-0.899,0.0
9.208,0.313,-0.913,0.0
8.718,0.295,-0.912,0.0
8.347,0.281,-0.92,0.0
8.087,0.27,-0.937,0.0
7.747,0.257,-0.94,0.0
9.698,0.32,-0.902,0.0
9.188,0.301,-0.905,0.0
8.803,0.287,-0.915,0.0
8.425,0.273,-0.923,0.0
8.083,0.26,-0.93,0.0
7.749,0.248,-0.935,0.0
9.746,0.309,-0.899,0.0
9.235,0.291,-0.903,0.0
8.814,0.276,-0.91,0.0
8.465,0.264,-0.921,0.0
8.128,0.251,-0.93,0.0
7.819,0.24,-0.937,0.0
9.776,0.298,-0.895,0.0
9.356,0.284,-0.907,0.0
8.912,0.268,-0.913,0.0
8.557,0.256,-0.925,0.0
8.163,0.242,-0.927,0.0
7.866,0.232,-0.937,0.0
9.832,0.288,-0.892,0.0
9.417,0.274,-0.906,0.0
8.956,0.259,-0.911,0.0
8.605,0.247,-0.923,0.0
8.233,0.234,-0.928,0.0
7.919,0.224,-0.936,0.0
9.896,0.278,-0.889,0.0
9.463,0.264,-0.902,0.0
8.982,0.248,-0.905,0.0
8.599,0.236,-0.915,0.0
8.267,0.225,-0.925,0.0
7.92,0.214,-0.93,0.0
10.001,0.269,-0.89,0.0
9.478,0.253,-0.895,0.0
9.102,0.241,-0.909,0.0
0.0,0.0,0.0,0.0
8.369,0.218,-0.929,0.0
7.997,0.206,-0.931,0.0
10.086,0.259,-0.888,0.0
9.608,0.244,-0.898,0.0
9.158,0.231,-0.906,0.0
0.0,0.0,0.0,0.0
8.4,0.209,-0.924,0.0
8.076,0.199,-0.932,0.0
10.145,0.248,-0.884,0.0
9.735,0.236,-0.901,0.0
9.25,0.222,-0.906,0.0
8.915,0.213,-0.923,0.0
8.457,0.2,-0.922,0.0
8.11,0.19,-0.928,0.0
10.256,0.239,-0.883,0.0
9.782,0.226,-0.895,0.0
9.359,0.214,-0.907,0.0
8.939,0.203,-0.916,0.0
8.576,0.193,-0.926,0.0
8.214,0.183,-0.931,0.0
10.35,0.229,-0.88,0.0
9.847,0.216,-0.891,0.0
9.402,0.204,-0.901,0.0
9.014,0.194,-0.914,0.0
8.642,0.184,-0.923,0.0
8.267,0.174,-0.928,0.0
10.43,0.219,-0.876,0.0
9.939,0.206,-0.888,0.0
9.445,0.194,-0.895,0.0
9.092,0.185,-0.912,0.0
8.726,0.176,-0.922,0.0
8.369,0.167,-0.93,0.0
10.552,0.209,-0.874,0.0
10.091,0.198,-0.89,0.0
9.616,0.187,-0.9,0.0
9.161,0.176,-0.908,0.0
8.814,0.168,-0.921,0.0
8.434,0.159,-0.927,0.0
10.681,0.2,-0.872,0.0
10.215,0.189,-0.889,0.0
9.723,0.178,-0.899,0.0
9.261,0.168,-0.907,0.0
8.911,0.16,-0.921,0.0
8.507,0.151,-0.925,0.0
10.845,0.191,-0.872,0.0
10.283,0.179,-0.882,0.0
9.809,0.169,-0.894,0.0
9.355,0.159,-0.904,0.0
8.964,0.151,-0.915,0.0
8.595,0.143,-0.924,0.0
11.013,0.182,-0.872,0.0
10.366,0.169,-0.876,0.0
9.895,0.16,-0.89,0.0
9.51,0.152,-0.907,0.0
9.098,0.143,-0.917,0.0
8.705,0.135,-0.924,0.0
11.171,0.173,-0.87,0.0
10.499,0.16,-0.874,0.0
10.036,0.151,-0.889,0.0
9.594,0.143,-0.903,0.0
9.16,0.135,-0.911,0.0
8.79,0.128,-0.922,0.0
11.27,0.163,-0.863,0.0
10.664,0.152,-0.874,0.0
10.175,0.143,-0.888,0.0
9.727,0.135,-0.902,0.0
9.216,0.126,-0.904,0.0
8.885,0.12,-0.919,0.0
11.404,0.153,-0.858,0.0
10.785,0.143,-0.869,0.0
10.29,0.134,-0.884,0.0
9.832,0.126,-0.898,0.0
9.374,0.119,-0.907,0.0
9.008,0.112,-0.919,0.0
11.547,0.143,-0.852,0.0
11.018,0.135,-0.872,0.0
10.4,0.125,-0.878,0.0
9.932,0.118,-0.893,0.0
9.522,0.111,-0.907,0.0
9.122,0.105,-0.918,0.0
11.738,0.134,-0.849,0.0
11.223,0.126,-0.872,0.0
10.521,0.116,-0.873,0.0
10.052,0.109,-0.889,0.0
9.634,0.103,-0.903,0.0
9.212,0.097,-0.913,0.0
11.981,0.125,-0.849,0.0
11.334,0.117,-0.863,0.0
10.702,0.108,-0.872,0.0
10.197,0.101,-0.886,0.0
9.791,0.095,-0.903,0.0
9.331,0.089,-0.911,0.0
12.255,0.117,-0.85,0.0
11.466,0.107,-0.856,0.0
10.922,0.1,-0.873,0.0
10.321,0.093,-0.881,0.0
9.873,0.087,-0.896,0.0
9.445,0.082,-0.907,0.0
12.481,0.108,-0.847,0.0
11.646,0.099,-0.852,0.0
11.05,0.092,-0.867,0.0
10.478,0.085,-0.879,0.0
10.053,0.08,-0.896,0.0
9.589,0.075,-0.906,0.0
12.79,0.099,-0.847,0.0
11.87,0.09,-0.849,0.0
11.311,0.084,-0.869,0.0
10.697,0.078,-0.88,0.0
10.182,0.072,-0.891,0.0
9.757,0.067,-0.906,0.0
13.113,0.09,-0.848,0.0
12.182,0.082,-0.852,0.0
11.403,0.075,-0.858,0.0
10.85,0.07,-0.875,0.0
10.311,0.064,-0.886,0.0
9.859,0.06,-0.899,0.0
13.37,0.081,-0.843,0.0
12.456,0.074,-0.851,0.0
11.606,0.067,-0.854,0.0
10.986,0.062,-0.867,0.0
10.437,0.057,-0.879,0.0
10.036,0.053,-0.899,0.0
13.59,0.072,-0.834,0.0
12.886,0.066,-0.858,0.0
11.822,0.059,-0.85,0.0
11.268,0.054,-0.871,0.0
10.65,0.05,-0.879,0.0
10.155,0.046,-0.892,0.0
13.967,0.063,-0.833,0.0
12.987,0.057,-0.843,0.0
12.128,0.051,-0.851,0.0
11.388,0.046,-0.86,0.0
10.815,0.042,-0.874,0.0
10.3,0.039,-0.887,0.0
14.322,0.054,-0.83,0.0
13.283,0.048,-0.839,0.0
12.469,0.043,-0.853,0.0
11.594,0.039,-0.856,0.0
11.029,0.035,-0.872,0.0
10.446,0.032,-0.881,0.0
14.623,0.045,-0.822,0.0
13.609,0.04,-0.836,0.0
12.734,0.035,-0.849,0.0
11.831,0.031,-0.852,0.0
11.284,0.028,-0.872,0.0
10.666,0.025,-0.88,0.0
15.035,0.036,-0.818,0.0
14.013,0.032,-0.836,0.0
13.117,0.028,-0.851,0.0
12.171,0.024,-0.855,0.0
11.445,0.021,-0.864,0.0
10.856,0.019,-0.876,0.0
15.378,0.027,-0.809,0.0
14.327,0.023,-0.828,0.0
13.449,0.02,-0.848,0.0
12.482,0.017,-0.854,0.0
11.634,0.014,-0.857,0.0
11.035,0.012,-0.871,0.0
15.841,0.018,-0.804,0.0
14.669,0.015,-0.822,0.0
13.672,0.012,-0.837,0.0
12.809,0.01,-0.853,0.0
11.889,0.008,-0.854,0.0
11.302,0.006,-0.871,0.0
16.346,0.009,-0.8,0.0
15.096,0.006,-0.817,0.0
14.105,0.004,-0.837,0.0
13.015,0.002,-0.842,0.0
12.252,0.001,-0.857,0.0
11.482,0.0,-0.863,0.0
16.833,0.0,-0.792,0.0
15.462,-0.001,-0.808,0.0
14.441,-0.002,-0.83,0.0
13.4,-0.004,-0.841,0.0
12.516,-0.005,-0.851,0.0
11.706,-0.006,-0.857,0.0
17.512,-0.008,-0.791,0.0
15.931,-0.009,-0.802,0.0
14.828,-0.01,-0.824,0.0
13.755,-0.011,-0.837,0.0
12.9,-0.011,-0.853,0.0
12.012,-0.012,-0.857,0.0
17.742,-0.017,-0.767,0.0
16.509,-0.017,-0.8,0.0
15.184,-0.017,-0.815,0.0
14.165,-0.017,-0.835,0.0
13.278,-0.018,-0.852,0.0
12.362,-0.018,-0.858,0.0
18.46,-0.026,-0.763,0.0
16.992,-0.025,-0.79,0.0
15.69,-0.025,-0.811,0.0
14.528,-0.024,-0.828,0.0
13.543,-0.024,-0.842,0.0
12.644,-0.023,-0.852,0.0
19.224,-0.035,-0.756,0.0
17.636,-0.034,-0.785,0.0
16.136,-0.032,-0.802,0.0
14.918,-0.031,-0.82,0.0
14.011,-0.03,-0.843,0.0
12.982,-0.029,-0.849,0.0
19.934,-0.044,-0.745,0.0
18.15,-0.041,-0.772,0.0
16.709,-0.039,-0.797,0.0
15.388,-0.037,-0.815,0.0
14.311,-0.036,-0.833,0.0
13.41,-0.035,-0.85,0.0
20.587,-0.052,-0.728,0.0
18.653,-0.049,-0.756,0.0
17.271,-0.046,-0.79,0.0
15.861,-0.044,-0.809,0.0
14.761,-0.042,-0.829,0.0
13.71,-0.04,-0.842,0.0
21.936,-0.063,-0.732,0.0
19.433,-0.057,-0.749,0.0
17.86,-0.053,-0.781,0.0
16.337,-0.05,-0.8,0.0
15.2,-0.047,-0.823,0.0
14.167,-0.045,-0.841,0.0
22.173,-0.069,-0.695,0.0
20.105,-0.064,-0.734,0.0
18.388,-0.06,-0.766,0.0
16.96,-0.056,-0.796,0.0
15.591,-0.052,-0.813,0.0
14.466,-0.049,-0.829,0.0
23.805,-0.08,-0.698,0.0
21.079,-0.072,-0.727,0.0
19.203,-0.067,-0.761,0.0
17.529,-0.062,-0.788,0.0
16.106,-0.057,-0.807,0.0
14.976,-0.054,-0.828,0.0
25.066,-0.089,-0.684,0.0
22.06,-0.08,-0.716,1.0
19.772,-0.072,-0.743,0.0
18.153,-0.067,-0.778,0.0
16.739,-0.063,-0.804,0.0
15.434,-0.058,-0.821,0.0
26.144,-0.098,-0.659,0.0
23.213,-0.088,-0.705,0.0
20.617,-0.078,-0.733,0.0
18.714,-0.072,-0.764,0.0
17.238,-0.067,-0.792,0.0
15.93,-0.062,-0.815,0.0
27.424,-0.106,-0.635,0.0
24.313,-0.095,-0.688,0.0
21.824,-0.086,-0.73,0.0
19.41,-0.077,-0.752,0.0
17.734,-0.07,-0.778,0.0
16.424,-0.066,-0.806,0.0
0.0,0.0,0.0,0.0
25.625,-0.102,-0.672,0.0
22.531,-0.09,-0.707,0.0
20.3,-0.082,-0.744,0.0
18.404,-0.074,-0.77,0.0
17.013,-0.069,-0.799,0.0
31.195,-0.125,-0.593,0.0
26.998,-0.109,-0.652,0.0
23.584,-0.095,-0.691,0.0
21.228,-0.086,-0.733,0.0
19.205,-0.078,-0.763,0.0
17.553,-0.072,-0.787,0.0
0.0,0.0,0.0,0.0
0.0,0.0,0.0,0.0
24.89,-0.101,-0.677,0.0
22.125,-0.09,-0.718,0.0
19.922,-0.081,-0.749,0.0
18.159,-0.074,-0.777,0.0
36.38,-0.145,-0.539,0.0
30.133,-0.121,-0.602,0.0
26.929,-0.108,-0.676,0.0
23.382,-0.094,-0.71,0.0
20.834,-0.083,-0.74,0.0
18.883,-0.076,-0.768,0.0
0.0,0.0,0.0,0.0
32.317,-0.127,-0.577,0.0
27.533,-0.108,-0.633,0.0
24.498,-0.096,-0.692,0.0
21.806,-0.085,-0.728,0.0
19.574,-0.076,-0.755,0.0
45.155,-0.174,-0.479,0.0
34.694,-0.133,-0.546,0.0
29.78,-0.114,-0.622,0.0
25.61,-0.097,-0.669,0.0
22.653,-0.086,-0.709,0.0
20.447,-0.077,-0.745,0.0
45.434,-0.168,-0.386,1.0
0.0,0.0,0.0,0.0
31.838,-0.117,-0.598,0.0
27.181,-0.099,-0.653,0.0
23.985,-0.087,-0.699,0.0
21.776,-0.078,-0.747,0.0
0.0,0.0,0.0,0.0
0.0,0.0,0.0,0.0
34.374,-0.12,-0.572,0.0
0.0,0.0,0.0,0.0
25.489,-0.087,-0.689,0.0
22.109,-0.075,-0.712,1.0
0.0,0.0,0.0,0.0
45.119,-0.149,-0.424,2.0
0.0,0.0,0.0,0.0
30.783,-0.099,-0.609,0.0
26.597,-0.085,-0.663,0.0
23.609,-0.074,-0.71,0.0
0.0,0.0,0.0,0.0
0.0,0.0,0.0,0.0
0.0,0.0,0.0,0.0
0.0,0.0,0.0,0.0
28.183,-0.082,-0.643,0.0
24.716,-0.071,-0.691,0.0
0.0,0.0,0.0,0.0
0.0,0.0,0.0,0.0
44.901,-0.121,-0.464,1.0
35.855,-0.095,-0.558,0.0
29.993,-0.078,-0.621,0.0
26.086,-0.066,-0.674,0.0
0.0,0.0,0.0,0.0
0.0,0.0,0.0,0.0
0.0,0.0,0.0,0.0
37.617,-0.087,-0.505,0.0
32.144,-0.072,-0.597,0.0
27.708,-0.061,-0.658,0.0
0.0,0.0,0.0,0.0
0.0,0.0,0.0,0.0
0.0,0.0,0.0,0.0
0.0,0.0,0.0,0.0
34.968,-0.065,-0.575,0.0
29.328,-0.052,-0.634,0.0
110.768,-0.19,0.7,18.0
0.0,0.0,0.0,0.0
0.0,0.0,0.0,0.0
45.395,-0.068,-0.418,2.0
37.417,-0.053,-0.537,0.0
0.0,0.0,0.0,0.0
117.324,-0.15,0.988,11.0
99.194,-0.119,0.325,2.0
0.0,0.0,0.0,0.0
0.0,0.0,0.0,0.0
39.975,-0.038,-0.489,0.0
0.0,0.0,0.0,0.0
117.369,-0.094,1.237,20.0
110.679,-0.079,0.597,5.0
0.0,0.0,0.0,0.0
0.0,0.0,0.0,0.0
45.038,-0.021,-0.457,1.0
35.646,-0.013,-0.545,0.0
111.144,-0.032,1.403,15.0
111.196,-0.022,0.831,9.0
95.574,-0.011,0.222,1.0
0.0,0.0,0.0,0.0
45.893,0.003,-0.37,0.0
39.214,0.006,-0.518,0.0
117.311,0.029,1.726,13.0
111.153,0.039,1.064,10.0
0.0,0.0,0.0,0.0
0.0,0.0,0.0,0.0
0.0,0.0,0.0,0.0
44.584,0.033,-0.496,0.0
117.339,0.099,1.973,22.0
111.145,0.105,1.298,20.0
110.735,0.116,0.72,8.0
0.0,0.0,0.0,0.0
0.0,0.0,0.0,0.0
45.37,0.062,-0.411,1.0
117.444,0.172,2.217,19.0
111.04,0.174,1.523,18.0
111.144,0.187,0.95,9.0
93.649,0.168,0.309,2.0
0.0,0.0,0.0,0.0
49.825,0.1,-0.349,0.0
117.555,0.249,2.461,2.0
119.888,0.268,1.891,13.0
111.14,0.262,1.18,14.0
104.166,0.258,0.557,10.0
0.0,0.0,0.0,0.0
0.0,0.0,0.0,0.0
119.828,0.338,2.755,15.0
119.859,0.352,2.136,9.0
119.682,0.367,1.514,10.0
110.908,0.353,0.818,15.0
91.616,0.303,0.203,1.0
0.0,0.0,0.0,0.0
119.846,0.424,2.996,39.0
119.886,0.44,2.378,39.0
119.867,0.455,1.756,110.0
111.115,0.437,1.043,16.0
94.671,0.384,0.398,3.0
0.0,0.0,0.0,0.0
194.474,0.836,5.251,14.0
194.166,0.861,4.239,9.0
111.186,0.508,1.851,20.0
111.105,0.523,1.263,23.0
104.544,0.506,0.647,8.0
87.992,0.438,0.09,5.0
111.159,0.566,3.222,20.0
111.137,0.582,2.646,21.0
111.093,0.597,2.069,26.0
0.0,0.0,0.0,0.0
110.956,0.628,0.906,14.0
87.322,0.507,0.261,0.0
111.035,0.657,3.437,23.0
111.067,0.674,2.862,29.0
111.047,0.69,2.287,30.0
101.616,0.646,1.555,5.0
101.082,0.658,1.023,4.0
97.898,0.652,0.483,6.0
104.766,0.711,3.449,18.0
111.087,0.771,3.081,19.0
104.853,0.743,2.363,15.0
101.054,0.732,1.743,2.0
100.5,0.743,1.212,6.0
104.768,0.791,0.72,18.0
69.698,0.535,2.429,20.0
104.723,0.821,3.107,27.0
104.742,0.838,2.564,22.0
100.351,0.819,1.925,2.0
100.189,0.834,1.401,8.0
104.743,0.889,0.922,14.0
69.871,0.602,2.571,9.0
104.639,0.918,3.305,22.0
104.703,0.936,2.762,37.0
99.979,0.91,2.108,5.0
104.749,0.972,1.665,17.0
98.74,0.932,1.055,18.0
97.964,0.937,3.789,27.0
69.646,0.678,2.331,10.0
98.812,0.978,2.792,18.0
104.734,1.055,2.405,15.0
98.711,1.011,1.752,24.0
98.636,1.028,1.238,28.0
98.583,1.04,3.997,15.0
98.361,1.055,3.476,15.0
98.678,1.076,2.972,19.0
98.635,1.093,2.447,23.0
98.577,1.11,1.933,29.0
98.561,1.128,1.42,33.0
70.057,0.811,2.972,18.0
98.463,1.158,3.662,12.0
98.554,1.178,3.152,17.0
98.573,1.195,2.628,31.0
98.558,1.213,2.115,31.0
98.551,1.231,1.599,32.0
98.685,1.247,4.367,23.0
98.35,1.261,3.839,21.0
98.36,1.28,3.326,17.0
98.501,1.3,2.806,34.0
98.561,1.319,2.292,31.0
98.603,1.339,1.779,32.0
78.755,1.081,3.629,11.0
98.207,1.367,4.012,23.0
98.391,1.388,3.503,17.0
98.476,1.407,2.981,18.0
98.593,1.428,2.47,28.0
119.917,1.76,2.376,55.0
98.073,1.455,4.692,15.0
98.246,1.476,4.185,22.0
69.862,1.063,2.61,15.0
120.321,1.854,3.853,16.0
189.579,2.96,5.079,9.0
92.01,1.454,1.982,6.0
85.597,1.366,4.244,13.0
78.694,1.272,3.49,16.0
120.473,1.971,4.709,17.0
69.989,1.159,2.361,7.0
91.947,1.541,2.621,17.0
91.9,1.559,2.139,34.0
91.442,1.567,4.693,21.0
92.198,1.598,4.246,20.0
78.782,1.382,3.215,6.0
91.948,1.632,3.261,6.0
91.871,1.649,2.775,29.0
91.829,1.666,2.292,35.0
91.496,1.677,4.851,10.0
85.516,1.584,4.082,15.0
78.768,1.476,3.346,12.0
91.644,1.735,3.402,17.0
91.81,1.758,2.925,31.0
91.796,1.776,2.442,28.0
81.982,1.601,4.482,4.0
85.42,1.686,4.219,15.0
85.434,1.705,3.77,24.0
85.412,1.722,3.31,15.0
91.784,1.869,3.073,18.0
91.917,1.892,2.595,18.0
80.932,1.681,4.556,9.0
85.133,1.786,4.343,20.0
85.327,1.809,3.903,31.0
78.834,1.688,3.182,12.0
85.288,1.844,2.992,34.0
85.281,1.862,2.543,32.0
80.768,1.779,4.676,3.0
85.329,1.898,4.488,13.0
85.314,1.916,4.037,34.0
85.304,1.934,3.577,39.0
78.89,1.806,2.891,28.0
85.268,1.971,2.676,30.0
78.784,1.837,4.685,3.0
81.05,1.907,4.389,11.0
85.416,2.029,4.174,26.0
85.361,2.046,3.711,25.0
85.342,2.064,3.26,21.0
85.299,2.083,2.808,15.0
78.817,1.941,4.808,10.0
78.851,1.96,4.393,13.0
78.886,1.978,3.976,9.0
78.903,1.996,3.551,16.0
78.865,2.013,3.132,27.0
78.834,2.03,2.714,27.0
0.0,0.0,0.0,0.0
78.766,2.063,4.506,23.0
78.781,2.08,4.088,26.0
78.797,2.098,3.662,37.0
78.809,2.117,3.245,39.0
78.805,2.134,2.828,29.0
70.863,1.935,4.534,10.0
72.615,1.999,4.259,14.0
78.874,2.189,4.207,18.0
78.824,2.205,3.777,22.0
78.877,2.224,3.361,19.0
78.809,2.241,2.94,18.0
65.405,1.875,4.278,20.0
71.728,2.072,4.309,22.0
72.822,2.121,3.988,14.0
82.31,2.417,4.061,4.0
115.955,3.432,5.105,13.0
78.817,2.351,3.051,4.0
65.421,1.967,4.372,9.0
70.698,2.142,4.346,6.0
72.169,2.203,4.052,10.0
82.235,2.529,4.171,7.0
114.982,3.564,5.219,9.0
78.777,2.46,3.156,14.0
79.758,2.511,5.439,10.0
65.576,2.079,4.121,25.0
72.145,2.304,4.148,18.0
65.634,2.112,3.417,15.0
72.421,2.347,3.384,25.0
72.468,2.365,2.999,28.0
66.578,2.191,4.629,28.0
65.647,2.176,4.213,9.0
72.373,2.416,4.258,22.0
72.241,2.428,3.855,25.0
72.335,2.448,3.474,35.0
72.383,2.468,3.091,42.0
44.996,1.546,3.187,9.0
66.531,2.301,4.355,25.0
65.801,2.291,3.955,12.0
72.155,2.529,3.943,30.0
72.304,2.552,3.564,24.0
72.41,2.573,3.182,33.0
40.699,1.457,2.934,47.0
40.976,1.477,2.734,7.0
65.74,2.386,4.033,21.0
66.29,2.422,3.705,22.0
66.27,2.437,3.348,30.0
66.306,2.454,2.995,10.0
40.611,1.514,2.977,47.0
40.946,1.537,2.782,49.0
44.915,1.697,2.81,10.0
66.065,2.511,3.771,23.0
66.223,2.533,3.425,17.0
66.218,2.549,3.069,23.0
40.727,1.58,3.034,44.0
40.935,1.598,2.829,42.0
44.908,1.763,2.862,29.0
65.591,2.591,3.82,41.0
65.979,2.623,3.489,10.0
52.827,2.113,2.509,8.0
40.6,1.636,3.071,41.0
41.046,1.664,2.884,27.0
41.133,1.677,2.668,37.0
44.811,1.838,2.661,29.0
65.475,2.702,3.534,40.0
65.93,2.737,3.205,17.0
40.437,1.691,3.104,47.0
40.64,1.709,2.9,43.0
41.075,1.737,2.709,41.0
44.855,1.907,2.711,4.0
65.64,2.807,3.613,33.0
65.971,2.838,3.276,18.0
40.35,1.748,3.14,46.0
40.603,1.769,2.94,41.0
41.019,1.797,2.748,32.0
41.355,1.822,2.543,38.0
52.992,2.347,2.971,11.0
52.976,2.36,2.685,4.0
40.456,1.816,3.19,37.0
40.527,1.829,2.976,45.0
40.877,1.854,2.78,34.0
41.026,1.871,2.564,48.0
59.479,2.728,3.395,11.0
59.534,2.744,3.076,9.0
40.679,1.889,3.248,24.0
40.489,1.89,3.013,35.0
40.803,1.914,2.814,38.0
41.081,1.937,2.607,38.0
41.758,1.979,2.423,26.0
52.825,2.517,2.78,20.0
40.419,1.941,3.266,24.0
40.513,1.954,3.053,40.0
40.749,1.975,2.849,40.0
40.982,1.996,2.638,51.0
41.47,2.03,2.444,20.0
41.798,2.056,2.237,32.0
40.279,1.996,3.291,38.0
40.44,2.014,3.083,38.0
40.672,2.035,2.879,42.0
40.926,2.057,2.671,41.0
41.271,2.084,2.468,15.0
41.795,2.121,2.273,20.0
40.344,2.063,3.331,42.0
40.356,2.073,3.112,40.0
40.772,2.104,2.921,43.0
40.927,2.121,2.704,42.0
40.963,2.133,2.484,45.0
41.796,2.186,2.307,36.0
40.473,2.132,3.375,42.0
40.354,2.135,3.144,37.0
40.794,2.168,2.955,45.0
40.916,2.184,2.736,42.0
40.988,2.198,2.517,44.0
41.525,2.236,2.324,42.0
40.488,2.197,3.407,37.0
40.451,2.204,3.182,39.0
40.643,2.224,2.974,46.0
40.946,2.25,2.768,39.0
41.183,2.273,2.56,39.0
41.886,2.321,2.374,39.0
40.526,2.262,3.44,41.0
40.656,2.279,3.228,42.0
40.824,2.298,3.017,52.0
40.985,2.316,2.8,32.0
41.405,2.35,2.602,16.0
41.858,2.385,2.402,25.0
40.568,2.328,3.471,39.0
40.471,2.332,3.241,40.0
40.995,2.371,3.057,35.0
41.405,2.404,2.856,40.0
42.36,2.47,2.69,6.0
41.589,2.435,2.413,33.0
40.855,2.409,3.522,54.0
45.353,2.684,3.66,3.0
41.25,2.45,3.102,43.0
41.494,2.474,2.888,33.0
42.445,2.54,2.721,4.0
41.557,2.497,2.436,37.0
41.446,2.508,3.598,39.0
41.662,2.531,3.387,35.0
41.325,2.519,3.132,21.0
41.763,2.555,2.931,16.0
41.797,2.567,2.703,26.0
41.545,2.562,2.459,38.0
41.8,2.596,3.652,38.0
41.948,2.614,3.434,36.0
41.763,2.612,3.188,42.0
41.682,2.616,2.947,30.0
41.894,2.639,2.732,16.0
52.272,3.305,3.121,11.0
41.904,2.668,3.684,35.0
42.057,2.687,3.464,16.0
41.935,2.688,3.222,34.0
41.679,2.681,2.968,36.0
41.779,2.696,2.744,36.0
41.624,2.696,2.505,42.0
41.89,2.732,3.702,35.0
41.91,2.742,3.471,47.0
44.888,2.947,3.47,6.0
41.79,2.753,2.995,37.0
41.775,2.761,2.763,39.0
52.261,3.467,3.168,11.0
42.016,2.806,3.732,26.0
41.713,2.795,3.473,40.0
44.58,2.997,3.465,4.0
42.056,2.836,3.031,14.0
41.954,2.838,2.792,30.0
41.677,2.829,2.543,43.0
45.316,3.097,4.042,3.0
41.614,2.852,3.481,45.0
41.874,2.88,3.27,16.0
41.865,2.887,3.033,31.0
42.054,2.91,2.813,43.0
41.853,2.905,2.568,37.0
41.688,2.913,3.733,35.0
41.636,2.919,3.497,37.0
41.67,2.93,3.267,33.0
41.638,2.936,3.03,40.0
52.503,3.714,3.529,7.0
42.005,2.98,2.591,34.0
41.438,2.96,3.723,32.0
41.471,2.971,3.495,33.0
41.551,2.985,3.27,39.0
41.649,3.001,3.042,35.0
48.403,3.498,3.266,6.0
42.012,3.045,2.602,37.0
41.287,3.013,3.721,37.0
41.35,3.025,3.495,32.0
41.604,3.052,3.285,34.0
41.721,3.069,3.057,16.0
46.013,3.395,3.115,4.0
81.77,6.05,5.083,26.0
41.27,3.073,3.728,32.0
41.303,3.084,3.5,44.0
41.682,3.121,3.299,15.0
41.864,3.143,3.076,21.0
42.295,3.184,2.872,17.0
45.992,3.472,2.867,9.0
41.214,3.132,3.73,34.0
41.31,3.147,3.507,42.0
41.657,3.181,3.304,27.0
41.665,3.19,3.067,31.0
42.008,3.224,2.858,39.0
45.921,3.534,2.869,34.0
41.179,3.19,3.732,44.0
41.275,3.205,3.509,43.0
41.573,3.236,3.302,42.0
41.635,3.249,3.07,37.0
41.959,3.283,2.859,18.0
45.884,3.6,2.871,14.0
41.238,3.256,3.741,43.0
41.395,3.276,3.523,32.0
45.646,3.621,3.629,3.0
41.867,3.33,3.089,41.0
41.801,3.332,2.851,31.0
45.792,3.66,2.868,36.0
41.466,3.335,3.764,31.0
41.343,3.333,3.52,36.0
41.819,3.378,3.326,16.0
41.631,3.371,3.073,35.0
41.768,3.39,2.849,43.0
45.743,3.722,2.865,35.0
41.479,3.396,3.765,37.0
41.524,3.407,3.535,16.0
41.601,3.421,3.308,16.0
41.613,3.429,3.071,33.0
41.767,3.45,2.848,38.0
45.743,3.787,2.863,27.0
41.367,3.446,3.753,40.0
41.29,3.446,3.514,43.0
41.552,3.476,3.302,27.0
41.487,3.477,3.06,28.0
41.689,3.502,2.84,39.0
45.756,3.853,2.861,35.0
41.325,3.501,3.746,41.0
41.275,3.503,3.509,36.0
48.542,4.129,3.853,7.0
41.52,3.539,3.058,35.0
41.761,3.567,2.841,19.0
45.783,3.919,2.857,24.0
41.313,3.557,3.74,31.0
44.441,3.834,3.772,3.0
41.615,3.597,3.298,30.0
41.573,3.601,3.056,27.0
41.622,3.612,2.825,41.0
45.864,3.989,2.855,29.0
41.386,3.621,3.74,35.0
44.337,3.886,3.756,6.0
41.603,3.653,3.289,38.0
41.538,3.654,3.046,40.0
41.665,3.672,2.82,44.0
41.91,3.701,2.601,5.0
41.352,3.673,3.729,32.0
41.328,3.677,3.493,16.0
41.632,3.711,3.283,25.0
41.524,3.708,3.035,46.0
41.667,3.728,2.811,35.0
72.81,6.526,4.502,20.0
41.194,3.714,3.704,35.0
41.78,3.773,3.52,22.0
41.503,3.754,3.262,37.0
41.544,3.764,3.026,41.0
44.776,4.064,3.009,4.0
44.664,4.062,2.75,12.0
41.22,3.77,3.695,28.0
41.673,3.817,3.499,35.0
41.493,3.807,3.249,39.0
41.671,3.83,3.023,42.0
44.732,4.118,2.992,32.0
44.654,4.118,2.735,30.0
41.286,3.829,3.688,31.0
41.75,3.878,3.492,32.0
41.572,3.867,3.241,33.0
42.006,3.914,3.033,20.0
44.505,4.153,2.962,21.0
72.682,6.794,4.427,19.0
41.745,3.924,3.714,17.0
41.8,3.935,3.481,36.0
41.567,3.918,3.226,34.0
44.356,4.188,3.186,24.0
43.568,4.12,2.883,31.0
72.993,6.914,4.418,32.0
42.08,4.007,3.727,19.0
41.901,3.996,3.472,35.0
41.574,3.97,3.209,33.0
44.402,4.246,3.171,4.0
43.355,4.152,2.851,33.0
72.653,6.969,4.366,29.0
43.969,4.24,3.875,5.0
42.057,4.061,3.467,37.0
42.013,4.062,3.225,17.0
41.997,4.066,2.981,12.0
43.446,4.212,2.837,24.0
72.687,7.057,4.335,28.0
43.831,4.278,3.842,29.0
42.031,4.107,3.445,28.0
42.598,4.168,3.249,17.0
42.062,4.12,2.965,10.0
42.943,4.213,2.783,11.0
72.769,7.149,4.304,29.0
43.868,4.332,3.823,30.0
42.06,4.158,3.426,16.0
42.727,4.229,3.237,17.0
0.0,0.0,0.0,0.0
42.892,4.256,2.757,16.0
73.085,7.262,4.283,20.0
43.901,4.384,3.802,13.0
42.079,4.207,3.404,14.0
42.824,4.286,3.22,30.0
0.0,0.0,0.0,0.0
42.867,4.301,2.731,11.0
88.538,8.895,5.138,33.0
43.894,4.431,3.776,17.0
44.105,4.457,3.542,17.0
0.0,0.0,0.0,0.0
42.936,4.348,2.954,27.0
44.856,4.548,2.831,4.0
88.537,8.988,5.085,36.0
44.049,4.493,3.762,28.0
44.137,4.506,3.518,40.0
43.499,4.445,3.218,20.0
43.398,4.44,2.959,24.0
58.339,5.975,3.646,9.0
88.318,9.056,5.017,23.0
44.246,4.558,3.751,22.0
44.231,4.561,3.496,24.0
43.567,4.496,3.195,24.0
42.93,4.435,2.899,17.0
58.303,6.03,3.605,20.0
87.878,9.099,4.933,21.0
44.345,4.612,3.729,19.0
44.107,4.591,3.456,41.0
42.842,4.464,3.112,20.0
42.826,4.466,2.862,43.0
42.835,4.472,2.618,3.0
87.425,9.136,4.846,21.0
44.283,4.648,3.692,38.0
44.092,4.632,3.423,32.0
42.758,4.495,3.075,20.0
44.792,4.713,2.961,3.0
54.695,5.761,3.304,6.0
87.0,9.172,4.759,23.0
44.151,4.675,3.648,26.0
44.044,4.667,3.387,38.0
44.511,4.719,3.168,30.0
42.907,4.553,2.804,29.0
42.906,4.557,2.559,23.0
84.164,8.948,4.54,35.0
44.053,4.703,3.606,25.0
44.404,4.744,3.38,17.0
43.925,4.696,3.092,29.0
43.042,4.605,2.78,27.0
42.9,4.593,2.525,26.0
84.137,9.017,4.472,23.0
44.132,4.749,3.577,33.0
44.396,4.78,3.343,20.0
43.21,4.656,3.006,26.0
43.015,4.638,2.742,39.0
42.819,4.62,2.485,35.0
54.67,5.903,2.862,11.0
44.308,4.803,3.554,27.0
44.316,4.807,3.301,23.0
43.19,4.688,2.969,37.0
42.88,4.657,2.698,28.0
42.853,4.657,2.451,29.0
84.05,9.142,4.329,14.0
44.273,4.834,3.513,38.0
44.377,4.847,3.267,36.0
43.745,4.781,2.97,22.0
42.52,4.65,2.638,42.0
42.819,4.686,2.412,19.0
84.04,9.203,4.254,21.0
44.208,4.859,3.469,46.0
44.862,4.933,3.262,19.0
44.499,4.896,2.981,32.0
42.501,4.678,2.599,38.0
84.036,9.256,4.66,15.0
84.063,9.265,4.181,29.0
52.062,5.758,4.039,8.0
44.802,4.957,3.218,8.0
44.42,4.917,2.935,31.0
42.554,4.712,2.564,25.0
84.076,9.316,4.585,14.0
84.07,9.321,4.104,28.0
52.059,5.791,3.99,20.0
44.634,4.967,3.164,19.0
44.557,4.96,2.903,25.0
84.051,9.362,4.986,15.0
54.8,6.107,2.937,16.0
84.072,9.374,4.024,28.0
52.183,5.837,3.949,15.0
44.302,4.957,3.098,18.0
44.541,4.986,2.858,29.0
84.064,9.414,4.905,24.0
84.06,9.417,4.423,18.0
84.027,9.418,3.94,19.0
51.692,5.812,3.86,11.0
44.305,4.983,3.054,24.0
44.53,5.01,2.813,28.0
83.968,9.45,4.816,27.0
83.913,9.447,4.332,21.0
83.859,9.445,3.849,25.0
54.87,6.198,4.043,9.0
44.238,4.998,3.005,26.0
44.534,5.033,2.769,2.0
83.765,9.47,4.719,22.0
83.694,9.465,4.236,22.0
83.654,9.464,3.755,26.0
0.0,0.0,0.0,0.0
44.441,5.043,2.973,19.0
54.936,6.235,3.36,8.0
83.572,9.488,4.622,21.0
83.496,9.482,4.139,21.0
83.446,9.479,3.659,22.0
44.465,5.065,3.184,36.0
44.459,5.064,2.927,33.0
54.901,6.255,3.3,16.0
83.383,9.502,4.525,26.0
83.313,9.497,4.042,18.0
83.305,9.499,3.564,9.0
44.494,5.086,3.138,43.0
44.644,5.103,2.892,31.0
83.234,9.516,4.912,12.0
83.189,9.512,4.424,24.0
83.156,9.511,3.945,20.0
81.629,9.339,3.404,3.0
44.543,5.108,3.093,45.0
44.735,5.13,2.849,12.0
54.817,6.286,3.176,12.0
83.02,9.522,4.324,21.0
83.056,9.528,3.849,14.0
81.483,9.349,3.309,3.0
44.616,5.13,3.049,38.0
54.817,6.303,3.429,9.0
54.761,6.297,3.111,27.0
82.907,9.534,4.226,24.0
82.847,9.528,3.747,13.0
81.28,9.35,3.21,7.0
44.666,5.148,3.002,27.0
54.805,6.317,3.367,15.0
54.719,6.306,3.048,17.0
82.795,9.543,4.127,22.0
82.78,9.541,3.652,14.0
81.183,9.359,3.115,11.0
54.913,6.342,3.628,14.0
54.794,6.328,3.305,18.0
54.678,6.314,2.983,11.0
82.701,9.55,4.027,17.0
82.641,9.543,3.551,5.0
81.148,9.371,3.022,11.0
76.47,8.846,4.964,11.0
54.8,6.338,3.241,25.0
82.618,9.555,4.412,12.0
82.64,9.556,3.93,18.0
81.181,9.388,3.393,5.0
67.771,7.837,2.444,6.0
76.509,8.862,4.877,8.0
54.804,6.346,3.178,25.0
82.637,9.568,4.316,13.0
82.597,9.562,3.831,16.0
67.784,7.846,2.754,5.0
67.764,7.844,2.365,8.0
54.727,6.344,3.424,10.0
54.734,6.343,3.109,16.0
82.593,9.57,4.217,12.0
82.611,9.57,3.734,11.0
67.752,7.848,2.673,8.0
67.71,7.842,2.284,9.0
54.798,6.355,3.363,20.0
54.736,6.346,3.044,13.0
82.595,9.573,4.119,11.0
67.755,7.852,2.982,7.0
67.774,7.852,2.593,7.0
67.714,7.844,2.203,9.0
54.806,6.356,3.298,23.0
54.724,6.344,2.978,10.0
82.584,9.572,4.019,10.0
67.789,7.854,2.903,7.0
67.752,7.849,2.512,8.0
67.731,7.845,2.123,11.0
54.843,6.358,3.234,21.0
82.579,9.57,4.395,10.0
82.572,9.566,3.92,13.0
67.766,7.848,2.82,5.0
67.803,7.851,2.433,8.0
67.729,7.84,2.042,9.0
54.778,6.346,3.164,20.0
82.629,9.569,4.296,13.0
82.624,9.564,3.822,17.0
81.111,9.385,3.278,7.0
67.783,7.841,2.349,6.0
67.754,7.836,1.959,8.0
54.734,6.334,3.095,11.0
82.686,9.564,4.199,18.0
82.63,9.553,3.721,17.0
81.163,9.38,3.18,11.0
81.229,9.384,2.716,10.0
67.836,7.834,1.879,6.0
54.685,6.318,3.023,11.0
82.745,9.556,4.099,19.0
82.748,9.551,3.624,11.0
81.2,9.369,3.081,11.0
81.303,9.377,2.618,11.0
81.242,9.366,2.15,11.0
54.686,6.306,2.957,11.0
82.782,9.541,3.998,15.0
81.339,9.37,3.461,2.0
81.257,9.355,2.983,11.0
81.345,9.362,2.519,12.0
81.34,9.357,2.052,12.0
82.946,9.543,4.382,18.0
82.951,9.537,3.905,13.0
81.441,9.359,3.365,3.0
81.361,9.344,2.887,9.0
81.474,9.353,2.423,12.0
81.455,9.347,1.956,11.0
83.05,9.529,4.284,22.0
83.089,9.527,3.808,16.0
81.52,9.341,3.269,4.0
81.531,9.337,2.792,11.0
81.595,9.339,2.326,13.0
81.568,9.332,1.858,11.0
83.222,9.519,4.19,20.0
83.232,9.513,3.713,21.0
81.658,9.326,3.173,4.0
81.709,9.327,2.697,12.0
81.732,9.324,2.229,12.0
81.728,9.319,1.76,10.0
83.428,9.509,4.098,25.0
83.409,9.499,3.617,14.0
81.783,9.307,3.077,3.0
81.862,9.31,2.602,13.0
81.889,9.307,2.134,11.0
81.898,9.303,1.664,12.0
83.577,9.488,4.002,26.0
83.533,9.475,3.519,3.0
81.991,9.293,2.983,6.0
82.09,9.298,2.507,13.0
82.087,9.291,2.037,11.0
82.087,9.285,1.566,11.0
83.787,9.47,3.907,26.0
82.307,9.295,3.365,3.0
82.185,9.273,2.888,11.0
82.287,9.277,2.411,12.0
82.285,9.271,1.939,11.0
82.265,9.262,1.467,12.0
83.961,9.445,3.812,22.0
82.497,9.271,3.271,4.0
82.435,9.256,2.796,11.0
82.503,9.256,2.317,13.0
82.508,9.249,1.843,11.0
82.501,9.242,1.37,11.0
84.054,9.405,3.712,18.0
82.679,9.242,3.176,10.0
82.722,9.239,2.703,12.0
82.733,9.232,2.222,13.0
82.748,9.226,1.748,11.0
82.736,9.217,1.273,11.0
84.025,9.349,3.606,15.0
82.861,9.21,3.082,5.0
82.994,9.215,2.61,11.0
82.998,9.208,2.126,12.0
83.004,9.2,1.652,11.0
83.016,9.194,1.176,11.0
83.873,9.275,3.497,5.0
83.226,9.194,2.994,2.0
83.233,9.185,2.516,9.0
83.242,9.177,2.031,11.0
83.298,9.175,1.556,11.0
83.303,9.167,1.08,11.0
83.773,9.204,3.391,4.0
83.6,9.175,2.906,4.0
83.601,9.165,2.427,6.0
83.62,9.158,1.94,6.0
83.634,9.15,1.461,8.0
83.598,9.137,0.982,10.0
84.025,9.167,3.3,4.0
83.96,9.149,2.817,5.0
83.946,9.137,2.334,6.0
83.931,9.125,1.846,6.0
83.988,9.122,1.366,6.0
83.938,9.108,0.885,5.0
84.195,9.117,3.206,15.0
84.2,9.106,2.724,10.0
84.248,9.101,2.243,12.0
84.228,9.088,1.752,17.0
84.255,9.081,1.27,15.0
84.265,9.072,0.79,17.0
84.164,9.043,3.105,46.0
84.165,9.031,2.623,48.0
84.171,9.02,2.141,54.0
84.171,9.009,1.651,54.0
84.182,9.0,1.17,52.0
84.168,8.988,0.689,57.0
84.155,8.966,3.006,56.0
84.166,8.955,2.523,59.0
84.16,8.942,2.042,56.0
84.146,8.929,1.552,58.0
84.172,8.921,1.071,55.0
84.167,8.91,0.591,73.0
85.251,9.003,2.945,12.0
85.335,8.999,2.459,12.0
85.364,8.99,1.973,10.0
85.388,8.98,1.477,11.0
85.411,8.971,0.989,11.0
85.41,8.96,0.501,11.0
85.711,8.967,2.862,11.0
85.794,8.962,2.375,11.0
85.835,8.954,1.884,11.0
85.824,8.941,1.386,12.0
85.861,8.932,0.896,12.0
85.893,8.923,0.406,11.0
86.16,8.926,2.778,11.0
86.246,8.921,2.288,11.0
86.244,8.907,1.795,10.0
86.276,8.897,1.295,11.0
86.325,8.89,0.803,11.0
86.393,8.884,0.311,9.0
86.633,8.882,2.696,11.0
86.709,8.876,2.203,11.0
86.703,8.861,1.708,10.0
86.77,8.854,1.206,11.0
86.791,8.844,0.711,10.0
86.725,8.824,0.216,11.0
87.149,8.838,2.615,10.0
87.189,8.828,2.119,11.0
87.258,8.821,1.623,11.0
87.269,8.808,1.117,12.0
87.321,8.799,0.619,11.0
87.044,8.759,0.122,10.0
87.703,8.795,2.537,11.0
87.716,8.78,2.037,11.0
87.766,8.77,1.537,11.0
87.76,8.755,1.027,12.0
87.866,8.752,0.529,11.0
86.526,8.604,0.028,5.0
88.295,8.75,2.458,5.0
88.31,8.735,1.955,6.0
88.353,8.724,1.453,11.0
88.344,8.708,0.941,12.0
88.386,8.697,0.438,11.0
45.741,4.493,-0.033,6.0
88.796,8.69,2.378,13.0
88.844,8.677,1.873,13.0
88.878,8.665,1.368,12.0
88.926,8.654,0.854,13.0
88.938,8.64,0.348,13.0
45.492,4.412,-0.08,17.0
89.39,8.635,2.301,11.0
89.459,8.624,1.794,11.0
89.5,8.613,1.286,12.0
89.529,8.599,0.768,12.0
89.49,8.579,0.258,5.0
44.842,4.29,-0.125,20.0
90.021,8.578,2.227,11.0
90.068,8.565,1.715,11.0
90.138,8.555,1.204,11.0
90.161,8.54,0.683,12.0
88.436,8.361,0.166,12.0
44.311,4.181,-0.168,20.0
90.714,8.522,2.153,10.0
90.713,8.504,1.637,10.0
90.762,8.491,1.122,11.0
90.824,8.479,0.598,10.0
73.56,6.854,0.067,2.0
43.401,4.036,-0.206,18.0
91.369,8.459,2.08,9.0
91.381,8.441,1.561,10.0
91.449,8.429,1.043,10.0
91.502,8.416,0.515,12.0
45.66,4.19,-0.002,13.0
0.0,0.0,0.0,0.0
92.04,8.391,2.007,4.0
92.073,8.374,1.485,7.0
92.181,8.365,0.964,10.0
45.686,4.137,0.214,8.0
45.499,4.111,-0.043,19.0
40.924,3.689,-0.271,16.0
92.833,8.328,1.939,7.0
92.927,8.318,1.414,7.0
92.917,8.298,0.888,10.0
92.953,8.282,0.351,7.0
45.25,4.022,-0.085,17.0
40.57,3.598,-0.306,16.0
93.17,8.221,1.863,37.0
93.161,8.199,1.334,55.0
93.156,8.18,0.807,32.0
45.774,4.01,0.133,15.0
45.003,3.933,-0.123,19.0
40.288,3.513,-0.339,15.0
45.839,3.975,0.876,17.0
45.809,3.962,0.616,21.0
45.782,3.95,0.356,18.0
45.654,3.929,0.093,19.0
44.637,3.832,-0.161,19.0
40.021,3.427,-0.37,8.0
45.787,3.9,0.836,32.0
45.765,3.887,0.577,33.0
45.735,3.874,0.317,22.0
45.574,3.85,0.054,20.0
44.262,3.729,-0.197,19.0
40.074,3.368,-0.405,6.0
45.771,3.825,0.798,39.0
45.762,3.814,0.539,38.0
45.745,3.802,0.28,28.0
45.499,3.772,0.017,29.0
43.594,3.604,-0.229,18.0
40.113,3.308,-0.437,8.0
45.804,3.755,0.762,43.0
45.794,3.743,0.503,41.0
45.773,3.731,0.244,25.0
45.444,3.693,-0.017,20.0
0.0,0.0,0.0,0.0
39.977,3.23,-0.466,4.0
45.883,3.686,0.728,39.0
45.872,3.674,0.469,41.0
45.838,3.66,0.211,32.0
45.335,3.61,-0.051,19.0
40.778,3.237,-0.276,14.0
40.023,3.168,-0.496,2.0
98.846,7.775,1.497,9.0
98.935,7.759,0.94,8.0
97.026,7.585,0.375,6.0
45.272,3.528,-0.084,19.0
40.898,3.177,-0.306,14.0
36.455,2.823,-0.478,0.0
99.848,7.684,1.441,8.0
99.953,7.667,0.88,11.0
52.194,3.99,0.165,3.0
45.231,3.447,-0.115,19.0
40.933,3.11,-0.334,6.0
36.337,2.752,-0.501,0.0
100.875,7.59,1.388,10.0
100.954,7.57,0.821,9.0
52.068,3.89,0.13,15.0
45.171,3.364,-0.145,19.0
41.057,3.047,-0.362,3.0
35.594,2.633,-0.514,1.0
101.977,7.494,1.337,9.0
52.324,3.831,0.392,11.0
51.895,3.786,0.097,14.0
45.154,3.283,-0.173,19.0
41.622,3.016,-0.393,2.0
34.205,2.47,-0.515,0.0
52.247,3.747,0.653,16.0
52.214,3.73,0.359,20.0
51.797,3.687,0.066,12.0
44.969,3.189,-0.199,19.0
42.117,2.977,-0.423,8.0
34.177,2.407,-0.535,0.0
47.828,3.344,0.57,17.0
47.817,3.331,0.302,12.0
51.687,3.586,0.036,18.0
44.622,3.084,-0.223,19.0
41.392,2.85,-0.439,1.0
33.142,2.273,-0.537,0.0
48.07,3.273,0.546,14.0
48.12,3.263,0.277,5.0
51.581,3.484,0.008,15.0
44.573,2.998,-0.246,19.0
41.15,2.757,-0.458,1.0
32.979,2.201,-0.551,0.0
48.443,3.208,0.525,7.0
52.205,3.443,0.274,10.0
51.481,3.38,-0.017,19.0
44.746,2.926,-0.27,10.0
39.181,2.552,-0.455,0.0
32.142,2.085,-0.553,0.0
48.848,3.143,0.506,8.0
52.308,3.351,0.249,16.0
51.409,3.279,-0.041,21.0
44.894,2.851,-0.291,9.0
38.498,2.434,-0.465,0.0
32.033,2.017,-0.566,0.0
49.418,3.086,0.49,5.0
52.42,3.258,0.227,11.0
51.4,3.181,-0.064,21.0
45.566,2.807,-0.316,15.0
37.923,2.325,-0.474,1.0
31.9,1.948,-0.577,0.0
50.075,3.031,0.476,6.0
52.421,3.158,0.205,5.0
51.346,3.078,-0.084,24.0
46.147,2.753,-0.338,16.0
37.854,2.248,-0.488,1.0
31.429,1.857,-0.581,0.0
50.598,2.964,0.461,8.0
59.315,3.457,0.21,7.0
51.294,2.976,-0.103,20.0
46.668,2.694,-0.358,4.0
0.0,0.0,0.0,0.0
31.434,1.797,-0.592,0.0
59.4,3.364,0.521,18.0
59.266,3.34,0.19,18.0
51.251,2.873,-0.12,24.0
46.258,2.58,-0.37,0.0
36.111,2.004,-0.49,0.0
0.0,0.0,0.0,0.0
59.339,3.244,0.502,24.0
59.242,3.222,0.172,16.0
51.289,2.774,-0.135,20.0
46.241,2.487,-0.384,0.0
35.909,1.921,-0.497,0.0
30.155,1.604,-0.585,0.0
59.365,3.128,0.486,29.0
59.286,3.106,0.156,22.0
51.466,2.68,-0.149,17.0
0.0,0.0,0.0,0.0
36.166,1.862,-0.51,0.0
29.639,1.517,-0.582,0.0
120.037,6.084,0.956,12.0
59.424,2.994,0.143,18.0
51.763,2.592,-0.162,18.0
43.64,2.172,-0.383,1.0
36.466,1.804,-0.522,0.0
29.663,1.458,-0.589,0.0
120.059,5.844,0.932,12.0
65.387,3.163,0.145,11.0
52.112,2.505,-0.173,8.0
43.616,2.082,-0.39,1.0
36.321,1.723,-0.526,0.0
29.708,1.4,-0.595,0.0
66.2,3.088,0.503,13.0
65.244,3.024,0.134,9.0
52.735,2.427,-0.183,19.0
44.214,2.021,-0.402,1.0
0.0,0.0,0.0,0.0
29.7,1.339,-0.599,0.0
66.048,2.947,0.493,23.0
65.201,2.888,0.126,10.0
53.791,2.366,-0.192,2.0
44.659,1.95,-0.411,1.0
36.282,1.573,-0.534,0.0
29.799,1.282,-0.603,0.0
66.038,2.811,0.487,14.0
65.248,2.757,0.121,11.0
54.962,2.304,-0.201,3.0
44.753,1.862,-0.415,1.0
35.419,1.463,-0.524,0.0
29.397,1.204,-0.597,0.0
66.154,2.678,0.484,19.0
65.247,2.62,0.118,14.0
56.061,2.233,-0.207,3.0
44.678,1.766,-0.416,1.0
0.0,0.0,0.0,0.0
29.681,1.155,-0.603,0.0
72.267,2.777,0.528,11.0
65.379,2.491,0.118,14.0
57.039,2.155,-0.211,2.0
44.655,1.672,-0.415,1.0
35.503,1.318,-0.526,0.0
29.547,1.088,-0.6,0.0
72.294,2.627,0.53,16.0
65.453,2.358,0.12,12.0
58.287,2.081,-0.213,5.0
0.0,0.0,0.0,0.0
0.0,0.0,0.0,0.0
29.502,1.024,-0.597,0.0
72.31,2.478,0.534,27.0
65.458,2.222,0.124,9.0
59.952,2.015,-0.215,2.0
45.431,1.512,-0.417,0.0
35.359,1.165,-0.519,0.0
30.305,0.989,-0.611,0.0
72.424,2.33,0.543,28.0
71.133,2.266,0.142,5.0
61.551,1.94,-0.214,2.0
45.477,1.418,-0.412,0.0
35.716,1.103,-0.519,0.0
30.053,0.918,-0.602,0.0
78.811,2.372,0.601,15.0
70.477,2.098,0.151,9.0
62.978,1.854,-0.209,1.0
44.937,1.307,-0.4,0.0
0.0,0.0,0.0,0.0
29.623,0.842,-0.588,0.0
78.814,2.206,0.615,20.0
71.25,1.972,0.166,9.0
64.681,1.769,-0.203,1.0
0.0,0.0,0.0,0.0
36.265,0.968,-0.514,0.0
28.597,0.753,-0.562,0.0
78.92,2.045,0.632,27.0
71.584,1.832,0.182,12.0
65.879,1.663,-0.192,0.0
0.0,0.0,0.0,0.0
0.0,0.0,0.0,0.0
0.0,0.0,0.0,0.0
85.12,2.027,0.703,23.0
71.929,1.688,0.202,16.0
0.0,0.0,0.0,0.0
46.989,1.072,-0.385,0.0
36.799,0.827,-0.503,0.0
30.542,0.676,-0.584,0.0
85.241,1.852,0.729,22.0
72.28,1.545,0.224,5.0
0.0,0.0,0.0,0.0
0.0,0.0,0.0,0.0
37.899,0.772,-0.506,0.0
0.0,0.0,0.0,0.0
91.931,1.802,0.816,15.0
77.968,1.503,0.267,5.0
0.0,0.0,0.0,0.0
46.675,0.868,-0.352,0.0
0.0,0.0,0.0,0.0
31.661,0.568,-0.584,0.0
91.862,1.611,0.848,32.0
78.267,1.346,0.297,13.0
0.0,0.0,0.0,0.0
46.948,0.776,-0.337,0.0
38.615,0.625,-0.487,0.0
31.966,0.506,-0.577,0.0
92.064,1.423,0.887,17.0
84.838,1.282,0.356,8.0
0.0,0.0,0.0,0.0
0.0,0.0,0.0,0.0
41.114,0.579,-0.501,0.0
32.278,0.444,-0.568,0.0
98.524,1.317,0.992,31.0
85.195,1.109,0.396,14.0
0.0,0.0,0.0,0.0
0.0,0.0,0.0,0.0
41.122,0.493,-0.482,0.0
33.318,0.388,-0.571,0.0
98.557,1.111,1.04,28.0
85.553,0.935,0.439,8.0
0.0,0.0,0.0,0.0
53.558,0.549,-0.31,0.0
40.947,0.405,-0.459,0.0
33.164,0.317,-0.551,0.0
99.904,0.918,1.105,6.0
98.04,0.867,0.554,10.0
0.0,0.0,0.0,0.0
55.017,0.449,-0.289,0.0
42.769,0.334,-0.456,1.0
33.916,0.253,-0.545,0.0
100.866,0.717,1.172,4.0
104.699,0.71,0.65,5.0
86.932,0.56,0.069,1.0
54.954,0.335,-0.258,0.0
42.887,0.247,-0.433,1.0
35.371,0.191,-0.548,0.0
111.105,0.561,1.356,22.0
