X,Y,Z,Reflectivity
72.482,2.363,2.791,27.0
72.492,2.352,2.371,23.0
72.515,2.342,1.952,21.0
65.679,2.115,3.559,16.0
72.5,2.323,3.508,20.0
72.548,2.313,3.089,8.0
190.739,6.054,6.998,19.0
211.206,6.669,6.525,16.0
120.035,3.771,3.014,10.0
72.72,2.277,3.808,8.0
114.992,3.582,5.355,10.0
78.79,2.441,3.212,12.0
190.842,5.884,6.659,15.0
0.0,0.0,0.0,0.0
74.156,2.262,1.728,3.0
82.322,2.501,4.162,10.0
117.897,3.562,5.278,8.0
78.819,2.368,3.072,12.0
78.892,2.357,2.609,25.0
78.889,2.344,2.153,4.0
74.601,2.204,1.605,4.0
65.484,1.926,3.193,21.0
118.169,3.456,5.078,4.0
78.77,2.289,2.928,14.0
78.824,2.277,2.466,25.0
76.699,2.202,1.954,7.0
75.716,2.161,1.492,5.0
79.003,2.244,3.711,13.0
78.818,2.224,3.245,20.0
78.792,2.21,2.788,27.0
78.824,2.197,2.326,31.0
78.74,2.18,1.867,2.0
76.913,2.117,1.38,3.0
78.811,2.156,3.562,30.0
78.806,2.142,3.105,31.0
78.811,2.128,2.649,30.0
78.86,2.114,2.186,33.0
78.899,2.1,1.731,33.0
78.91,2.086,1.276,33.0
78.818,2.071,3.422,30.0
78.826,2.056,2.966,32.0
78.933,2.044,2.513,23.0
78.98,2.03,2.05,9.0
79.004,2.016,1.594,8.0
79.015,2.001,1.138,7.0
78.915,1.985,3.287,4.0
78.831,1.967,2.827,25.0
85.329,2.113,2.567,23.0
85.278,2.095,2.064,27.0
85.274,2.078,1.571,28.0
85.258,2.061,1.078,29.0
85.334,2.047,3.404,23.0
85.257,2.028,2.908,26.0
85.237,2.01,2.414,33.0
85.228,1.993,1.913,38.0
85.25,1.976,1.421,41.0
85.248,1.96,0.93,30.0
78.881,1.798,3.01,24.0
85.255,1.926,2.761,34.0
85.235,1.908,2.268,36.0
85.24,1.89,1.767,39.0
85.235,1.873,1.275,35.0
85.232,1.855,0.783,27.0
85.293,1.84,3.11,30.0
85.31,1.822,2.617,29.0
85.334,1.804,2.124,30.0
85.319,1.786,1.624,29.0
85.368,1.77,1.132,26.0
85.232,1.749,0.639,15.0
91.747,1.863,3.189,23.0
91.844,1.846,2.663,22.0
87.082,1.731,2.022,53.0
91.951,1.808,1.596,14.0
91.989,1.79,1.066,14.0
85.129,1.638,0.496,12.0
91.811,1.746,3.038,29.0
91.759,1.724,2.506,18.0
88.319,1.641,1.904,1.0
87.402,1.605,1.372,30.0
91.893,1.667,0.912,26.0
84.462,1.514,0.352,6.0
91.889,1.626,2.888,19.0
91.878,1.605,2.358,34.0
91.856,1.584,1.829,38.0
91.871,1.564,1.29,33.0
91.853,1.543,0.761,28.0
77.608,1.287,0.196,2.0
92.058,1.505,2.745,13.0
91.984,1.482,2.212,11.0
91.953,1.46,1.68,24.0
91.989,1.44,1.143,30.0
91.887,1.417,0.612,12.0
75.475,1.146,0.068,2.0
98.534,1.473,2.778,23.0
119.904,1.765,2.69,34.0
98.571,1.428,1.644,23.0
98.591,1.404,1.066,26.0
85.271,1.195,0.432,10.0
0.0,0.0,0.0,0.0
98.509,1.333,2.621,28.0
98.584,1.312,2.056,28.0
98.502,1.286,1.487,26.0
98.508,1.262,0.91,22.0
81.296,1.022,0.283,3.0
0.0,0.0,0.0,0.0
98.555,1.191,2.467,26.0
98.552,1.167,1.9,32.0
98.527,1.144,1.334,31.0
98.248,1.115,0.754,11.0
80.515,0.894,0.155,4.0
0.0,0.0,0.0,0.0
98.68,1.048,2.319,25.0
98.653,1.022,1.751,21.0
98.644,0.999,1.184,26.0
97.996,0.967,0.603,8.0
0.0,0.0,0.0,0.0
0.0,0.0,0.0,0.0
0.0,0.0,0.0,0.0
100.208,0.887,1.626,2.0
104.739,0.9,1.098,6.0
91.12,0.761,0.423,4.0
0.0,0.0,0.0,0.0
48.594,0.38,-0.332,0.0
104.783,0.793,2.146,23.0
104.902,0.767,1.546,3.0
104.867,0.74,0.944,23.0
86.146,0.586,0.273,5.0
0.0,0.0,0.0,0.0
45.97,0.289,-0.382,1.0
111.046,0.667,2.111,31.0
111.086,0.64,1.476,29.0
104.728,0.575,0.79,9.0
88.121,0.461,0.15,3.0
54.869,0.272,-0.221,0.0
42.756,0.201,-0.417,1.0
111.178,0.492,1.954,14.0
111.181,0.464,1.317,21.0
104.095,0.406,0.636,2.0
0.0,0.0,0.0,0.0
0.0,0.0,0.0,0.0
40.743,0.126,-0.455,0.0
119.868,0.338,1.938,26.0
111.085,0.282,1.158,16.0
94.541,0.214,0.443,1.0
0.0,0.0,0.0,0.0
0.0,0.0,0.0,0.0
0.0,0.0,0.0,0.0
111.15,0.129,1.641,20.0
111.198,0.097,1.004,9.0
95.555,0.058,0.316,6.0
0.0,0.0,0.0,0.0
45.443,0.002,-0.374,2.0
37.156,-0.008,-0.519,0.0
117.342,-0.06,1.571,10.0
111.086,-0.088,0.852,12.0
0.0,0.0,0.0,0.0
0.0,0.0,0.0,0.0
45.436,-0.074,-0.435,0.0
34.932,-0.066,-0.534,0.0
119.721,-0.261,1.445,15.0
110.912,-0.273,0.705,7.0
0.0,0.0,0.0,0.0
0.0,0.0,0.0,0.0
0.0,0.0,0.0,0.0
32.548,-0.117,-0.541,0.0
119.731,-0.467,1.29,17.0
105.039,-0.439,0.531,1.0
0.0,0.0,0.0,0.0
48.759,-0.232,-0.315,0.0
39.868,-0.201,-0.485,0.0
0.0,0.0,0.0,0.0
119.715,-0.673,1.138,16.0
0.0,0.0,0.0,0.0
0.0,0.0,0.0,0.0
0.0,0.0,0.0,0.0
0.0,0.0,0.0,0.0
0.0,0.0,0.0,0.0
119.691,-0.882,0.99,8.0
0.0,0.0,0.0,0.0
0.0,0.0,0.0,0.0
0.0,0.0,0.0,0.0
0.0,0.0,0.0,0.0
29.344,-0.26,-0.597,0.0
119.724,-1.095,0.846,10.0
0.0,0.0,0.0,0.0
53.385,-0.519,-0.23,0.0
41.266,-0.414,-0.418,0.0
0.0,0.0,0.0,0.0
28.948,-0.308,-0.623,0.0
120.04,-1.312,0.708,3.0
0.0,0.0,0.0,0.0
0.0,0.0,0.0,0.0
0.0,0.0,0.0,0.0
0.0,0.0,0.0,0.0
0.0,0.0,0.0,0.0
95.444,-1.217,0.453,2.0
0.0,0.0,0.0,0.0
46.356,-0.619,-0.307,0.0
0.0,0.0,0.0,0.0
31.179,-0.435,-0.564,0.0
26.752,-0.382,-0.636,0.0
0.0,0.0,0.0,0.0
0.0,0.0,0.0,0.0
46.439,-0.705,-0.358,1.0
37.648,-0.583,-0.508,0.0
30.776,-0.486,-0.59,0.0
26.109,-0.42,-0.649,0.0
0.0,0.0,0.0,0.0
0.0,0.0,0.0,0.0
0.0,0.0,0.0,0.0
35.089,-0.608,-0.511,1.0
29.501,-0.52,-0.597,0.0
25.208,-0.453,-0.653,0.0
0.0,0.0,0.0,0.0
0.0,0.0,0.0,0.0
45.059,-0.85,-0.441,1.0
33.699,-0.647,-0.525,0.0
28.975,-0.565,-0.616,0.0
24.911,-0.494,-0.671,0.0
0.0,0.0,0.0,0.0
51.003,-1.041,-0.26,0.0
0.0,0.0,0.0,0.0
0.0,0.0,0.0,0.0
28.313,-0.606,-0.629,0.0
18.16,-0.394,-0.507,5.0
0.0,0.0,0.0,0.0
50.477,-1.126,-0.306,0.0
0.0,0.0,0.0,0.0
32.751,-0.751,-0.573,0.0
27.345,-0.637,-0.634,0.0
18.147,-0.428,-0.523,104.0
0.0,0.0,0.0,0.0
50.049,-1.211,-0.35,0.0
37.837,-0.928,-0.479,0.0
30.904,-0.769,-0.57,0.0
21.914,-0.552,-0.528,152.0
21.867,-0.558,-0.651,36.0
0.0,0.0,0.0,0.0
44.256,-1.156,-0.349,0.0
38.035,-1.006,-0.515,0.0
21.898,-0.586,-0.423,13.0
21.869,-0.593,-0.546,225.0
21.863,-0.6,-0.67,92.0
0.0,0.0,0.0,0.0
44.275,-1.241,-0.386,2.0
0.0,0.0,0.0,0.0
21.894,-0.628,-0.441,0.0
21.899,-0.636,-0.565,154.0
21.871,-0.643,-0.688,19.0
52.351,-1.551,-0.204,0.0
44.417,-1.331,-0.424,1.0
34.865,-1.057,-0.53,0.0
28.937,-0.886,-0.606,0.0
21.94,-0.679,-0.584,0.0
21.89,-0.686,-0.706,7.0
0.0,0.0,0.0,0.0
41.501,-1.324,-0.428,1.0
34.818,-1.123,-0.556,0.0
28.767,-0.937,-0.625,0.0
24.496,-0.807,-0.67,0.0
21.619,-0.719,-0.714,0.0
0.0,0.0,0.0,0.0
41.516,-1.405,-0.459,1.0
0.0,0.0,0.0,0.0
27.855,-0.962,-0.625,0.0
24.062,-0.839,-0.676,0.0
21.282,-0.749,-0.718,0.0
50.903,-1.805,-0.312,0.0
38.251,-1.369,-0.45,0.0
32.92,-1.19,-0.573,0.0
27.151,-0.991,-0.628,0.0
23.419,-0.862,-0.674,0.0
20.934,-0.778,-0.72,0.0
71.089,-4.365,4.162,38.0
19.999,-1.221,1.057,10.0
19.969,-1.212,0.943,18.0
20.014,-1.208,0.83,19.0
19.965,-1.198,0.715,16.0
19.96,-1.191,0.603,24.0
71.492,-4.261,4.15,26.0
19.976,-1.183,1.046,20.0
19.967,-1.176,0.933,24.0
20.017,-1.172,0.82,31.0
19.964,-1.163,0.705,17.0
19.96,-1.156,0.592,24.0
71.687,-4.143,4.122,24.0
19.966,-1.147,1.035,23.0
19.969,-1.14,0.922,21.0
20.028,-1.137,0.809,23.0
19.972,-1.127,0.694,17.0
19.969,-1.121,0.581,22.0
58.646,-3.284,3.338,18.0
19.962,-1.111,1.023,18.0
19.987,-1.105,0.911,23.0
20.02,-1.1,0.797,14.0
19.974,-1.091,0.682,16.0
19.982,-1.085,0.569,23.0
58.67,-3.179,3.302,16.0
19.978,-1.076,1.011,17.0
20.016,-1.071,0.899,2.0
20.031,-1.065,0.784,8.0
19.973,-1.056,0.669,16.0
19.989,-1.05,0.556,19.0
58.898,-3.086,3.276,16.0
71.131,-3.702,3.552,10.0
83.504,-4.319,3.697,32.0
20.043,-1.03,0.771,7.0
20.022,-1.022,0.657,13.0
20.113,-1.02,0.546,20.0
77.857,-3.937,4.275,10.0
73.685,-3.702,3.627,23.0
73.331,-3.661,3.194,30.0
20.086,-0.996,0.758,15.0
20.101,-0.99,0.645,25.0
20.115,-0.984,0.531,25.0
78.921,-3.848,4.274,12.0
80.724,-3.91,3.913,17.0
85.486,-4.113,3.657,12.0
20.082,-0.959,0.743,14.0
20.121,-0.955,0.63,21.0
20.123,-0.949,0.516,17.0
79.33,-3.728,4.234,18.0
80.657,-3.763,3.846,12.0
94.566,-4.381,3.971,23.0
20.101,-0.924,0.727,10.0
20.119,-0.919,0.613,10.0
20.186,-0.915,0.501,0.0
80.615,-3.643,4.236,16.0
80.887,-3.628,3.789,11.0
95.404,-4.249,3.926,13.0
115.765,-5.119,4.093,24.0
193.218,-8.481,5.732,9.0
193.248,-8.418,4.633,20.0
80.694,-3.5,4.169,35.0
80.921,-3.485,3.72,8.0
100.295,-4.288,4.039,25.0
104.418,-4.43,3.6,17.0
193.479,-8.148,5.568,5.0
193.829,-8.103,4.475,7.0
80.961,-3.369,4.11,26.0
94.641,-3.908,4.265,10.0
104.065,-4.263,4.095,21.0
206.284,-8.385,6.92,5.0
193.525,-7.807,5.389,17.0
193.137,-7.733,4.28,7.0
81.05,-3.228,4.038,40.0
95.434,-3.771,4.209,12.0
103.885,-4.073,3.989,23.0
193.804,-7.537,6.316,23.0
192.791,-7.439,5.184,14.0
194.299,-7.436,4.116,14.0
81.09,-3.086,3.959,31.0
104.092,-3.929,4.488,16.0
103.794,-3.886,3.882,7.0
193.455,-7.185,6.113,24.0
193.19,-7.115,5.001,23.0
193.823,-7.078,3.91,7.0
81.077,-2.944,3.877,14.0
103.811,-3.738,4.37,7.0
101.288,-3.615,3.684,13.0
193.049,-6.831,5.898,23.0
193.567,-6.792,4.81,17.0
187.374,-6.518,3.585,23.0
94.296,-3.26,4.409,26.0
101.184,-3.466,4.151,17.0
119.574,-4.061,4.222,22.0
187.477,-6.31,5.527,16.0
194.012,-6.472,4.611,19.0
193.145,-6.386,3.488,17.0
94.386,-3.099,4.309,8.0
101.181,-3.292,4.04,22.0
120.46,-3.883,4.12,6.0
193.411,-6.176,5.488,24.0
194.226,-6.143,4.399,21.0
193.502,-6.064,3.276,10.0
81.279,-2.529,3.619,17.0
101.795,-3.137,3.948,9.0
120.217,-3.669,3.974,17.0
193.989,-5.866,5.283,23.0
194.831,-5.833,4.19,17.0
138.678,-4.11,2.188,3.0
81.43,-2.396,3.531,11.0
120.285,-3.503,4.525,9.0
120.503,-3.474,3.842,14.0
60.493,-1.726,1.575,0.0
195.061,-5.511,3.964,15.0
138.688,-3.879,2.024,7.0
101.749,-2.822,4.288,7.0
117.157,-3.215,4.266,15.0
120.825,-3.281,3.706,12.0
205.472,-5.521,5.103,14.0
194.998,-5.183,3.724,5.0
57.852,-1.521,0.773,0.0
101.831,-2.654,4.166,10.0
116.864,-3.011,4.109,12.0
210.62,-5.369,6.198,7.0
117.846,-2.97,2.779,13.0
192.944,-4.807,3.442,18.0
0.0,0.0,0.0,0.0
96.652,-2.359,3.831,19.0
113.339,-2.734,3.84,19.0
0.0,0.0,0.0,0.0
0.0,0.0,0.0,0.0
193.097,-4.495,3.196,12.0
138.899,-3.194,1.501,4.0
96.581,-2.199,3.702,13.0
112.611,-2.532,3.668,21.0
209.603,-4.654,5.622,10.0
193.773,-4.251,4.066,14.0
138.862,-3.007,2.115,5.0
138.932,-2.97,1.317,21.0
113.349,-2.397,4.191,20.0
112.698,-2.352,3.519,26.0
113.053,-2.327,2.879,4.0
193.215,-3.926,3.79,21.0
139.052,-2.789,1.93,4.0
139.002,-2.751,1.13,21.0
112.705,-2.205,4.015,19.0
113.144,-2.182,3.378,20.0
205.738,-3.913,4.959,13.0
193.469,-3.627,3.529,19.0
0.0,0.0,0.0,0.0
139.053,-2.533,0.938,14.0
112.672,-2.025,3.854,24.0
112.831,-1.998,3.21,19.0
206.292,-3.6,4.681,10.0
193.825,-3.333,3.265,12.0
139.185,-2.357,1.543,4.0
113.47,-1.893,0.605,3.0
112.877,-1.856,3.702,6.0
112.617,-1.821,3.043,18.0
206.136,-3.28,4.382,10.0
139.061,-2.178,2.142,4.0
138.882,-2.139,1.339,15.0
0.0,0.0,0.0,0.0
209.607,-3.124,6.566,8.0
113.308,-1.66,2.896,2.0
0.0,0.0,0.0,0.0
139.02,-1.966,1.937,4.0
139.084,-1.931,1.135,23.0
0.0,0.0,0.0,0.0
0.0,0.0,0.0,0.0
206.749,-2.716,4.973,6.0
204.278,-2.633,3.735,12.0
0.0,0.0,0.0,0.0
139.206,-1.725,0.926,10.0
0.0,0.0,0.0,0.0
209.334,-2.492,5.923,10.0
210.509,-2.455,4.743,13.0
119.746,-1.366,2.006,14.0
119.755,-1.337,1.303,53.0
119.748,-1.309,0.614,30.0
0.0,0.0,0.0,0.0
119.726,-1.25,3.202,150.0
119.728,-1.22,2.509,150.0
119.743,-1.191,1.817,150.0
119.682,-1.162,1.115,26.0
0.0,0.0,0.0,0.0
0.0,0.0,0.0,0.0
119.729,-1.078,3.012,113.0
119.747,-1.049,2.32,83.0
119.747,-1.021,1.628,32.0
119.631,-0.991,0.924,8.0
0.0,0.0,0.0,0.0
0.0,0.0,0.0,0.0
10.275,-0.52,-0.885,0.0
9.797,-0.497,-0.896,0.0
9.349,-0.475,-0.905,0.0
0.0,0.0,0.0,0.0
8.637,-0.441,-0.93,0.0
8.243,-0.422,-0.932,0.0
10.404,-0.531,-0.882,0.0
9.927,-0.507,-0.895,0.0
9.47,-0.485,-0.904,0.0
9.081,-0.466,-0.917,0.0
8.685,-0.447,-0.923,0.0
8.351,-0.43,-0.932,0.0
10.569,-0.543,-0.882,0.0
10.064,-0.518,-0.893,0.0
9.61,-0.496,-0.904,0.0
9.239,-0.477,-0.919,0.0
8.754,-0.453,-0.918,0.0
8.428,-0.437,-0.929,0.0
10.7,-0.553,-0.877,0.0
10.18,-0.527,-0.889,0.0
9.729,-0.505,-0.901,0.0
9.311,-0.484,-0.913,0.0
8.884,-0.463,-0.919,0.0
8.517,-0.444,-0.926,0.0
10.877,-0.566,-0.876,0.0
10.315,-0.537,-0.886,0.0
9.808,-0.512,-0.894,0.0
9.385,-0.491,-0.907,0.0
9.023,-0.472,-0.92,0.0
8.631,-0.453,-0.926,0.0
11.015,-0.576,-0.871,0.0
10.454,-0.547,-0.882,0.0
9.969,-0.523,-0.894,0.0
9.497,-0.499,-0.903,0.0
9.098,-0.479,-0.914,0.0
8.693,-0.458,-0.919,0.0
11.189,-0.587,-0.868,0.0
10.595,-0.557,-0.878,0.0
10.135,-0.534,-0.894,0.0
9.662,-0.509,-0.904,0.0
9.244,-0.488,-0.914,0.0
8.849,-0.468,-0.922,0.0
11.365,-0.599,-0.864,0.0
10.765,-0.568,-0.876,0.0
10.258,-0.542,-0.889,0.0
9.75,-0.516,-0.897,0.0
9.394,-0.497,-0.914,0.0
8.953,-0.475,-0.919,0.0
11.536,-0.61,-0.86,0.0
10.958,-0.58,-0.874,0.0
10.396,-0.55,-0.885,0.0
9.936,-0.527,-0.899,0.0
9.463,-0.502,-0.906,0.0
9.064,-0.482,-0.916,0.0
11.78,-0.624,-0.86,0.0
11.125,-0.59,-0.87,0.0
10.554,-0.56,-0.881,0.0
10.058,-0.534,-0.894,0.0
9.628,-0.512,-0.907,0.0
9.19,-0.489,-0.914,0.0
12.002,-0.636,-0.857,0.0
11.309,-0.6,-0.867,0.0
10.737,-0.57,-0.88,0.0
10.196,-0.542,-0.89,0.0
9.749,-0.519,-0.903,0.0
9.339,-0.497,-0.914,0.0
12.271,-0.651,-0.856,0.0
11.5,-0.611,-0.863,0.0
10.916,-0.58,-0.877,0.0
10.341,-0.55,-0.886,0.0
9.883,-0.526,-0.899,0.0
9.449,-0.503,-0.909,0.0
12.495,-0.663,-0.852,0.0
11.734,-0.623,-0.861,0.0
11.089,-0.589,-0.872,0.0
10.516,-0.559,-0.884,0.0
10.044,-0.534,-0.897,0.0
9.565,-0.509,-0.905,0.0
20.003,-1.061,-1.331,0.0
11.961,-0.634,-0.858,0.0
11.272,-0.598,-0.868,0.0
10.696,-0.568,-0.881,0.0
10.206,-0.542,-0.895,0.0
9.735,-0.517,-0.905,0.0
13.061,-0.691,-0.847,0.0
12.232,-0.648,-0.858,0.0
11.473,-0.608,-0.864,0.0
10.9,-0.577,-0.88,0.0
10.361,-0.549,-0.891,0.0
9.854,-0.522,-0.899,0.0
13.383,-0.707,-0.846,0.0
12.494,-0.66,-0.855,0.0
11.686,-0.617,-0.861,0.0
11.07,-0.585,-0.875,0.0
10.505,-0.555,-0.885,0.0
10.028,-0.53,-0.898,0.0
81.946,9.252,0.925,11.0
81.852,9.251,0.457,7.0
67.178,7.601,-0.008,7.0
41.595,4.711,-0.246,19.0
38.727,4.392,-0.45,9.0
32.353,3.673,-0.561,0.0
81.605,9.292,0.837,11.0
81.418,9.28,0.37,7.0
67.05,7.65,-0.077,9.0
40.333,4.606,-0.281,16.0
38.705,4.425,-0.49,9.0
30.997,3.548,-0.569,0.0
81.271,9.329,0.748,7.0
67.792,7.789,0.236,10.0
64.417,7.408,-0.142,4.0
39.685,4.569,-0.318,22.0
38.675,4.457,-0.531,8.0
30.398,3.507,-0.591,1.0
66.386,7.678,0.54,22.0
66.375,7.684,0.161,41.0
45.47,5.268,-0.149,6.0
39.402,4.57,-0.358,25.0
38.647,4.487,-0.572,3.0
29.576,3.437,-0.607,1.0
66.338,7.728,0.468,75.0
66.352,7.736,0.089,67.0
42.872,5.003,-0.187,10.0
39.033,4.559,-0.397,14.0
34.233,4.002,-0.544,0.0
28.465,3.331,-0.615,1.0
66.354,7.782,0.396,55.0
66.354,7.788,0.017,38.0
41.775,4.907,-0.227,18.0
38.691,4.549,-0.436,10.0
33.094,3.894,-0.562,0.0
27.698,3.262,-0.629,0.0
66.538,7.853,0.323,16.0
66.52,7.857,-0.056,7.0
40.508,4.788,-0.265,16.0
38.59,4.565,-0.478,9.0
30.949,3.664,-0.56,0.0
26.98,3.197,-0.643,1.0
66.336,7.876,0.249,11.0
66.127,7.857,-0.129,6.0
39.833,4.736,-0.306,29.0
38.556,4.588,-0.52,9.0
30.276,3.605,-0.582,8.0
26.173,3.119,-0.653,0.0
66.1,7.892,0.173,10.0
45.669,5.456,-0.14,9.0
39.403,4.71,-0.347,28.0
38.551,4.612,-0.564,4.0
30.018,3.594,-0.611,8.0
25.585,3.065,-0.667,0.0
65.888,7.907,0.098,8.0
45.304,5.44,-0.191,7.0
39.009,4.687,-0.388,14.0
38.6,4.641,-0.608,0.0
29.76,3.58,-0.64,1.0
24.833,2.99,-0.676,0.0
65.603,7.909,0.024,8.0
41.818,5.044,-0.224,18.0
38.636,4.663,-0.428,11.0
30.153,3.641,-0.509,5.0
27.566,3.331,-0.624,0.0
24.137,2.919,-0.684,0.0
65.429,7.922,-0.05,6.0
40.625,4.921,-0.264,16.0
38.539,4.671,-0.471,9.0
30.002,3.638,-0.541,8.0
26.843,3.257,-0.638,1.0
23.392,2.84,-0.69,0.0
65.054,7.908,-0.124,4.0
39.935,4.856,-0.305,20.0
38.51,4.685,-0.515,8.0
29.892,3.639,-0.574,7.0
26.115,3.181,-0.651,0.0
22.907,2.792,-0.702,0.0
45.637,5.567,-0.14,12.0
39.397,4.808,-0.346,34.0
38.506,4.701,-0.559,2.0
29.738,3.632,-0.605,4.0
25.401,3.104,-0.662,0.0
22.369,2.735,-0.712,0.0
45.512,5.569,-0.192,7.0
38.984,4.772,-0.388,14.0
29.929,3.665,-0.469,3.0
29.275,3.586,-0.63,1.0
24.771,3.036,-0.675,0.0
21.792,2.672,-0.719,0.0
41.627,5.108,-0.224,17.0
38.559,4.733,-0.428,11.0
29.839,3.663,-0.503,3.0
27.447,3.371,-0.622,0.0
24.047,2.955,-0.683,0.0
21.048,2.588,-0.719,0.0
40.564,4.989,-0.266,17.0
38.493,4.735,-0.473,9.0
29.748,3.661,-0.535,1.0
26.744,3.292,-0.637,1.0
23.327,2.873,-0.69,0.0
20.609,2.539,-0.728,0.0
39.875,4.914,-0.307,16.0
38.488,4.744,-0.517,7.0
29.574,3.646,-0.567,2.0
26.023,3.209,-0.65,1.0
22.834,2.817,-0.702,0.0
20.201,2.493,-0.737,0.0
39.166,4.834,-0.347,26.0
29.974,3.7,-0.438,2.0
29.393,3.629,-0.598,5.0
25.313,3.127,-0.662,0.0
22.227,2.746,-0.709,0.0
19.777,2.444,-0.745,0.0
38.871,4.804,-0.391,15.0
29.712,3.673,-0.469,2.0
29.239,3.615,-0.629,1.0
24.672,3.051,-0.675,0.0
21.645,2.677,-0.716,0.0
19.34,2.393,-0.751,0.0
38.537,4.767,-0.432,9.0
29.635,3.666,-0.502,2.0
27.355,3.384,-0.62,0.0
23.959,2.965,-0.683,0.0
21.071,2.608,-0.722,0.0
18.801,2.328,-0.752,0.0
38.485,4.763,-0.476,8.0
29.582,3.661,-0.536,2.0
26.599,3.292,-0.634,0.0
23.246,2.878,-0.689,0.0
20.437,2.53,-0.724,0.0
18.423,2.281,-0.758,0.0
38.479,4.763,-0.52,5.0
29.399,3.639,-0.566,7.0
25.99,3.217,-0.65,1.0
22.698,2.81,-0.7,0.0
20.182,2.499,-0.738,0.0
18.176,2.251,-0.769,0.0
29.834,3.692,-0.438,2.0
29.328,3.629,-0.598,6.0
25.267,3.126,-0.661,0.0
22.127,2.738,-0.707,0.0
19.731,2.442,-0.744,0.0
17.827,2.206,-0.775,0.0
29.716,3.675,-0.47,2.0
29.142,3.603,-0.628,1.0
24.623,3.045,-0.672,0.0
21.623,2.674,-0.716,0.0
19.227,2.377,-0.747,0.0
17.428,2.155,-0.777,0.0
29.704,3.669,-0.504,2.0
27.33,3.376,-0.62,0.0
23.875,2.949,-0.679,0.0
21.043,2.599,-0.721,0.0
18.744,2.315,-0.75,0.0
17.05,2.106,-0.78,0.0
29.701,3.664,-0.537,2.0
26.639,3.286,-0.634,1.0
23.219,2.864,-0.686,0.0
20.554,2.535,-0.727,0.0
18.413,2.271,-0.757,0.0
16.843,2.077,-0.789,0.0
29.709,3.659,-0.571,3.0
25.957,3.196,-0.647,1.0
22.792,2.806,-0.699,0.0
20.197,2.486,-0.737,0.0
18.145,2.233,-0.766,0.0
16.531,2.035,-0.793,0.0
29.646,3.643,-0.602,3.0
25.441,3.126,-0.663,0.0
22.153,2.721,-0.704,0.0
19.601,2.407,-0.737,0.0
17.772,2.182,-0.77,0.0
16.207,1.99,-0.795,0.0
28.01,3.434,-0.599,0.0
24.69,3.026,-0.67,0.0
21.621,2.649,-0.71,0.0
19.294,2.363,-0.746,0.0
17.457,2.138,-0.776,0.0
15.974,1.956,-0.801,0.0
27.376,3.346,-0.615,0.0
24.033,2.937,-0.678,0.0
21.083,2.575,-0.715,0.0
18.855,2.303,-0.75,0.0
17.115,2.09,-0.779,0.0
15.662,1.912,-0.802,0.0
26.777,3.262,-0.63,1.0
23.368,2.846,-0.684,0.0
20.608,2.509,-0.721,0.0
18.475,2.249,-0.754,0.0
16.881,2.054,-0.786,0.0
15.396,1.873,-0.805,0.0
26.08,3.166,-0.642,1.0
22.941,2.784,-0.695,0.0
20.395,2.474,-0.735,0.0
18.159,2.202,-0.76,0.0
16.594,2.012,-0.79,0.0
15.284,1.852,-0.815,0.0
25.501,3.084,-0.654,0.0
22.465,2.715,-0.704,0.0
19.789,2.391,-0.734,0.0
17.83,2.153,-0.765,0.0
16.282,1.966,-0.792,0.0
15.024,1.813,-0.817,0.0
24.911,2.999,-0.664,0.0
21.728,2.614,-0.703,0.0
19.488,2.344,-0.742,0.0
17.571,2.112,-0.772,0.0
16.127,1.938,-0.801,0.0
14.824,1.781,-0.821,0.0
24.3,2.912,-0.672,0.0
21.397,2.563,-0.714,0.0
19.089,2.285,-0.746,0.0
17.215,2.06,-0.773,0.0
15.836,1.894,-0.802,0.0
14.555,1.74,-0.821,0.0
23.699,2.825,-0.678,0.0
20.981,2.5,-0.72,0.0
18.764,2.234,-0.751,0.0
17.012,2.025,-0.781,0.0
15.58,1.853,-0.804,0.0
14.409,1.713,-0.826,0.0
23.216,2.753,-0.687,0.0
20.546,2.434,-0.725,0.0
18.353,2.173,-0.753,0.0
16.701,1.976,-0.782,0.0
15.374,1.818,-0.808,0.0
14.166,1.675,-0.826,0.0
22.788,2.686,-0.696,0.0
20.147,2.373,-0.73,0.0
18.066,2.126,-0.758,0.0
16.518,1.943,-0.789,0.0
15.198,1.787,-0.813,0.0
14.011,1.646,-0.829,0.0
22.391,2.623,-0.704,0.0
19.833,2.321,-0.737,0.0
17.856,2.089,-0.765,0.0
16.252,1.9,-0.791,0.0
15.027,1.755,-0.817,0.0
13.881,1.621,-0.834,0.0
21.779,2.534,-0.704,0.0
19.559,2.274,-0.744,0.0
17.643,2.05,-0.771,0.0
16.009,1.859,-0.793,0.0
14.799,1.717,-0.818,0.0
13.739,1.593,-0.838,0.0
21.396,2.472,-0.71,0.0
19.211,2.218,-0.747,0.0
17.408,2.008,-0.776,0.0
15.903,1.833,-0.802,0.0
14.635,1.686,-0.821,0.0
13.613,1.567,-0.842,0.0
21.022,2.411,-0.716,0.0
18.945,2.171,-0.753,0.0
17.137,1.962,-0.779,0.0
15.685,1.794,-0.804,0.0
14.433,1.65,-0.822,0.0
13.496,1.542,-0.846,0.0
20.646,2.35,-0.72,0.0
18.432,2.096,-0.748,0.0
16.928,1.923,-0.783,0.0
15.465,1.755,-0.805,0.0
14.308,1.623,-0.826,0.0
13.351,1.513,-0.848,0.0
20.316,2.293,-0.724,0.0
18.306,2.064,-0.757,0.0
16.727,1.884,-0.787,0.0
15.234,1.715,-0.805,0.0
14.154,1.592,-0.829,0.0
13.208,1.484,-0.849,0.0
20.093,2.249,-0.732,0.0
18.045,2.017,-0.76,0.0
16.487,1.841,-0.788,0.0
15.153,1.691,-0.812,0.0
14.022,1.563,-0.832,0.0
13.065,1.455,-0.849,0.0
19.842,2.201,-0.737,0.0
17.774,1.969,-0.761,0.0
16.361,1.811,-0.794,0.0
14.969,1.655,-0.813,0.0
13.903,1.535,-0.834,0.0
12.942,1.428,-0.851,0.0
19.539,2.147,-0.74,0.0
17.655,1.937,-0.769,0.0
16.159,1.771,-0.796,0.0
14.827,1.623,-0.816,0.0
13.8,1.509,-0.838,0.0
12.787,1.397,-0.849,0.0
19.266,2.096,-0.743,0.0
17.51,1.903,-0.774,0.0
15.943,1.73,-0.796,0.0
14.651,1.588,-0.816,0.0
13.648,1.478,-0.838,0.0
12.72,1.376,-0.853,0.0
19.044,2.051,-0.747,0.0
17.265,1.857,-0.775,0.0
15.797,1.697,-0.799,0.0
14.529,1.559,-0.818,0.0
13.567,1.454,-0.841,0.0
12.582,1.347,-0.852,0.0
18.732,1.996,-0.746,0.0
17.018,1.811,-0.774,0.0
15.578,1.655,-0.797,0.0
14.404,1.529,-0.82,0.0
13.475,1.428,-0.844,0.0
12.475,1.321,-0.852,0.0
18.534,1.953,-0.749,0.0
16.953,1.784,-0.781,0.0
15.494,1.628,-0.802,0.0
14.325,1.503,-0.824,0.0
13.297,1.394,-0.84,0.0
12.458,1.304,-0.858,0.0
18.408,1.917,-0.754,0.0
16.829,1.75,-0.785,0.0
15.39,1.599,-0.805,0.0
14.217,1.475,-0.825,0.0
13.201,1.367,-0.841,0.0
12.323,1.275,-0.855,0.0
18.199,1.873,-0.755,0.0
16.659,1.712,-0.785,0.0
15.32,1.572,-0.809,0.0
14.118,1.446,-0.827,0.0
13.276,1.358,-0.853,0.0
12.3,1.257,-0.86,0.0
18.121,1.842,-0.761,0.0
16.602,1.685,-0.791,0.0
15.246,1.545,-0.812,0.0
14.008,1.417,-0.827,0.0
13.082,1.322,-0.846,0.0
12.217,1.233,-0.86,0.0
17.899,1.797,-0.76,0.0
16.402,1.643,-0.789,0.0
15.095,1.51,-0.811,0.0
13.95,1.393,-0.83,0.0
13.061,1.302,-0.851,0.0
12.098,1.205,-0.857,0.0
17.916,1.775,-0.768,0.0
16.371,1.619,-0.794,0.0
14.999,1.481,-0.812,0.0
13.865,1.366,-0.83,0.0
12.913,1.27,-0.846,0.0
11.985,1.177,-0.853,0.0
17.743,1.734,-0.767,0.0
16.198,1.58,-0.792,0.0
14.945,1.455,-0.814,0.0
13.83,1.344,-0.833,0.0
12.927,1.254,-0.852,0.0
11.94,1.156,-0.854,0.0
17.643,1.699,-0.769,0.0
16.121,1.55,-0.793,0.0
14.867,1.427,-0.815,0.0
13.765,1.318,-0.834,0.0
12.944,1.238,-0.857,0.0
11.925,1.138,-0.857,0.0
17.565,1.667,-0.771,0.0
16.065,1.522,-0.795,0.0
14.843,1.403,-0.818,0.0
13.74,1.297,-0.836,0.0
12.724,1.198,-0.846,0.0
11.882,1.117,-0.857,0.0
17.508,1.637,-0.773,0.0
16.017,1.494,-0.797,0.0
14.703,1.369,-0.815,0.0
13.736,1.277,-0.84,0.0
12.803,1.187,-0.855,0.0
11.846,1.097,-0.858,0.0
17.407,1.602,-0.773,0.0
15.896,1.46,-0.795,0.0
14.667,1.344,-0.816,0.0
13.667,1.25,-0.838,0.0
12.762,1.165,-0.855,0.0
11.817,1.076,-0.858,0.0
17.276,1.564,-0.771,0.0
15.921,1.439,-0.799,0.0
14.718,1.327,-0.821,0.0
13.65,1.228,-0.84,0.0
12.721,1.142,-0.854,0.0
11.766,1.054,-0.856,0.0
17.332,1.543,-0.776,0.0
15.852,1.408,-0.798,0.0
14.634,1.297,-0.819,0.0
13.626,1.205,-0.84,0.0
12.823,1.132,-0.863,0.0
11.777,1.037,-0.858,0.0
17.271,1.512,-0.775,0.0
15.769,1.377,-0.796,0.0
14.542,1.267,-0.815,0.0
13.658,1.187,-0.844,0.0
12.72,1.103,-0.857,0.0
11.741,1.016,-0.857,0.0
17.306,1.488,-0.778,0.0
15.907,1.364,-0.804,0.0
14.614,1.25,-0.82,0.0
13.609,1.162,-0.841,0.0
12.644,1.077,-0.852,0.0
11.749,0.998,-0.858,0.0
17.234,1.455,-0.776,0.0
15.809,1.331,-0.8,0.0
14.612,1.227,-0.821,0.0
13.529,1.133,-0.837,0.0
12.569,1.05,-0.848,0.0
11.753,0.98,-0.858,0.0
17.226,1.427,-0.775,0.0
15.79,1.305,-0.799,0.0
14.605,1.204,-0.82,0.0
13.662,1.123,-0.845,0.0
12.716,1.043,-0.857,0.0
11.738,0.96,-0.857,0.0
17.323,1.408,-0.779,0.0
15.805,1.281,-0.799,0.0
14.557,1.177,-0.816,0.0
13.581,1.095,-0.839,0.0
12.648,1.017,-0.852,0.0
11.765,0.943,-0.858,0.0
17.317,1.379,-0.777,0.0
15.88,1.261,-0.801,0.0
14.548,1.152,-0.815,0.0
13.628,1.076,-0.84,0.0
12.662,0.997,-0.851,0.0
11.781,0.925,-0.858,0.0
17.32,1.351,-0.775,0.0
15.869,1.234,-0.798,0.0
14.639,1.135,-0.818,0.0
13.625,1.054,-0.838,0.0
12.639,0.975,-0.848,0.0
11.778,0.906,-0.856,0.0
17.46,1.334,-0.779,0.0
15.958,1.215,-0.8,0.0
14.677,1.114,-0.817,0.0
13.607,1.03,-0.835,0.0
12.748,0.962,-0.853,0.0
11.803,0.888,-0.855,0.0
17.513,1.309,-0.778,0.0
16.002,1.192,-0.799,0.0
14.637,1.087,-0.812,0.0
13.653,1.011,-0.834,0.0
12.705,0.938,-0.847,0.0
11.795,0.868,-0.852,0.0
17.487,1.278,-0.772,0.0
16.023,1.167,-0.796,0.0
14.823,1.076,-0.818,0.0
13.722,0.993,-0.835,0.0
12.87,0.928,-0.854,0.0
11.862,0.853,-0.853,0.0
17.624,1.259,-0.773,0.0
16.087,1.145,-0.794,0.0
14.868,1.054,-0.816,0.0
13.813,0.976,-0.836,0.0
12.86,0.906,-0.85,0.0
11.927,0.837,-0.854,0.0
17.777,1.239,-0.774,0.0
16.209,1.126,-0.795,0.0
14.93,1.034,-0.815,0.0
13.824,0.954,-0.832,0.0
12.908,0.888,-0.848,0.0
11.981,0.821,-0.853,0.0
17.783,1.21,-0.768,0.0
16.275,1.103,-0.792,0.0
15.074,1.018,-0.817,0.0
13.9,0.936,-0.831,0.0
13.081,0.877,-0.854,0.0
12.05,0.805,-0.853,0.0
17.914,1.189,-0.766,0.0
16.431,1.086,-0.793,0.0
15.059,0.992,-0.809,0.0
13.955,0.916,-0.828,0.0
13.143,0.859,-0.852,0.0
12.111,0.789,-0.852,0.0
17.985,1.163,-0.761,0.0
16.571,1.067,-0.792,0.0
15.171,0.973,-0.808,0.0
14.052,0.898,-0.827,0.0
13.174,0.839,-0.848,0.0
12.209,0.774,-0.853,0.0
18.201,1.146,-0.761,0.0
16.703,1.047,-0.79,0.0
15.313,0.957,-0.808,0.0
14.132,0.879,-0.825,0.0
13.228,0.82,-0.845,0.0
12.304,0.759,-0.853,0.0
24.868,0.856,-0.677,0.0
21.831,0.746,-0.711,0.0
19.69,0.667,-0.746,0.0
17.847,0.6,-0.774,0.0
16.413,0.548,-0.799,0.0
15.165,0.502,-0.819,0.0
25.362,0.832,-0.66,0.0
22.496,0.732,-0.705,0.0
20.12,0.649,-0.738,0.0
18.237,0.584,-0.768,0.0
16.694,0.53,-0.792,0.0
15.453,0.487,-0.816,0.0
26.251,0.819,-0.65,0.0
23.173,0.717,-0.697,0.0
20.639,0.634,-0.731,0.0
18.613,0.566,-0.76,0.0
17.043,0.514,-0.787,0.0
15.764,0.472,-0.812,0.0
26.913,0.798,-0.632,0.0
23.907,0.702,-0.688,0.0
21.376,0.622,-0.729,0.0
19.082,0.551,-0.754,0.0
17.432,0.499,-0.782,0.0
16.038,0.455,-0.804,0.0
28.449,0.799,-0.63,1.0
24.881,0.692,-0.683,0.0
21.837,0.602,-0.715,0.0
19.624,0.536,-0.749,0.0
17.722,0.479,-0.77,0.0
16.375,0.439,-0.799,0.0
28.589,0.758,-0.594,1.0
25.619,0.673,-0.669,0.0
22.53,0.586,-0.707,0.0
20.157,0.519,-0.742,0.0
18.237,0.465,-0.768,0.0
16.733,0.423,-0.793,0.0
30.12,0.753,-0.585,0.0
26.504,0.656,-0.655,0.0
23.227,0.569,-0.697,0.0
20.72,0.503,-0.733,0.0
18.613,0.447,-0.757,0.0
17.114,0.407,-0.787,0.0
31.845,0.749,-0.573,0.0
27.613,0.642,-0.643,0.0
24.303,0.559,-0.694,0.0
21.35,0.486,-0.725,0.0
19.312,0.435,-0.758,0.0
17.597,0.392,-0.784,0.0
0.0,0.0,0.0,0.0
28.612,0.624,-0.625,0.0
24.804,0.534,-0.672,0.0
22.32,0.475,-0.725,0.0
19.726,0.415,-0.745,0.0
17.953,0.374,-0.773,0.0
35.373,0.728,-0.533,0.0
29.899,0.608,-0.608,0.0
25.956,0.521,-0.665,0.0
22.818,0.453,-0.707,0.0
20.352,0.399,-0.738,0.0
18.446,0.357,-0.766,0.0
0.0,0.0,0.0,0.0
0.0,0.0,0.0,0.0
26.621,0.497,-0.641,0.0
23.595,0.435,-0.695,0.0
21.088,0.384,-0.732,0.0
18.998,0.341,-0.76,0.0
41.775,0.74,-0.502,0.0
0.0,0.0,0.0,0.0
27.746,0.478,-0.625,0.0
24.537,0.417,-0.684,0.0
21.752,0.365,-0.721,0.0
19.489,0.322,-0.748,0.0
41.781,0.682,-0.435,0.0
34.377,0.553,-0.539,0.0
29.735,0.471,-0.622,0.0
25.405,0.397,-0.667,0.0
22.512,0.346,-0.709,0.0
20.181,0.306,-0.742,0.0
46.963,0.702,-0.413,0.0
0.0,0.0,0.0,0.0
30.521,0.442,-0.588,0.0
26.497,0.378,-0.653,0.0
23.404,0.328,-0.699,0.0
20.787,0.287,-0.73,0.0
0.0,0.0,0.0,0.0
0.0,0.0,0.0,0.0
32.588,0.429,-0.575,0.0
27.796,0.359,-0.639,0.0
23.746,0.302,-0.67,0.0
21.9,0.274,-0.733,0.0
0.0,0.0,0.0,0.0
42.468,0.513,-0.457,1.0
35.211,0.417,-0.562,0.0
29.176,0.339,-0.622,0.0
25.456,0.291,-0.676,0.0
22.526,0.252,-0.716,0.0
0.0,0.0,0.0,0.0
0.0,0.0,0.0,0.0
36.76,0.389,-0.525,0.0
30.815,0.319,-0.604,0.0
26.46,0.269,-0.657,0.0
23.376,0.232,-0.703,0.0
0.0,0.0,0.0,0.0
46.745,0.445,-0.343,0.0
39.75,0.371,-0.499,0.0
32.382,0.295,-0.579,0.0
27.891,0.248,-0.644,0.0
24.311,0.212,-0.689,0.0
0.0,0.0,0.0,0.0
0.0,0.0,0.0,0.0
42.894,0.347,-0.463,0.0
35.069,0.276,-0.565,0.0
28.906,0.222,-0.616,0.0
25.271,0.189,-0.67,0.0
85.76,0.625,0.12,4.0
0.0,0.0,0.0,0.0
45.907,0.317,-0.414,1.0
36.484,0.244,-0.523,0.0
30.853,0.2,-0.603,0.0
26.508,0.167,-0.656,0.0
87.509,0.536,0.278,3.0
0.0,0.0,0.0,0.0
48.385,0.277,-0.349,0.0
39.709,0.219,-0.497,0.0
32.146,0.171,-0.569,0.0
27.431,0.141,-0.629,0.0
97.833,0.486,0.489,1.0
0.0,0.0,0.0,0.0
0.0,0.0,0.0,0.0
42.815,0.188,-0.457,1.0
35.147,0.148,-0.558,0.0
0.0,0.0,0.0,0.0
104.526,0.403,0.715,7.0
0.0,0.0,0.0,0.0
0.0,0.0,0.0,0.0
46.081,0.152,-0.407,0.0
37.593,0.117,-0.527,0.0
30.897,0.091,-0.594,0.0
111.104,0.309,0.964,13.0
93.136,0.242,0.325,2.0
0.0,0.0,0.0,0.0
0.0,0.0,0.0,0.0
39.726,0.082,-0.483,0.0
33.221,0.063,-0.577,0.0
0.0,0.0,0.0,0.0
110.572,0.172,0.592,3.0
0.0,0.0,0.0,0.0
0.0,0.0,0.0,0.0
45.261,0.047,-0.466,2.0
35.729,0.031,-0.553,0.0
111.137,0.079,1.381,17.0
110.917,0.061,0.804,11.0
0.0,0.0,0.0,0.0
0.0,0.0,0.0,0.0
45.693,0.002,-0.384,1.0
37.56,-0.003,-0.51,0.0
111.046,-0.028,1.59,8.0
117.326,-0.049,1.073,14.0
98.785,-0.057,0.391,1.0
0.0,0.0,0.0,0.0
0.0,0.0,0.0,0.0
0.0,0.0,0.0,0.0
112.958,-0.136,1.835,2.0
119.705,-0.163,1.326,14.0
110.721,-0.168,0.654,13.0
0.0,0.0,0.0,0.0
53.722,-0.097,-0.244,1.0
45.085,-0.088,-0.438,1.0
114.694,-0.243,2.085,7.0
119.799,-0.273,1.56,3.0
114.471,-0.278,0.9,111.0
102.03,-0.263,0.265,1.0
0.0,0.0,0.0,0.0
0.0,0.0,0.0,0.0
119.834,-0.361,2.416,150.0
114.596,-0.362,1.719,4.0
119.716,-0.395,1.175,15.0
104.007,-0.358,0.474,1.0
0.0,0.0,0.0,0.0
0.0,0.0,0.0,0.0
119.842,-0.463,2.652,20.0
119.821,-0.479,2.033,31.0
119.689,-0.495,1.413,10.0
114.189,-0.487,0.746,3.0
95.166,-0.418,0.13,1.0
0.0,0.0,0.0,0.0
119.815,-0.56,2.889,47.0
119.818,-0.575,2.269,59.0
119.772,-0.591,1.651,19.0
119.718,-0.606,1.021,17.0
0.0,0.0,0.0,0.0
0.0,0.0,0.0,0.0
119.791,-0.654,3.129,16.0
194.076,-1.082,4.065,22.0
119.761,-0.683,1.891,12.0
119.698,-0.696,1.26,17.0
111.052,-0.659,0.594,6.0
0.0,0.0,0.0,0.0
119.806,-0.743,3.369,18.0
119.816,-0.756,2.749,48.0
119.814,-0.77,2.132,40.0
119.709,-0.783,1.5,14.0
119.669,-0.796,0.883,8.0
0.0,0.0,0.0,0.0
205.509,-1.42,6.196,18.0
119.746,-0.84,2.991,17.0
119.706,-0.852,2.371,18.0
119.766,-0.865,1.742,38.0
119.661,-0.877,1.125,17.0
111.483,-0.829,0.474,1.0
215.14,-1.629,6.918,6.0
119.721,-0.919,3.233,84.0
119.731,-0.931,2.616,77.0
119.759,-0.942,1.986,90.0
119.65,-0.954,1.368,17.0
114.359,-0.923,0.719,11.0
190.668,-1.566,6.522,5.0
119.706,-0.993,3.475,12.0
119.736,-1.005,2.859,112.0
119.744,-1.016,2.231,107.0
119.738,-1.027,1.615,90.0
119.709,-1.037,0.996,19.0
190.587,-1.678,6.907,32.0
210.778,-1.873,6.551,11.0
119.73,-1.074,3.103,150.0
119.727,-1.084,2.475,150.0
119.736,-1.095,1.859,150.0
119.742,-1.105,1.243,109.0
190.494,-1.783,7.295,33.0
0.0,0.0,0.0,0.0
119.733,-1.139,3.349,131.0
119.713,-1.148,2.719,150.0
119.752,-1.158,2.102,151.0
119.75,-1.166,1.485,150.0
189.799,-1.875,7.657,150.0
190.573,-1.897,6.706,21.0
210.99,-2.115,6.335,11.0
119.703,-1.209,2.967,33.0
119.727,-1.216,2.35,63.0
119.745,-1.225,1.733,95.0
95.588,-0.99,4.052,11.0
190.476,-1.986,7.093,37.0
210.712,-2.211,6.761,11.0
209.131,-2.207,5.611,15.0
210.515,-2.234,4.56,14.0
119.739,-1.278,1.978,9.0
95.509,-1.032,4.247,2.0
190.01,-2.064,7.465,21.0
190.677,-2.082,6.507,9.0
209.543,-2.3,6.051,12.0
209.156,-2.306,4.96,9.0
0.0,0.0,0.0,0.0
81.136,-0.91,3.773,8.0
104.341,-1.174,4.312,8.0
190.53,-2.155,6.893,37.0
0.0,0.0,0.0,0.0
0.0,0.0,0.0,0.0
210.475,-2.409,4.34,7.0
81.329,-0.942,3.951,22.0
112.015,-1.302,4.863,15.0
106.676,-1.244,4.081,11.0
210.924,-2.468,6.958,8.0
209.178,-2.456,5.824,16.0
210.519,-2.48,4.779,5.0
81.824,-0.975,4.144,13.0
95.013,-1.135,4.321,16.0
189.843,-2.274,7.655,12.0
190.641,-2.29,6.686,20.0
209.884,-2.528,6.278,15.0
206.53,-2.493,5.111,4.0
60.613,-0.739,3.195,14.0
81.247,-0.994,3.862,11.0
112.064,-1.373,4.748,16.0
190.439,-2.338,7.068,47.0
210.179,-2.586,6.718,14.0
0.0,0.0,0.0,0.0
60.641,-0.755,3.32,27.0
81.352,-1.015,4.034,16.0
95.012,-1.187,4.222,15.0
189.907,-2.375,7.436,33.0
210.549,-2.637,7.16,11.0
209.448,-2.627,6.044,5.0
60.736,-0.769,3.451,15.0
81.433,-1.032,4.206,7.0
84.922,-1.077,3.947,11.0
189.817,-2.411,7.823,49.0
190.525,-2.421,6.866,29.0
209.765,-2.668,6.479,15.0
61.637,-0.791,3.628,2.0
60.683,-0.779,3.257,12.0
81.329,-1.045,3.945,11.0
84.981,-1.092,3.675,9.0
190.469,-2.448,7.251,41.0
210.26,-2.703,6.921,9.0
61.631,-0.8,3.754,11.0
60.734,-0.788,3.384,24.0
81.367,-1.055,4.112,11.0
95.02,-1.232,4.301,15.0
189.782,-2.46,7.612,109.0
190.606,-2.47,6.662,20.0
48.456,-0.633,3.049,24.0
73.646,-0.962,4.253,6.0
81.874,-1.069,4.304,7.0
84.879,-1.107,4.013,7.0
112.224,-1.462,4.727,16.0
190.549,-2.481,7.041,27.0
48.452,-0.636,3.147,28.0
61.638,-0.808,3.683,5.0
60.753,-0.796,3.315,18.0
81.281,-1.063,4.005,10.0
84.991,-1.11,3.749,8.0
189.871,-2.476,7.395,56.0
48.584,-0.639,3.253,23.0
48.455,-0.636,2.992,7.0
60.741,-0.796,3.437,12.0
81.43,-1.065,4.175,10.0
84.864,-1.107,3.912,12.0
189.751,-2.472,7.768,67.0
48.292,-0.634,3.329,31.0
48.453,-0.635,3.088,37.0
73.689,-0.963,4.314,3.0
60.755,-0.792,3.236,6.0
81.293,-1.057,3.909,8.0
84.989,-1.102,3.647,8.0
48.023,-0.629,3.407,30.0
48.466,-0.632,3.186,22.0
61.605,-0.801,3.73,8.0
60.733,-0.787,3.355,23.0
81.361,-1.051,4.073,12.0
94.999,-1.224,4.263,17.0
42.565,-0.553,3.103,46.0
48.352,-0.626,3.274,29.0
48.45,-0.625,3.028,18.0
60.777,-0.781,3.477,5.0
60.699,-0.777,3.158,3.0
84.915,-1.083,3.977,8.0
42.434,-0.546,3.178,42.0
48.262,-0.618,3.363,22.0
48.421,-0.618,3.122,40.0
73.476,-0.933,4.347,8.0
60.669,-0.767,3.274,26.0
81.308,-1.024,3.965,13.0
42.155,-0.535,3.239,46.0
48.053,-0.607,3.441,5.0
48.237,-0.607,3.203,42.0
48.374,-0.605,2.955,4.0
60.694,-0.756,3.392,21.0
81.525,-1.01,4.133,11.0
42.192,-0.527,3.323,44.0
42.499,-0.528,3.125,45.0
48.489,-0.599,3.313,22.0
48.418,-0.595,3.05,29.0
75.154,-0.919,4.343,5.0
60.584,-0.736,3.186,19.0
42.358,-0.519,3.417,43.0
42.311,-0.515,3.192,41.0
42.486,-0.514,2.984,34.0
48.28,-0.581,3.133,30.0
73.429,-0.878,4.383,13.0
60.565,-0.72,3.3,28.0
41.973,-0.503,3.466,48.0
42.134,-0.501,3.258,45.0
42.474,-0.502,3.062,39.0
48.195,-0.566,3.218,30.0
48.415,-0.564,2.979,14.0
60.628,-0.702,3.415,15.0
41.827,-0.488,3.532,43.0
42.282,-0.49,3.348,38.0
42.28,-0.486,3.127,45.0
48.148,-0.549,3.304,20.0
48.332,-0.547,3.064,46.0
60.877,-0.684,3.542,12.0
41.81,-0.473,3.609,40.0
42.39,-0.476,3.436,18.0
42.058,-0.468,3.189,38.0
42.479,-0.469,2.993,39.0
48.262,-0.528,3.149,38.0
61.705,-0.67,3.704,8.0
41.627,-0.455,3.669,50.0
41.771,-0.453,3.463,37.0
42.075,-0.452,3.267,41.0
42.455,-0.452,3.069,36.0
47.992,-0.506,3.218,37.0
48.434,-0.506,2.994,12.0
41.791,-0.44,3.76,39.0
41.675,-0.434,3.531,42.0
42.021,-0.433,3.339,42.0
42.284,-0.431,3.133,39.0
47.96,-0.485,3.302,20.0
48.732,-0.487,3.1,22.0
41.692,-0.42,3.826,34.0
41.823,-0.417,3.618,28.0
41.981,-0.413,3.41,39.0
42.029,-0.409,3.189,42.0
45.907,-0.442,3.242,36.0
48.367,-0.46,3.162,22.0
41.514,-0.398,3.883,40.0
41.819,-0.396,3.691,40.0
41.692,-0.39,3.46,34.0
42.12,-0.389,3.269,42.0
42.634,-0.389,3.085,39.0
48.183,-0.434,3.233,33.0
41.622,-0.377,3.966,45.0
41.52,-0.371,3.737,44.0
41.719,-0.368,3.535,41.0
41.914,-0.365,3.326,48.0
42.153,-0.361,3.122,44.0
48.077,-0.406,3.308,25.0
41.617,-0.355,4.037,41.0
41.599,-0.349,3.815,40.0
41.759,-0.345,3.608,38.0
41.742,-0.34,3.383,41.0
41.998,-0.336,3.181,39.0
43.121,-0.34,3.039,24.0
41.631,-0.33,4.108,37.0
41.597,-0.325,3.885,40.0
41.66,-0.32,3.67,39.0
41.979,-0.316,3.471,17.0
41.989,-0.311,3.25,45.0
42.568,-0.31,3.07,30.0
41.478,-0.304,4.163,45.0
41.789,-0.301,3.971,40.0
41.556,-0.293,3.729,40.0
41.577,-0.288,3.506,48.0
41.988,-0.284,3.318,41.0
42.307,-0.28,3.12,46.0
41.24,-0.276,4.206,47.0
41.904,-0.274,4.051,42.0
41.412,-0.265,3.783,38.0
41.434,-0.259,3.561,44.0
41.947,-0.256,3.383,45.0
42.094,-0.251,3.171,40.0
41.244,-0.248,4.273,42.0
41.483,-0.243,4.077,40.0
41.585,-0.237,3.865,40.0
41.402,-0.23,3.624,43.0
41.773,-0.226,3.435,47.0
42.295,-0.222,3.254,32.0
41.195,-0.218,4.333,48.0
41.249,-0.212,4.119,41.0
41.748,-0.208,3.946,39.0
41.334,-0.2,3.682,38.0
41.529,-0.194,3.479,37.0
41.875,-0.189,3.286,37.0
41.146,-0.188,4.392,45.0
41.155,-0.181,4.173,43.0
41.704,-0.177,4.006,45.0
41.538,-0.169,3.764,43.0
41.371,-0.163,3.529,33.0
41.555,-0.157,3.323,43.0
41.16,-0.156,4.456,28.0
41.23,-0.15,4.243,39.0
41.49,-0.144,4.048,41.0
41.664,-0.138,3.837,41.0
41.434,-0.131,3.595,36.0
41.549,-0.124,3.384,42.0
41.086,-0.123,4.509,30.0
41.425,-0.118,4.324,24.0
41.284,-0.11,4.088,44.0
41.637,-0.104,3.895,41.0
41.55,-0.097,3.665,38.0
41.495,-0.09,3.439,41.0
41.141,-0.09,4.574,37.0
41.27,-0.083,4.367,37.0
41.359,-0.076,4.154,43.0
41.866,-0.07,3.977,39.0
41.688,-0.063,3.737,45.0
41.471,-0.055,3.495,40.0
41.307,-0.055,4.651,27.0
41.278,-0.048,4.426,26.0
41.339,-0.041,4.21,42.0
42.342,-0.034,4.08,18.0
42.227,-0.027,3.843,17.0
41.423,-0.019,3.548,38.0
41.33,-0.019,4.711,29.0
41.282,-0.012,4.482,24.0
41.422,-0.005,4.274,42.0
41.384,0.001,4.043,46.0
42.321,0.009,3.907,29.0
41.453,0.016,3.605,43.0
40.678,0.703,5.34,43.0
41.291,0.722,5.191,21.0
40.634,0.719,4.883,27.0
40.469,0.724,4.634,46.0
40.653,0.735,4.43,47.0
40.879,0.747,4.229,43.0
40.649,0.75,5.362,46.0
40.634,0.758,5.133,42.0
40.85,0.77,4.933,39.0
40.497,0.771,4.662,40.0
40.647,0.782,4.454,43.0
40.753,0.792,4.24,43.0
40.735,0.799,5.397,40.0
40.538,0.803,5.144,40.0
40.595,0.813,4.925,35.0
40.359,0.815,4.668,42.0
40.542,0.827,4.464,38.0
40.736,0.839,4.26,43.0
40.881,0.851,5.438,43.0
40.509,0.851,5.162,36.0
40.496,0.858,4.935,38.0
40.358,0.863,4.689,44.0
40.573,0.876,4.488,39.0
40.793,0.889,4.286,34.0
40.769,0.897,5.444,42.0
40.575,0.9,5.19,33.0
40.447,0.906,4.948,38.0
40.566,0.916,4.732,40.0
40.53,0.923,4.502,45.0
40.742,0.936,4.299,40.0
40.696,0.944,5.452,47.0
40.627,0.95,5.215,33.0
40.397,0.952,4.959,45.0
40.337,0.959,4.722,18.0
40.446,0.97,4.509,45.0
40.7,0.984,4.311,40.0
40.727,0.993,5.473,46.0
40.437,0.994,5.206,37.0
40.448,1.002,4.981,44.0
40.283,1.006,4.731,32.0
40.441,1.017,4.524,43.0
40.736,1.033,4.33,37.0
40.945,1.048,5.516,38.0
40.416,1.042,5.218,40.0
40.298,1.047,4.976,41.0
40.228,1.052,4.738,44.0
40.487,1.067,4.542,36.0
40.718,1.08,4.34,42.0
41.031,1.099,5.54,42.0
40.743,1.099,5.272,39.0
40.392,1.097,4.999,36.0
40.425,1.105,4.772,37.0
40.684,1.12,4.575,39.0
40.796,1.131,4.359,35.0
41.309,1.156,5.589,29.0
40.655,1.145,5.271,40.0
40.483,1.148,5.02,32.0
40.55,1.157,4.796,36.0
40.707,1.169,4.587,16.0
40.808,1.18,4.369,39.0
41.206,1.202,5.584,38.0
40.829,1.199,5.302,36.0
40.396,1.193,5.017,42.0
40.452,1.202,4.792,46.0
41.159,1.231,4.645,18.0
40.753,1.226,4.371,40.0
41.231,1.252,5.594,37.0
40.985,1.252,5.328,30.0
40.632,1.248,5.053,40.0
40.466,1.25,4.8,37.0
41.34,1.285,4.671,33.0
40.785,1.275,4.379,29.0
41.573,1.312,5.645,37.0
40.696,1.292,5.295,38.0
40.816,1.303,5.08,38.0
40.648,1.304,4.825,30.0
41.276,1.332,4.667,16.0
40.747,1.322,4.378,41.0
41.297,1.353,5.611,33.0
40.686,1.339,5.297,32.0
41.387,1.37,5.153,31.0
40.711,1.354,4.835,16.0
41.715,1.395,4.719,36.0
40.635,1.366,4.368,36.0
41.45,1.406,5.633,18.0
40.772,1.39,5.309,41.0
41.458,1.42,5.163,28.0
41.184,1.418,4.891,16.0
41.622,1.44,4.708,52.0
40.679,1.414,4.372,22.0
40.904,1.435,5.557,14.0
40.69,1.435,5.297,36.0
41.272,1.462,5.138,27.0
41.032,1.46,4.871,17.0
41.312,1.477,4.671,20.0
40.644,1.459,4.366,39.0
40.883,1.482,5.552,28.0
40.66,1.481,5.29,41.0
41.176,1.506,5.123,29.0
41.036,1.507,4.868,43.0
0.0,0.0,0.0,0.0
40.649,1.507,4.362,34.0
40.897,1.53,5.549,39.0
40.606,1.525,5.278,35.0
40.951,1.545,5.089,16.0
56.735,2.149,6.723,7.0
0.0,0.0,0.0,0.0
40.557,1.55,4.346,35.0
40.934,1.578,5.548,9.0
40.839,1.581,5.301,18.0
40.886,1.589,5.074,29.0
45.243,1.765,5.353,1.0
0.0,0.0,0.0,0.0
40.45,1.591,4.327,40.0
40.905,1.623,5.535,34.0
40.913,1.63,5.302,43.0
40.876,1.635,5.064,12.0
60.751,2.439,7.174,9.0
40.711,1.641,4.576,27.0
40.636,1.644,4.337,37.0
48.278,1.971,6.521,9.0
40.913,1.675,5.292,25.0
43.903,1.804,5.427,9.0
44.576,1.839,5.252,19.0
40.683,1.685,4.562,33.0
40.59,1.687,4.321,33.0
48.246,2.023,6.502,9.0
45.914,1.931,5.924,20.0
60.768,2.565,7.494,7.0
45.084,1.909,5.297,19.0
40.646,1.727,4.544,45.0
40.568,1.729,4.305,37.0
48.225,2.074,6.483,8.0
45.933,1.981,5.911,20.0
41.58,1.799,5.113,5.0
41.82,1.816,4.899,30.0
40.761,1.776,4.542,41.0
40.603,1.774,4.294,24.0
48.177,2.124,6.458,7.0
51.168,2.262,6.565,5.0
41.642,1.846,5.104,32.0
0.0,0.0,0.0,0.0
40.697,1.815,4.519,30.0
43.154,1.931,4.546,2.0
48.134,2.172,6.432,7.0
41.412,1.874,5.295,5.0
41.834,1.899,5.109,32.0
41.855,1.905,4.868,16.0
40.774,1.862,4.509,24.0
41.22,1.888,4.323,16.0
48.021,2.218,6.394,7.0
41.428,1.918,5.277,28.0
41.919,1.946,5.099,42.0
41.761,1.944,4.836,43.0
40.798,1.904,4.491,33.0
41.03,1.921,4.283,33.0
53.938,2.546,7.154,10.0
41.453,1.961,5.259,28.0
41.602,1.973,5.039,38.0
41.891,1.992,4.829,35.0
45.225,2.156,4.955,9.0
40.93,1.957,4.25,35.0
53.912,2.598,7.121,8.0
41.503,2.005,5.242,32.0
41.527,2.011,5.006,44.0
42.002,2.038,4.818,31.0
40.795,1.985,4.446,32.0
40.855,1.993,4.219,34.0
47.919,2.356,6.3,12.0
41.557,2.048,5.224,14.0
41.532,2.051,4.981,44.0
42.048,2.081,4.797,22.0
40.78,2.023,4.419,42.0
41.328,2.056,4.242,28.0
47.917,2.402,6.269,12.0
41.579,2.088,5.2,31.0
41.664,2.097,4.97,38.0
42.009,2.119,4.766,29.0
40.758,2.06,4.39,37.0
53.389,2.705,5.445,6.0
47.88,2.445,6.232,4.0
41.481,2.122,5.159,44.0
41.674,2.136,4.943,37.0
40.724,2.091,4.592,4.0
40.717,2.095,4.357,36.0
40.87,2.108,4.139,11.0
41.508,2.157,5.372,4.0
41.701,2.171,5.156,30.0
41.673,2.174,4.912,45.0
40.781,2.131,4.568,10.0
40.711,2.132,4.326,37.0
45.194,2.371,4.544,14.0
119.213,-10.327,1.512,14.0
86.69,-7.536,0.632,8.0
57.57,-5.022,0.108,2.0
0.0,0.0,0.0,0.0
39.292,-3.452,-0.353,1.0
29.851,-2.632,-0.429,83.0
119.187,-10.514,1.602,16.0
89.365,-7.909,0.72,9.0
67.781,-6.02,0.18,2.0
47.138,-4.2,-0.133,21.0
30.029,-2.685,-0.246,4.0
29.847,-2.678,-0.406,16.0
135.63,-12.175,1.931,19.0
89.515,-8.061,0.791,4.0
71.974,-6.502,0.249,4.0
47.957,-4.346,-0.097,22.0
37.949,-3.451,-0.281,8.0
29.873,-2.725,-0.382,41.0
135.585,-12.376,2.04,135.0
111.371,-10.197,1.076,8.0
71.884,-6.602,0.307,6.0
48.618,-4.479,-0.058,22.0
40.19,-3.714,-0.264,15.0
29.855,-2.768,-0.357,8.0
135.568,-12.574,2.153,150.0
111.373,-10.36,1.169,14.0
84.772,-7.91,0.434,5.0
50.559,-4.731,-0.017,24.0
0.0,0.0,0.0,0.0
36.201,-3.409,-0.402,2.0
119.235,-11.23,1.996,11.0
111.94,-10.573,1.271,13.0
83.395,-7.9,0.499,10.0
51.278,-4.872,0.026,25.0
0.0,0.0,0.0,0.0
35.65,-3.407,-0.365,17.0
119.261,-11.401,2.102,11.0
115.183,-11.041,1.411,3.0
85.547,-8.223,0.588,11.0
51.214,-4.937,0.072,9.0
43.908,-4.244,-0.173,18.0
36.031,-3.493,-0.335,12.0
135.538,-13.145,2.513,120.0
119.064,-11.576,1.569,6.0
85.595,-8.345,0.668,7.0
54.571,-5.334,0.127,2.0
45.07,-4.418,-0.136,19.0
37.365,-3.672,-0.313,16.0
135.493,-13.322,2.641,43.0
135.478,-13.354,1.912,26.0
87.977,-8.693,0.77,3.0
70.918,-7.026,0.233,1.0
46.147,-4.584,-0.095,20.0
38.388,-3.823,-0.285,22.0
119.213,-11.875,2.436,62.0
135.443,-13.526,2.042,94.0
105.001,-10.51,1.02,6.0
79.15,-7.943,0.337,7.0
47.378,-4.766,-0.052,22.0
38.82,-3.915,-0.25,14.0
74.91,-7.557,1.604,20.0
135.407,-13.692,2.175,151.0
104.789,-10.621,1.121,3.0
81.161,-8.245,0.425,8.0
48.156,-4.904,-0.005,21.0
41.605,-4.247,-0.227,7.0
74.866,-7.644,1.678,18.0
104.652,-10.709,1.785,6.0
104.681,-10.736,1.225,15.0
83.763,-8.611,0.523,4.0
48.546,-5.002,0.044,5.0
33.121,-3.42,-0.147,39.0
74.81,-7.728,1.753,6.0
104.634,-10.832,1.893,9.0
113.977,-11.823,1.452,6.0
33.138,-3.445,0.241,5.0
33.132,-3.452,0.064,68.0
33.1,-3.456,-0.112,69.0
78.816,-8.232,1.929,21.0
33.11,-3.465,0.633,0.0
33.144,-3.475,0.456,39.0
33.126,-3.481,0.275,71.0
33.1,-3.485,0.098,76.0
33.097,-3.492,-0.077,80.0
33.173,-3.501,0.847,5.0
33.163,-3.507,0.669,72.0
33.14,-3.511,0.492,74.0
33.105,-3.514,0.311,91.0
33.104,-3.521,0.134,81.0
33.095,-3.528,-0.042,83.0
33.16,-3.535,0.882,74.0
33.139,-3.539,0.704,77.0
33.124,-3.544,0.527,82.0
33.107,-3.549,0.347,78.0
33.107,-3.556,0.17,76.0
33.111,-3.563,-0.006,47.0
26.236,0.172,-0.642,0.0
22.795,0.15,-0.691,0.0
20.14,0.133,-0.728,0.0
18.012,0.119,-0.758,0.0
16.521,0.109,-0.792,0.0
15.116,0.1,-0.813,0.0
24.674,0.162,-0.655,0.0
21.608,0.142,-0.7,0.0
19.288,0.127,-0.737,0.0
17.471,0.115,-0.772,0.0
15.977,0.105,-0.799,0.0
14.634,0.097,-0.818,0.0
23.564,0.153,-0.674,0.0
20.712,0.135,-0.713,0.0
18.706,0.122,-0.754,0.0
16.826,0.11,-0.778,0.0
15.428,0.101,-0.804,0.0
14.251,0.093,-0.826,0.0
22.604,0.145,-0.692,0.0
20.021,0.129,-0.73,0.0
17.896,0.115,-0.758,0.0
16.456,0.106,-0.795,0.0
15.063,0.097,-0.816,0.0
13.825,0.089,-0.83,0.0
21.512,0.136,-0.703,0.0
19.206,0.121,-0.74,0.0
17.42,0.11,-0.773,0.0
15.804,0.099,-0.796,0.0
14.576,0.092,-0.819,0.0
13.504,0.085,-0.838,0.0
20.537,0.126,-0.713,0.0
18.598,0.114,-0.754,0.0
16.789,0.103,-0.779,0.0
15.371,0.094,-0.805,0.0
14.198,0.087,-0.827,0.0
13.125,0.08,-0.841,0.0
19.876,0.118,-0.73,0.0
17.911,0.106,-0.763,0.0
16.212,0.096,-0.785,0.0
14.943,0.088,-0.813,0.0
13.818,0.081,-0.832,0.0
12.878,0.076,-0.851,0.0
19.092,0.109,-0.74,0.0
17.288,0.099,-0.771,0.0
15.788,0.09,-0.796,0.0
14.509,0.082,-0.818,0.0
13.485,0.076,-0.839,0.0
12.452,0.07,-0.848,0.0
18.542,0.101,-0.755,0.0
16.804,0.091,-0.783,0.0
15.355,0.083,-0.805,0.0
14.123,0.076,-0.824,0.0
13.044,0.07,-0.838,0.0
12.115,0.064,-0.849,0.0
17.901,0.092,-0.765,0.0
16.279,0.083,-0.79,0.0
14.985,0.076,-0.815,0.0
13.713,0.069,-0.827,0.0
12.917,0.065,-0.855,0.0
11.753,0.059,-0.847,0.0
17.268,0.083,-0.771,0.0
15.759,0.075,-0.795,0.0
14.468,0.069,-0.815,0.0
13.355,0.063,-0.832,0.0
12.431,0.058,-0.847,0.0
11.539,0.053,-0.854,0.0
16.767,0.074,-0.781,0.0
15.282,0.067,-0.801,0.0
14.138,0.062,-0.824,0.0
13.022,0.056,-0.836,0.0
12.091,0.052,-0.847,0.0
11.337,0.048,-0.861,0.0
16.353,0.066,-0.793,0.0
14.957,0.06,-0.813,0.0
13.794,0.054,-0.83,0.0
12.868,0.05,-0.851,0.0
11.756,0.045,-0.846,0.0
11.154,0.042,-0.868,0.0
15.723,0.056,-0.792,0.0
14.494,0.051,-0.815,0.0
13.412,0.047,-0.832,0.0
12.431,0.043,-0.846,0.0
11.538,0.039,-0.853,0.0
10.874,0.036,-0.867,0.0
15.344,0.048,-0.802,0.0
14.228,0.043,-0.827,0.0
13.097,0.039,-0.837,0.0
12.14,0.036,-0.848,0.0
11.336,0.033,-0.859,0.0
10.706,0.03,-0.874,0.0
14.969,0.039,-0.81,0.0
13.794,0.035,-0.827,0.0
12.835,0.032,-0.844,0.0
11.778,0.028,-0.845,0.0
11.174,0.026,-0.867,0.0
10.5,0.024,-0.876,0.0
14.612,-1.099,-0.823,0.0
13.649,-1.026,-0.841,0.0
12.812,-0.963,-0.856,0.0
11.978,-0.9,-0.865,0.0
11.28,-0.847,-0.874,0.0
10.733,-0.806,-0.889,0.0
14.979,-1.122,-0.821,0.0
13.938,-1.043,-0.837,0.0
13.137,-0.983,-0.858,0.0
12.178,-0.911,-0.861,0.0
11.511,-0.86,-0.874,0.0
10.909,-0.815,-0.886,0.0
15.313,-1.141,-0.815,0.0
14.235,-1.06,-0.833,0.0
13.362,-0.995,-0.852,0.0
12.39,-0.922,-0.856,0.0
11.693,-0.869,-0.87,0.0
11.054,-0.821,-0.881,0.0
15.628,-1.158,-0.808,0.0
14.542,-1.077,-0.828,0.0
13.61,-1.007,-0.846,0.0
12.669,-0.937,-0.856,0.0
11.923,-0.881,-0.868,0.0
11.237,-0.83,-0.877,0.0
16.068,-1.183,-0.806,0.0
14.83,-1.091,-0.821,0.0
13.852,-1.019,-0.84,0.0
12.987,-0.954,-0.857,0.0
12.109,-0.889,-0.863,0.0
11.419,-0.838,-0.874,0.0
16.517,-1.208,-0.803,0.0
15.157,-1.108,-0.816,0.0
14.154,-1.033,-0.836,0.0
13.19,-0.962,-0.85,0.0
12.314,-0.897,-0.858,0.0
11.637,-0.847,-0.872,0.0
16.797,-1.22,-0.79,0.0
15.42,-1.118,-0.806,0.0
14.35,-1.04,-0.825,0.0
13.477,-0.975,-0.848,0.0
12.61,-0.912,-0.859,0.0
11.846,-0.855,-0.869,0.0
17.365,-1.251,-0.79,0.0
15.777,-1.135,-0.8,0.0
14.765,-1.061,-0.826,0.0
13.715,-0.984,-0.841,0.0
12.871,-0.922,-0.857,0.0
12.048,-0.862,-0.865,0.0
17.698,-1.264,-0.777,0.0
16.379,-1.168,-0.805,0.0
15.068,-1.073,-0.819,0.0
14.043,-0.999,-0.839,0.0
13.183,-0.936,-0.857,0.0
12.271,-0.87,-0.862,0.0
18.109,-1.281,-0.767,0.0
16.665,-1.177,-0.793,0.0
15.353,-1.083,-0.811,0.0
14.298,-1.007,-0.832,0.0
13.448,-0.945,-0.853,0.0
12.473,-0.876,-0.857,0.0
18.606,-1.303,-0.759,0.0
17.197,-1.202,-0.791,0.0
15.851,-1.106,-0.813,0.0
14.633,-1.019,-0.828,0.0
13.647,-0.949,-0.844,0.0
12.737,-0.884,-0.855,0.0
19.687,-1.364,-0.772,0.0
17.601,-1.217,-0.783,0.0
16.138,-1.114,-0.802,0.0
14.906,-1.027,-0.82,0.0
14.045,-0.966,-0.847,0.0
20.003,-1.373,-1.311,0.0
19.777,-1.354,-0.745,2.0
18.052,-1.234,-0.774,0.0
16.511,-1.126,-0.795,0.0
15.293,-1.041,-0.818,0.0
14.234,-0.967,-0.836,0.0
13.385,-0.908,-0.856,0.0
19.995,-1.352,-0.722,2.0
18.43,-1.244,-0.762,0.0
20.093,-1.353,-0.936,0.0
15.826,-1.064,-0.822,0.0
14.527,-0.974,-0.83,0.0
13.612,-0.911,-0.85,0.0
20.139,-1.344,-0.696,10.0
19.663,-1.31,-0.782,1.0
20.155,-1.339,-0.907,0.0
20.07,-1.33,-1.011,0.0
14.872,-0.984,-0.827,0.0
13.855,-0.914,-0.843,0.0
20.118,-1.324,-0.664,19.0
19.815,-1.301,-0.758,2.0
20.139,-1.319,-0.876,0.0
20.089,-1.313,-0.981,0.0
15.223,-0.992,-0.823,0.0
14.214,-0.924,-0.843,0.0
13.442,1.329,-0.843,0.0
12.423,1.227,-0.849,0.0
11.624,1.147,-0.861,0.0
10.873,1.072,-0.868,0.0
10.337,1.018,-0.885,0.0
9.817,0.965,-0.896,0.0
13.344,1.306,-0.845,0.0
12.305,1.203,-0.849,0.0
11.464,1.119,-0.856,0.0
10.794,1.053,-0.869,0.0
10.247,0.998,-0.883,0.0
9.719,0.946,-0.893,0.0
13.119,1.27,-0.838,0.0
12.243,1.184,-0.851,0.0
11.398,1.101,-0.858,0.0
10.75,1.037,-0.871,0.0
10.232,0.986,-0.887,0.0
9.72,0.935,-0.899,0.0
13.076,1.252,-0.842,0.0
12.141,1.16,-0.851,0.0
11.313,1.08,-0.857,0.0
10.688,1.019,-0.872,0.0
10.176,0.969,-0.888,0.0
