X,Y,Z,Reflectivity
11.041,-0.805,-0.871,0.0
10.447,-0.765,-0.884,0.0
9.925,-0.73,-0.896,0.0
13.483,-0.992,-0.838,0.0
12.522,-0.925,-0.849,0.0
11.726,-0.869,-0.861,0.0
11.026,-0.821,-0.873,0.0
10.445,-0.781,-0.886,0.0
9.923,-0.745,-0.898,0.0
13.417,-1.007,-0.837,0.0
12.496,-0.942,-0.849,0.0
11.716,-0.886,-0.862,0.0
11.025,-0.837,-0.875,0.0
10.432,-0.795,-0.886,0.0
9.894,-0.757,-0.896,0.0
13.468,-1.031,-0.842,0.0
12.438,-0.956,-0.847,0.0
11.691,-0.902,-0.862,0.0
11.027,-0.854,-0.876,0.0
10.425,-0.81,-0.887,0.0
9.866,-0.77,-0.895,0.0
13.496,-1.053,-0.845,0.0
12.443,-0.974,-0.849,0.0
11.683,-0.918,-0.862,0.0
11.008,-0.869,-0.875,0.0
10.418,-0.825,-0.887,0.0
9.866,-0.784,-0.896,0.0
13.411,-1.066,-0.84,0.0
12.476,-0.995,-0.852,0.0
11.672,-0.934,-0.862,0.0
11.001,-0.884,-0.875,0.0
10.409,-0.839,-0.887,0.0
9.861,-0.798,-0.895,0.0
13.415,-1.085,-0.841,0.0
12.443,-1.011,-0.849,0.0
11.663,-0.95,-0.862,0.0
11.024,-0.902,-0.877,0.0
10.429,-0.856,-0.888,0.0
9.895,-0.815,-0.898,0.0
13.443,-1.107,-0.842,0.0
12.434,-1.028,-0.849,0.0
11.685,-0.969,-0.863,0.0
11.039,-0.919,-0.878,0.0
10.46,-0.874,-0.891,0.0
9.917,-0.831,-0.9,0.0
13.465,-1.128,-0.843,0.0
12.481,-1.049,-0.851,0.0
11.701,-0.987,-0.863,0.0
11.059,-0.936,-0.879,0.0
10.46,-0.888,-0.89,0.0
9.908,-0.845,-0.898,0.0
13.489,-1.149,-0.843,0.0
12.509,-1.069,-0.851,0.0
11.746,-1.007,-0.865,0.0
11.057,-0.951,-0.877,0.0
10.484,-0.905,-0.89,0.0
9.928,-0.86,-0.899,0.0
13.563,-1.174,-0.846,0.0
12.492,-1.085,-0.848,0.0
11.768,-1.025,-0.865,0.0
11.093,-0.969,-0.878,0.0
10.494,-0.92,-0.889,0.0
9.943,-0.875,-0.898,0.0
13.535,-1.19,-0.842,0.0
12.587,-1.11,-0.852,0.0
11.764,-1.04,-0.862,0.0
11.108,-0.986,-0.877,0.0
10.509,-0.935,-0.888,0.0
9.964,-0.89,-0.898,0.0
13.549,-1.209,-0.839,0.0
12.677,-1.134,-0.856,0.0
11.809,-1.06,-0.863,0.0
11.188,-1.007,-0.881,0.0
10.528,-0.951,-0.887,0.0
9.989,-0.905,-0.898,0.0
13.598,-1.231,-0.839,0.0
12.762,-1.159,-0.858,0.0
11.853,-1.079,-0.863,0.0
11.232,-1.026,-0.881,0.0
10.567,-0.968,-0.887,1.0
10.019,-0.921,-0.897,0.0
13.635,-1.252,-0.837,0.0
12.757,-1.175,-0.854,0.0
11.876,-1.097,-0.861,0.0
11.275,-1.044,-0.881,0.0
10.59,-0.984,-0.886,0.0
10.053,-0.937,-0.897,0.0
13.685,-1.274,-0.835,0.0
12.802,-1.195,-0.852,0.0
12.0,-1.123,-0.865,0.0
11.293,-1.06,-0.878,0.0
10.635,-1.001,-0.886,0.0
10.146,-0.958,-0.902,0.0
13.715,-1.294,-0.832,0.0
12.854,-1.216,-0.851,0.0
12.045,-1.142,-0.864,0.0
11.313,-1.076,-0.875,0.0
10.725,-1.023,-0.889,0.0
10.182,-0.974,-0.901,0.0
13.812,-1.319,-0.832,0.0
12.907,-1.236,-0.849,0.0
11.999,-1.152,-0.855,0.0
11.365,-1.094,-0.874,0.0
10.809,-1.044,-0.891,0.0
10.221,-0.99,-0.899,0.0
13.924,-1.347,-0.833,0.0
12.953,-1.256,-0.846,0.0
12.161,-1.182,-0.861,0.0
11.428,-1.114,-0.874,0.0
10.87,-1.062,-0.891,0.0
10.282,-1.007,-0.9,0.0
13.923,-1.363,-0.826,0.0
13.065,-1.282,-0.847,0.0
12.241,-1.204,-0.861,0.0
11.526,-1.137,-0.875,0.0
10.898,-1.077,-0.888,0.0
10.343,-1.025,-0.9,0.0
13.982,-1.384,-0.822,0.0
13.199,-1.31,-0.849,0.0
12.255,-1.219,-0.855,0.0
11.564,-1.153,-0.872,0.0
10.955,-1.095,-0.886,0.0
10.375,-1.04,-0.897,0.0
14.156,-1.417,-0.824,0.0
13.257,-1.33,-0.845,0.0
12.309,-1.238,-0.852,0.0
11.696,-1.179,-0.875,0.0
11.053,-1.117,-0.888,0.0
10.41,-1.055,-0.893,0.0
14.388,-1.456,-0.829,0.0
13.292,-1.348,-0.839,0.0
12.402,-1.26,-0.851,0.0
11.634,-1.185,-0.863,0.0
11.147,-1.138,-0.888,0.0
10.44,-1.069,-0.889,0.0
14.541,-1.486,-0.829,0.0
13.398,-1.372,-0.837,0.0
12.599,-1.293,-0.856,0.0
11.727,-1.206,-0.863,0.0
11.218,-1.157,-0.887,0.0
10.553,-1.091,-0.892,0.0
14.466,-1.493,-0.815,0.0
13.581,-1.404,-0.84,0.0
12.67,-1.313,-0.853,0.0
11.853,-1.231,-0.864,0.0
11.295,-1.176,-0.885,0.0
10.677,-1.114,-0.895,0.0
14.283,-1.488,-0.795,0.0
13.689,-1.429,-0.837,0.0
12.84,-1.343,-0.855,0.0
12.006,-1.258,-0.866,0.0
11.331,-1.19,-0.88,0.0
10.704,-1.127,-0.89,0.0
14.041,-1.476,-0.772,0.0
13.789,-1.452,-0.833,0.0
13.005,-1.372,-0.857,0.0
12.085,-1.278,-0.863,0.0
11.382,-1.206,-0.875,0.0
10.807,-1.147,-0.89,0.0
13.822,-1.465,-0.749,0.0
13.689,-1.454,-0.817,0.0
13.129,-1.397,-0.855,0.0
12.154,-1.296,-0.859,0.0
11.482,-1.226,-0.874,0.0
10.908,-1.167,-0.89,0.0
13.577,-1.451,-0.725,0.0
13.488,-1.444,-0.794,0.0
13.23,-1.419,-0.851,0.0
12.362,-1.328,-0.863,0.0
11.566,-1.245,-0.871,0.0
11.035,-1.19,-0.891,0.0
13.383,-1.441,-0.704,1.0
13.334,-1.439,-0.774,0.0
13.249,-1.432,-0.841,1.0
12.485,-1.352,-0.862,0.0
11.694,-1.268,-0.871,0.0
11.123,-1.208,-0.889,0.0
13.381,-1.452,-0.693,1.0
13.117,-1.425,-0.75,0.0
13.156,-1.432,-0.824,0.0
12.617,-1.376,-0.86,0.0
11.79,-1.288,-0.868,0.0
11.238,-1.23,-0.888,0.0
13.439,-1.468,-0.684,1.0
12.931,-1.415,-0.728,1.0
12.897,-1.413,-0.796,0.0
12.686,-1.393,-0.853,0.0
11.916,-1.31,-0.866,0.0
11.317,-1.246,-0.884,0.0
13.628,-1.499,-0.681,1.0
12.819,-1.412,-0.71,1.0
12.715,-1.402,-0.774,0.0
12.655,-1.398,-0.84,0.0
12.063,-1.334,-0.866,0.0
11.396,-1.263,-0.88,0.0
13.895,-1.537,-0.682,1.0
12.824,-1.421,-0.699,1.0
12.557,-1.393,-0.752,0.0
12.538,-1.393,-0.82,0.0
12.301,-1.369,-0.871,0.0
11.478,-1.279,-0.875,0.0
14.055,-1.564,-0.677,5.0
12.919,-1.439,-0.692,1.0
12.406,-1.384,-0.731,0.0
12.394,-1.385,-0.799,0.0
12.323,-1.379,-0.861,0.0
11.643,-1.304,-0.877,0.0
14.112,-1.579,-0.666,12.0
13.108,-1.468,-0.689,1.0
12.357,-1.386,-0.716,1.0
12.273,-1.378,-0.779,0.0
12.309,-1.384,-0.848,0.0
11.727,-1.32,-0.871,0.0
14.156,-1.592,-0.654,14.0
13.329,-1.5,-0.687,1.0
12.38,-1.395,-0.705,1.0
12.187,-1.375,-0.761,0.0
12.241,-1.383,-0.831,0.0
11.925,-1.349,-0.874,0.0
14.24,-1.608,-0.643,13.0
13.58,-1.535,-0.687,1.0
12.461,-1.411,-0.697,1.0
12.079,-1.369,-0.742,0.0
12.072,-1.37,-0.807,0.0
12.029,-1.366,-0.869,0.0
14.401,-1.633,-0.636,13.0
13.715,-1.557,-0.679,6.0
12.667,-1.44,-0.695,1.0
12.027,-1.368,-0.726,0.0
11.963,-1.362,-0.787,0.0
11.946,-1.362,-0.851,0.0
14.526,-1.654,-0.626,13.0
13.798,-1.572,-0.669,12.0
12.864,-1.467,-0.693,1.0
12.06,-1.377,-0.716,1.0
11.876,-1.357,-0.769,0.0
11.896,-1.361,-0.834,0.0
15.062,-1.721,-0.633,17.0
13.8,-1.578,-0.654,13.0
13.098,-1.499,-0.691,1.0
12.169,-1.394,-0.709,0.0
11.811,-1.354,-0.752,0.0
11.78,-1.352,-0.813,0.0
15.27,-1.75,-0.625,20.0
13.892,-1.593,-0.644,13.0
13.375,-1.535,-0.691,1.0
12.291,-1.412,-0.703,2.0
11.763,-1.352,-0.736,0.0
11.727,-1.349,-0.797,0.0
15.451,-1.775,-0.616,18.0
13.948,-1.604,-0.63,11.0
13.482,-1.551,-0.682,7.0
12.415,-1.429,-0.696,1.0
11.784,-1.358,-0.724,0.0
11.71,-1.35,-0.782,0.0
15.737,-1.812,-0.609,17.0
14.183,-1.634,-0.625,11.0
13.558,-1.563,-0.67,12.0
12.647,-1.459,-0.694,1.0
11.87,-1.37,-0.715,1.0
11.67,-1.348,-0.766,0.0
16.048,-1.852,-0.603,16.0
14.523,-1.676,-0.623,12.0
13.602,-1.571,-0.657,15.0
12.93,-1.494,-0.695,1.0
12.004,-1.388,-0.71,0.0
11.633,-1.346,-0.75,0.0
16.297,-1.883,-0.594,18.0
15.134,-1.749,-0.632,16.0
13.805,-1.596,-0.651,13.0
13.18,-1.525,-0.693,2.0
12.188,-1.411,-0.706,1.0
11.611,-1.344,-0.735,0.0
16.555,-1.915,-0.584,17.0
15.335,-1.774,-0.623,17.0
14.005,-1.621,-0.644,11.0
13.329,-1.543,-0.685,6.0
12.327,-1.428,-0.7,2.0
11.683,-1.354,-0.726,0.0
16.86,-1.952,-0.575,16.0
15.525,-1.797,-0.612,16.0
14.118,-1.635,-0.632,10.0
13.452,-1.558,-0.676,10.0
12.489,-1.447,-0.694,1.0
11.786,-1.366,-0.718,0.0
17.268,-1.999,-0.568,16.0
15.763,-1.825,-0.603,13.0
14.337,-1.66,-0.625,10.0
13.541,-1.569,-0.664,14.0
12.803,-1.483,-0.696,1.0
11.922,-1.382,-0.712,0.0
17.658,-2.044,-0.559,17.0
16.175,-1.873,-0.599,15.0
15.026,-1.74,-0.637,13.0
13.671,-1.583,-0.654,14.0
13.114,-1.519,-0.697,1.0
12.127,-1.405,-0.709,0.0
18.116,-2.096,-0.552,20.0
16.436,-1.902,-0.589,16.0
15.259,-1.766,-0.628,16.0
13.937,-1.613,-0.649,12.0
13.318,-1.541,-0.692,4.0
12.292,-1.423,-0.704,1.0
18.607,-2.151,-0.545,20.0
16.754,-1.937,-0.58,15.0
15.462,-1.787,-0.617,16.0
14.027,-1.621,-0.636,10.0
13.421,-1.551,-0.68,8.0
12.429,-1.437,-0.697,1.0
18.926,-2.186,-0.531,27.0
17.124,-1.977,-0.571,15.0
15.77,-1.82,-0.61,15.0
14.266,-1.646,-0.63,10.0
13.552,-1.564,-0.67,12.0
12.749,-1.471,-0.699,1.0
19.287,-2.224,-0.517,30.0
17.566,-2.024,-0.565,16.0
16.07,-1.851,-0.602,14.0
14.941,-1.721,-0.641,13.0
13.674,-1.575,-0.66,13.0
12.994,-1.496,-0.696,1.0
19.612,-2.256,-0.502,23.0
17.981,-2.068,-0.556,16.0
16.386,-1.884,-0.594,15.0
15.205,-1.747,-0.634,17.0
13.838,-1.59,-0.65,12.0
13.307,-1.528,-0.696,1.0
20.181,-2.316,-0.492,17.0
18.393,-2.11,-0.546,17.0
16.711,-1.916,-0.585,14.0
15.416,-1.767,-0.623,17.0
14.073,-1.612,-0.644,12.0
13.531,-1.55,-0.692,4.0
20.745,-2.374,-0.48,18.0
18.821,-2.152,-0.535,19.0
17.133,-1.958,-0.578,15.0
15.764,-1.801,-0.618,16.0
14.197,-1.621,-0.632,11.0
13.614,-1.554,-0.679,8.0
21.687,-2.474,-0.474,22.0
19.207,-2.189,-0.522,26.0
17.565,-2.001,-0.571,16.0
16.134,-1.837,-0.612,16.0
14.642,-1.666,-0.633,11.0
13.864,-1.577,-0.674,12.0
22.166,-2.519,-0.457,23.0
19.242,-2.185,-0.499,24.0
17.98,-2.04,-0.562,17.0
16.366,-1.856,-0.6,14.0
15.191,-1.721,-0.638,15.0
14.013,-1.587,-0.663,12.0
22.779,-2.578,-0.442,21.0
20.011,-2.263,-0.494,17.0
18.383,-2.077,-0.552,17.0
16.737,-1.889,-0.593,14.0
15.478,-1.746,-0.631,16.0
14.224,-1.603,-0.656,13.0
23.544,-2.652,-0.427,23.0
21.092,-2.374,-0.495,17.0
18.84,-2.118,-0.542,26.0
17.206,-1.933,-0.589,15.0
15.791,-1.772,-0.624,18.0
14.436,-1.619,-0.648,13.0
24.522,-2.749,-0.415,21.0
21.753,-2.436,-0.483,20.0
19.07,-2.133,-0.525,22.0
17.606,-1.968,-0.581,16.0
16.059,-1.793,-0.615,22.0
14.716,-1.642,-0.642,13.0
25.382,-2.83,-0.398,20.0
22.382,-2.492,-0.47,21.0
19.715,-2.193,-0.519,21.0
17.998,-2.0,-0.571,17.0
16.435,-1.824,-0.609,15.0
15.025,-1.666,-0.637,13.0
0.0,0.0,0.0,0.0
23.076,-2.554,-0.456,23.0
20.19,-2.232,-0.507,23.0
18.395,-2.031,-0.561,16.0
17.012,-1.877,-0.61,21.0
15.354,-1.692,-0.632,13.0
28.781,-3.17,-0.381,27.0
23.821,-2.62,-0.442,26.0
21.136,-2.322,-0.505,20.0
18.812,-2.064,-0.551,17.0
17.387,-1.905,-0.602,17.0
15.689,-1.717,-0.627,16.0
30.118,-3.295,-0.362,26.0
24.305,-2.655,-0.422,31.0
21.963,-2.396,-0.498,20.0
19.259,-2.098,-0.541,18.0
17.741,-1.93,-0.593,18.0
16.148,-1.755,-0.626,14.0
0.0,0.0,0.0,0.0
25.196,-2.733,-0.407,18.0
22.13,-2.397,-0.475,18.0
19.89,-2.151,-0.535,17.0
18.126,-1.957,-0.584,22.0
16.342,-1.762,-0.614,14.0
32.875,-3.544,-0.318,28.0
0.0,0.0,0.0,0.0
23.125,-2.485,-0.47,23.0
20.444,-2.194,-0.526,17.0
18.448,-1.976,-0.573,17.0
17.075,-1.827,-0.621,17.0
33.106,-3.54,-0.281,60.0
28.872,-3.082,-0.399,25.0
23.547,-2.51,-0.451,5.0
21.06,-2.241,-0.517,19.0
18.917,-2.01,-0.566,19.0
17.491,-1.855,-0.616,18.0
33.093,-3.509,-0.243,89.0
30.138,-3.19,-0.381,26.0
23.569,-2.49,-0.424,0.0
21.778,-2.297,-0.51,18.0
19.447,-2.048,-0.559,20.0
17.844,-1.876,-0.608,18.0
33.082,-3.476,-0.204,91.0
0.0,0.0,0.0,0.0
27.696,-2.899,-0.466,0.0
22.408,-2.341,-0.499,21.0
20.007,-2.087,-0.552,17.0
18.177,-1.893,-0.598,18.0
33.116,-3.447,-0.167,72.0
0.0,0.0,0.0,0.0
29.246,-3.032,-0.459,3.0
22.916,-2.371,-0.484,19.0
20.657,-2.133,-0.546,18.0
18.515,-1.908,-0.588,17.0
42.744,-4.404,-0.167,18.0
36.012,-3.703,-0.333,12.0
29.264,-3.003,-0.426,9.0
23.486,-2.405,-0.469,25.0
21.273,-2.174,-0.539,20.0
18.916,-1.929,-0.58,17.0
44.643,-4.552,-0.125,20.0
37.326,-3.797,-0.303,16.0
30.136,-3.06,-0.406,26.0
23.543,-2.385,-0.445,17.0
21.821,-2.206,-0.529,21.0
19.271,-1.944,-0.57,18.0
46.387,-4.678,-0.079,21.0
38.59,-3.883,-0.272,14.0
30.732,-3.085,-0.38,13.0
23.585,-2.362,-0.42,1.0
22.178,-2.216,-0.513,19.0
19.892,-1.983,-0.567,21.0
47.887,-4.773,-0.03,23.0
0.0,0.0,0.0,0.0
35.172,-3.489,-0.397,6.0
23.631,-2.339,-0.395,0.0
22.91,-2.262,-0.506,24.0
20.249,-1.995,-0.555,17.0
50.061,-4.929,0.022,24.0
42.471,-4.171,-0.207,18.0
35.702,-3.498,-0.365,13.0
23.707,-2.317,-0.371,4.0
23.491,-2.29,-0.493,20.0
20.593,-2.003,-0.543,20.0
51.236,-4.981,0.076,6.0
44.12,-4.278,-0.17,19.0
36.839,-3.563,-0.339,15.0
29.519,-2.847,-0.432,8.0
23.569,-2.267,-0.471,14.0
21.061,-2.021,-0.533,17.0
71.971,-6.904,0.181,4.0
46.19,-4.419,-0.13,20.0
37.896,-3.616,-0.31,14.0
29.787,-2.834,-0.405,3.0
23.584,-2.238,-0.447,2.0
22.037,-2.085,-0.536,19.0
71.919,-6.804,0.252,2.0
47.802,-4.51,-0.087,21.0
38.8,-3.65,-0.278,14.0
29.863,-2.801,-0.377,11.0
23.625,-2.21,-0.425,0.0
22.623,-2.11,-0.528,19.0
78.271,-7.299,0.351,2.0
0.0,0.0,0.0,0.0
41.19,-3.818,-0.255,16.0
29.851,-2.759,-0.348,2.0
28.07,-2.587,-0.477,27.0
22.757,-2.091,-0.509,15.0
82.864,-7.612,0.452,0.0
51.417,-4.709,0.004,16.0
0.0,0.0,0.0,0.0
35.86,-3.264,-0.384,0.0
28.886,-2.621,-0.464,23.0
23.161,-2.095,-0.496,18.0
85.264,-7.711,0.545,13.0
63.061,-5.685,0.064,1.0
44.651,-4.013,-0.193,19.0
29.995,-2.687,-0.294,2.0
29.546,-2.638,-0.448,17.0
24.525,-2.183,-0.503,21.0
89.322,-7.948,0.651,6.0
57.699,-5.117,0.11,4.0
47.019,-4.157,-0.162,21.0
40.379,-3.558,-0.36,1.0
29.881,-2.624,-0.426,151.0
25.711,-2.251,-0.505,24.0
92.955,-8.133,0.759,3.0
67.738,-5.906,0.189,8.0
0.0,0.0,0.0,0.0
41.796,-3.62,-0.336,3.0
29.875,-2.578,-0.401,18.0
26.619,-2.29,-0.5,24.0
111.93,-9.623,1.01,5.0
83.38,-7.143,0.303,4.0
50.707,-4.329,-0.087,25.0
43.362,-3.688,-0.312,3.0
35.625,-3.019,-0.448,4.0
27.933,-2.359,-0.501,15.0
112.135,-9.465,1.106,8.0
83.582,-7.028,0.374,8.0
51.495,-4.314,-0.045,11.0
44.206,-3.689,-0.282,6.0
0.0,0.0,0.0,0.0
29.072,-2.409,-0.498,8.0
119.114,-9.865,1.27,5.0
85.257,-7.033,0.45,7.0
55.421,-4.554,-0.005,1.0
40.66,-3.328,-0.227,2.0
35.577,-2.901,-0.39,19.0
29.905,-2.429,-0.489,4.0
119.189,-9.676,1.364,14.0
86.9,-7.026,0.525,8.0
61.381,-4.943,0.041,2.0
48.818,-3.916,-0.235,4.0
35.621,-2.846,-0.363,9.0
30.178,-2.401,-0.471,1.0
119.215,-9.48,1.454,17.0
67.894,-5.377,0.461,32.0
67.64,-5.334,0.094,10.0
40.793,-3.204,-0.166,1.0
36.606,-2.863,-0.347,13.0
31.601,-2.462,-0.47,2.0
67.874,-5.284,0.876,91.0
67.868,-5.261,0.509,78.0
67.834,-5.235,0.142,15.0
0.0,0.0,0.0,0.0
39.293,-3.006,-0.345,14.0
33.934,-2.585,-0.481,1.0
119.304,-9.081,1.622,15.0
108.955,-8.257,0.893,6.0
72.245,-5.451,0.201,2.0
45.12,-3.389,-0.122,0.0
40.143,-3.002,-0.325,1.0
38.05,-2.833,-0.514,6.0
20.041,-1.49,0.285,1.0
20.031,-1.483,0.177,15.0
82.274,-6.063,0.283,9.0
48.886,-3.586,-0.1,1.0
41.25,-3.011,-0.308,1.0
0.0,0.0,0.0,0.0
20.02,-1.453,0.298,11.0
20.029,-1.447,0.189,40.0
20.04,-1.441,0.081,1.0
0.0,0.0,0.0,0.0
45.0,-3.205,-0.309,1.0
0.0,0.0,0.0,0.0
20.022,-1.417,0.31,10.0
20.024,-1.411,0.201,6.0
87.358,-6.124,0.405,2.0
20.059,-1.399,-0.017,0.0
20.03,-1.39,-0.126,8.0
20.035,-1.384,-0.234,8.0
119.402,-8.236,1.916,64.0
119.308,-8.186,1.268,15.0
20.027,-1.367,0.104,10.0
20.014,-1.359,-0.006,8.0
20.018,-1.352,-0.115,23.0
20.026,-1.346,-0.223,25.0
19.983,-1.341,0.331,9.0
19.967,-1.333,0.222,21.0
19.983,-1.327,0.114,19.0
19.969,-1.319,0.003,17.0
19.99,-1.313,-0.104,31.0
20.006,-1.307,-0.213,32.0
19.928,-1.3,0.34,18.0
19.968,-1.296,0.232,26.0
19.975,-1.289,0.123,26.0
20.004,-1.284,0.013,25.0
19.994,-1.276,-0.095,29.0
20.02,-1.271,-0.204,29.0
19.923,-1.262,0.349,22.0
19.978,-1.259,0.241,27.0
19.991,-1.252,0.132,27.0
19.995,-1.246,0.022,23.0
20.018,-1.24,-0.086,26.0
20.007,-1.232,-0.195,24.0
19.921,-1.224,0.357,26.0
19.944,-1.218,0.249,25.0
19.976,-1.213,0.141,150.0
19.987,-1.206,0.03,151.0
19.983,-1.199,-0.078,150.0
19.999,-1.192,-0.187,151.0
19.949,-1.187,0.366,23.0
19.948,-1.18,0.257,19.0
20.071,-1.179,0.149,9.0
20.006,-1.168,0.038,1.0
19.987,-1.16,-0.07,0.0
19.985,-1.153,-0.179,0.0
19.957,-1.148,0.373,21.0
19.965,-1.142,0.264,27.0
20.0,-1.136,0.156,19.0
19.986,-1.128,0.044,18.0
20.042,-1.124,-0.064,2.0
0.0,0.0,0.0,0.0
19.953,-1.109,0.38,19.0
19.97,-1.102,0.271,21.0
19.983,-1.096,0.162,19.0
19.982,-1.088,0.051,27.0
19.993,-1.082,-0.058,22.0
20.024,-1.076,-0.167,16.0
19.957,-1.07,0.385,18.0
19.997,-1.064,0.277,24.0
19.979,-1.056,0.167,16.0
19.977,-1.049,0.056,28.0
19.971,-1.041,-0.053,25.0
19.982,-1.035,-0.162,27.0
20.015,-1.033,0.391,13.0
20.08,-1.029,0.283,19.0
20.1,-1.023,0.173,18.0
19.987,-1.009,0.06,16.0
19.979,-1.002,-0.048,23.0
19.978,-0.994,-0.157,32.0
20.141,-0.999,0.398,26.0
20.146,-0.992,0.288,19.0
138.202,-6.755,1.219,18.0
0.0,0.0,0.0,0.0
19.989,-0.962,-0.044,17.0
20.001,-0.955,-0.154,23.0
20.135,-0.958,0.402,18.0
138.124,-6.523,2.0,4.0
138.261,-6.478,1.243,24.0
0.0,0.0,0.0,0.0
66.021,-3.044,-0.137,0.0
20.005,-0.915,-0.151,0.0
192.968,-8.79,3.881,8.0
138.045,-6.235,2.017,93.0
138.087,-6.187,1.26,13.0
0.0,0.0,0.0,0.0
0.0,0.0,0.0,0.0
0.0,0.0,0.0,0.0
193.139,-8.403,3.904,26.0
138.098,-5.956,2.032,94.0
138.059,-5.905,1.272,18.0
0.0,0.0,0.0,0.0
0.0,0.0,0.0,0.0
47.839,-1.992,-0.353,0.0
193.479,-8.019,3.924,19.0
138.133,-5.672,2.041,36.0
138.431,-5.631,1.283,25.0
0.0,0.0,0.0,0.0
0.0,0.0,0.0,0.0
47.716,-1.887,-0.35,0.0
193.565,-7.617,3.931,8.0
138.366,-5.394,2.048,5.0
138.485,-5.347,1.286,23.0
0.0,0.0,0.0,0.0
0.0,0.0,0.0,0.0
0.0,0.0,0.0,0.0
194.597,-7.254,3.95,6.0
138.556,-5.111,2.048,7.0
138.525,-5.06,1.283,23.0
0.0,0.0,0.0,0.0
0.0,0.0,0.0,0.0
0.0,0.0,0.0,0.0
193.748,-6.816,3.924,6.0
138.497,-4.819,2.04,10.0
138.619,-4.771,1.276,28.0
0.0,0.0,0.0,0.0
0.0,0.0,0.0,0.0
47.673,-1.587,-0.355,0.0
193.867,-6.412,3.91,15.0
138.59,-4.533,2.029,7.0
138.643,-4.482,1.263,22.0
0.0,0.0,0.0,0.0
0.0,0.0,0.0,0.0
47.707,-1.489,-0.361,0.0
194.43,-6.023,3.897,18.0
138.658,-4.242,2.011,10.0
138.382,-4.183,1.242,18.0
0.0,0.0,0.0,0.0
0.0,0.0,0.0,0.0
48.121,-1.4,-0.372,0.0
194.996,-5.625,3.876,8.0
138.757,-3.95,1.989,9.0
138.644,-3.897,1.22,23.0
0.0,0.0,0.0,0.0
0.0,0.0,0.0,0.0
48.084,-1.298,-0.381,1.0
195.059,-5.218,3.839,6.0
138.872,-3.662,1.962,4.0
138.835,-3.608,1.192,24.0
0.0,0.0,0.0,0.0
0.0,0.0,0.0,0.0
47.916,-1.192,-0.39,0.0
193.434,-4.761,3.76,19.0
138.893,-3.369,1.929,6.0
138.832,-3.314,1.157,20.0
0.0,0.0,0.0,0.0
0.0,0.0,0.0,0.0
47.24,-1.076,-0.397,0.0
193.416,-4.352,3.706,17.0
0.0,0.0,0.0,0.0
138.957,-3.025,1.118,23.0
0.0,0.0,0.0,0.0
0.0,0.0,0.0,0.0
44.965,-0.929,-0.392,1.0
193.167,-3.941,3.641,23.0
0.0,0.0,0.0,0.0
139.02,-2.733,1.073,22.0
0.0,0.0,0.0,0.0
0.0,0.0,0.0,0.0
45.541,-0.846,-0.413,2.0
193.576,-3.542,3.581,21.0
139.134,-2.494,1.798,3.0
139.09,-2.442,1.023,19.0
0.0,0.0,0.0,0.0
0.0,0.0,0.0,0.0
46.646,-0.768,-0.441,0.0
194.105,-3.141,3.514,12.0
0.0,0.0,0.0,0.0
138.838,-2.147,0.966,22.0
0.0,0.0,0.0,0.0
55.53,-0.818,-0.238,0.0
44.332,-0.636,-0.437,0.0
204.096,-2.869,3.606,21.0
0.0,0.0,0.0,0.0
139.165,-1.857,0.906,12.0
0.0,0.0,0.0,0.0
0.0,0.0,0.0,0.0
0.0,0.0,0.0,0.0
204.199,-2.448,3.515,17.0
119.732,-1.393,1.392,5.0
119.776,-1.35,0.723,22.0
0.0,0.0,0.0,0.0
0.0,0.0,0.0,0.0
0.0,0.0,0.0,0.0
119.749,-1.189,2.002,150.0
119.704,-1.145,1.331,30.0
114.404,-1.055,0.633,4.0
0.0,0.0,0.0,0.0
0.0,0.0,0.0,0.0
0.0,0.0,0.0,0.0
119.786,-0.942,1.938,20.0
119.708,-0.899,1.267,19.0
111.065,-0.796,0.554,6.0
0.0,0.0,0.0,0.0
0.0,0.0,0.0,0.0
0.0,0.0,0.0,0.0
119.845,-0.694,1.87,17.0
119.719,-0.651,1.197,17.0
0.0,0.0,0.0,0.0
0.0,0.0,0.0,0.0
0.0,0.0,0.0,0.0
0.0,0.0,0.0,0.0
119.808,-0.448,1.797,8.0
114.46,-0.387,1.074,26.0
101.24,-0.307,0.382,1.0
0.0,0.0,0.0,0.0
47.274,-0.111,-0.356,0.0
39.199,-0.078,-0.515,0.0
117.4,-0.194,1.684,15.0
117.31,-0.156,1.024,11.0
97.54,-0.095,0.304,1.0
0.0,0.0,0.0,0.0
45.766,-0.014,-0.375,1.0
37.107,0.0,-0.512,0.0
111.115,0.04,1.518,15.0
110.952,0.077,0.893,8.0
0.0,0.0,0.0,0.0
0.0,0.0,0.0,0.0
44.722,0.077,-0.398,0.0
36.355,0.075,-0.528,0.0
111.302,0.267,1.44,13.0
110.841,0.302,0.811,9.0
0.0,0.0,0.0,0.0
0.0,0.0,0.0,0.0
42.934,0.16,-0.414,0.0
35.1,0.143,-0.536,0.0
111.067,0.489,1.354,29.0
104.555,0.495,0.686,10.0
0.0,0.0,0.0,0.0
55.024,0.296,-0.263,0.0
42.642,0.244,-0.444,1.0
34.22,0.207,-0.549,0.0
101.125,0.647,1.153,3.0
97.834,0.659,0.564,8.0
0.0,0.0,0.0,0.0
52.78,0.39,-0.295,0.0
42.832,0.331,-0.481,0.0
33.23,0.267,-0.56,0.0
104.767,0.88,1.108,19.0
97.827,0.855,0.482,4.0
0.0,0.0,0.0,0.0
49.383,0.462,-0.317,0.0
40.981,0.397,-0.494,0.0
0.0,0.0,0.0,0.0
98.528,1.022,0.957,20.0
85.44,0.913,0.348,9.0
0.0,0.0,0.0,0.0
0.0,0.0,0.0,0.0
0.0,0.0,0.0,0.0
31.368,0.375,-0.583,0.0
98.493,1.214,0.869,23.0
81.038,1.024,0.258,5.0
0.0,0.0,0.0,0.0
47.008,0.623,-0.385,0.0
0.0,0.0,0.0,0.0
0.0,0.0,0.0,0.0
92.132,1.312,0.728,16.0
80.884,1.178,0.182,2.0
51.272,0.762,-0.173,0.0
0.0,0.0,0.0,0.0
35.554,0.55,-0.526,0.0
29.887,0.472,-0.611,0.0
91.809,1.482,0.639,16.0
73.8,1.214,0.096,4.0
0.0,0.0,0.0,0.0
41.726,0.712,-0.421,0.0
0.0,0.0,0.0,0.0
28.893,0.511,-0.619,0.0
85.21,1.538,0.508,9.0
71.924,1.32,0.022,3.0
0.0,0.0,0.0,0.0
0.0,0.0,0.0,0.0
33.521,0.645,-0.562,0.0
28.169,0.55,-0.631,0.0
72.25,1.438,0.358,3.0
70.021,1.414,-0.048,1.0
0.0,0.0,0.0,0.0
39.78,0.827,-0.482,0.0
0.0,0.0,0.0,0.0
27.417,0.586,-0.643,0.0
72.057,1.566,0.282,8.0
0.0,0.0,0.0,0.0
48.717,1.088,-0.361,2.0
0.0,0.0,0.0,0.0
31.417,0.72,-0.592,0.0
26.498,0.615,-0.65,0.0
71.843,1.694,0.203,15.0
66.116,1.577,-0.186,0.0
0.0,0.0,0.0,0.0
36.098,0.882,-0.515,0.0
28.628,0.707,-0.571,0.0
25.824,0.646,-0.661,0.0
0.0,0.0,0.0,0.0
55.134,1.415,-0.217,0.0
43.917,1.14,-0.422,0.0
34.631,0.908,-0.533,0.0
28.648,0.76,-0.604,1.0
25.206,0.676,-0.674,0.0
65.209,1.772,0.037,7.0
57.163,1.57,-0.291,4.0
0.0,0.0,0.0,0.0
33.855,0.948,-0.56,0.0
28.526,0.807,-0.634,1.0
24.219,0.692,-0.676,0.0
62.922,1.82,-0.036,4.0
0.0,0.0,0.0,0.0
38.883,1.147,-0.465,0.0
31.641,0.941,-0.561,0.0
28.255,0.849,-0.662,0.0
23.578,0.715,-0.686,0.0
61.573,1.888,-0.109,6.0
0.0,0.0,0.0,0.0
0.0,0.0,0.0,0.0
0.0,0.0,0.0,0.0
26.307,0.835,-0.648,0.0
23.392,0.749,-0.71,0.0
60.31,1.952,-0.181,5.0
45.575,1.488,-0.396,1.0
36.06,1.186,-0.519,0.0
30.159,1.0,-0.608,0.0
25.556,0.854,-0.661,0.0
22.417,0.755,-0.708,0.0
54.332,1.849,-0.23,1.0
0.0,0.0,0.0,0.0
0.0,0.0,0.0,0.0
28.513,0.992,-0.611,0.0
24.748,0.868,-0.671,0.0
21.894,0.773,-0.719,0.0
52.846,1.885,-0.291,0.0
40.223,1.445,-0.451,0.0
0.0,0.0,0.0,0.0
27.829,1.014,-0.632,0.0
24.145,0.886,-0.686,0.0
21.407,0.791,-0.73,0.0
48.162,1.795,-0.328,1.0
0.0,0.0,0.0,0.0
31.661,1.196,-0.576,0.0
26.775,1.018,-0.643,0.0
23.415,0.896,-0.696,0.0
20.649,0.796,-0.732,0.0
44.778,1.74,-0.364,1.0
35.941,1.405,-0.497,0.0
30.184,1.188,-0.59,0.0
25.965,1.028,-0.658,0.0
22.679,0.904,-0.704,0.0
20.154,0.808,-0.741,0.0
44.685,1.806,-0.423,1.0
34.799,1.415,-0.529,0.0
29.136,1.192,-0.609,0.0
25.018,1.029,-0.668,0.0
21.903,0.906,-0.71,0.0
19.753,0.822,-0.753,0.0
40.858,1.713,-0.442,0.0
33.141,1.397,-0.548,0.0
27.814,1.179,-0.619,0.0
24.091,1.027,-0.676,0.0
21.411,0.918,-0.724,0.0
19.066,0.822,-0.754,0.0
38.522,1.673,-0.471,0.0
31.813,1.389,-0.571,0.0
0.0,0.0,0.0,0.0
23.173,1.022,-0.683,0.0
20.695,0.918,-0.729,0.0
18.596,0.829,-0.761,0.0
0.0,0.0,0.0,0.0
30.697,1.384,-0.594,0.0
26.094,1.183,-0.655,0.0
22.623,1.031,-0.699,0.0
20.169,0.923,-0.739,0.0
18.081,0.832,-0.766,0.0
34.673,1.605,-0.523,0.0
29.304,1.363,-0.609,0.0
24.997,1.168,-0.663,0.0
22.016,1.034,-0.712,0.0
19.521,0.921,-0.743,0.0
17.651,0.836,-0.773,0.0
32.96,1.571,-0.544,0.0
27.842,1.333,-0.619,0.0
23.979,1.153,-0.67,0.0
21.249,1.026,-0.718,0.0
19.098,0.927,-0.755,0.0
17.214,0.839,-0.779,0.0
31.588,1.548,-0.568,0.0
27.004,1.329,-0.64,0.0
23.523,1.163,-0.692,0.0
20.486,1.017,-0.722,0.0
18.628,0.929,-0.764,0.0
16.863,0.844,-0.788,0.0
30.309,1.526,-0.59,0.0
26.016,1.314,-0.655,0.0
22.595,1.146,-0.699,0.0
20.034,1.02,-0.736,0.0
17.97,0.919,-0.764,0.0
16.446,0.844,-0.793,0.0
28.846,1.488,-0.604,0.0
24.92,1.291,-0.665,0.0
21.941,1.141,-0.711,0.0
19.419,1.013,-0.743,0.0
17.622,0.923,-0.775,0.0
16.086,0.846,-0.8,0.0
0.0,0.0,0.0,0.0
24.258,1.286,-0.684,0.0
21.221,1.129,-0.72,0.0
18.906,1.01,-0.752,0.0
17.144,0.919,-0.781,0.0
15.728,0.846,-0.807,0.0
26.466,1.43,-0.635,0.0
23.037,1.249,-0.685,0.0
20.451,1.113,-0.725,0.0
18.401,1.005,-0.76,0.0
16.677,0.914,-0.785,0.0
15.288,0.84,-0.807,0.0
25.433,1.404,-0.649,0.0
22.383,1.239,-0.699,0.0
19.85,1.102,-0.734,0.0
17.901,0.998,-0.767,0.0
16.321,0.912,-0.793,0.0
14.955,0.839,-0.813,0.0
24.704,1.391,-0.668,0.0
21.679,1.224,-0.711,0.0
19.418,1.1,-0.748,0.0
17.417,0.99,-0.773,0.0
15.833,0.903,-0.794,0.0
14.645,0.838,-0.819,0.0
23.944,1.374,-0.685,0.0
20.969,1.206,-0.72,0.0
18.601,1.074,-0.746,0.0
16.973,0.983,-0.78,0.0
15.626,0.907,-0.808,0.0
14.331,0.835,-0.824,0.0
23.002,1.344,-0.694,0.0
20.348,1.192,-0.731,0.0
18.183,1.068,-0.758,0.0
16.575,0.976,-0.788,0.0
15.136,0.894,-0.807,0.0
14.052,0.833,-0.83,0.0
22.22,1.32,-0.706,0.0
19.676,1.172,-0.738,0.0
17.817,1.064,-0.771,0.0
16.188,0.97,-0.795,0.0
14.913,0.896,-0.819,0.0
13.748,0.828,-0.834,0.0
21.358,1.29,-0.712,0.0
19.17,1.161,-0.75,0.0
17.264,1.048,-0.774,0.0
15.737,0.958,-0.798,0.0
14.479,0.883,-0.818,0.0
13.556,0.829,-0.844,0.0
20.579,1.262,-0.719,0.0
18.532,1.139,-0.754,0.0
16.878,1.04,-0.784,0.0
15.284,0.944,-0.8,0.0
14.25,0.882,-0.828,0.0
13.176,0.818,-0.842,0.0
20.048,1.247,-0.733,0.0
17.969,1.12,-0.76,0.0
16.446,1.027,-0.791,0.0
15.096,0.945,-0.814,0.0
13.916,0.874,-0.831,0.0
12.905,0.812,-0.845,0.0
19.587,1.234,-0.747,0.0
17.526,1.107,-0.77,0.0
15.933,1.008,-0.791,0.0
14.669,0.931,-0.815,0.0
13.614,0.866,-0.835,0.0
12.657,0.807,-0.849,0.0
18.77,1.198,-0.746,0.0
17.086,1.093,-0.777,0.0
15.566,0.997,-0.798,0.0
14.335,0.921,-0.819,0.0
13.322,0.857,-0.838,0.0
12.339,0.796,-0.848,0.0
18.216,1.176,-0.753,0.0
16.67,1.078,-0.785,0.0
15.247,0.988,-0.806,0.0
14.085,0.915,-0.827,0.0
13.125,0.854,-0.847,0.0
12.142,0.792,-0.854,0.0
17.89,1.168,-0.768,0.0
16.46,1.076,-0.802,0.0
14.934,0.979,-0.814,0.0
13.775,0.904,-0.832,0.0
12.858,0.846,-0.851,0.0
11.855,0.781,-0.853,0.0
17.34,1.144,-0.773,0.0
15.804,1.044,-0.795,0.0
14.582,0.965,-0.818,0.0
13.455,0.892,-0.834,0.0
12.534,0.833,-0.849,0.0
11.629,0.774,-0.855,0.0
16.999,1.132,-0.785,0.0
15.387,1.026,-0.799,0.0
14.29,0.954,-0.825,0.0
13.133,0.879,-0.835,0.0
12.242,0.821,-0.849,0.0
11.398,0.765,-0.857,0.0
16.448,1.105,-0.786,0.0
15.104,1.016,-0.809,0.0
13.933,0.939,-0.827,0.0
12.973,0.876,-0.846,0.0
11.963,0.809,-0.849,0.0
11.208,0.759,-0.861,0.0
16.119,1.091,-0.796,0.0
14.704,0.997,-0.811,0.0
13.644,0.926,-0.831,0.0
12.69,0.863,-0.848,0.0
11.756,0.801,-0.854,0.0
11.024,0.752,-0.864,0.0
15.619,1.065,-0.796,0.0
14.428,0.985,-0.819,0.0
13.412,0.917,-0.839,0.0
12.363,0.847,-0.846,0.0
11.524,0.791,-0.855,0.0
10.853,0.746,-0.869,0.0
15.23,1.046,-0.801,0.0
14.106,0.97,-0.823,0.0
13.062,0.899,-0.838,0.0
12.104,0.834,-0.848,0.0
11.335,0.782,-0.86,0.0
10.695,0.739,-0.873,0.0
14.915,1.03,-0.808,0.0
13.823,0.956,-0.829,0.0
12.845,0.889,-0.844,0.0
11.874,0.823,-0.851,0.0
11.127,0.772,-0.862,0.0
10.538,0.733,-0.877,0.0
14.57,1.012,-0.813,0.0
13.597,0.945,-0.837,0.0
12.601,0.877,-0.848,0.0
11.664,0.813,-0.854,0.0
10.944,0.764,-0.865,0.0
10.352,0.723,-0.878,0.0
14.272,0.996,-0.819,0.0
13.319,0.93,-0.841,0.0
12.288,0.859,-0.847,0.0
11.453,0.802,-0.857,0.0
10.774,0.755,-0.868,0.0
10.203,0.716,-0.882,0.0
14.014,0.982,-0.826,0.0
12.98,0.91,-0.84,0.0
12.044,0.845,-0.849,0.0
11.253,0.791,-0.859,0.0
10.621,0.747,-0.873,0.0
10.086,0.71,-0.887,0.0
13.691,0.963,-0.828,0.0
12.688,0.893,-0.841,0.0
11.791,0.83,-0.849,0.0
11.057,0.78,-0.862,0.0
10.476,0.739,-0.877,0.0
9.94,0.702,-0.89,0.0
13.448,0.948,-0.834,0.0
12.48,0.881,-0.846,0.0
11.571,0.817,-0.851,0.0
10.908,0.771,-0.867,0.0
10.322,0.73,-0.88,0.0
9.836,0.697,-0.896,0.0
13.199,0.933,-0.839,0.0
12.243,0.866,-0.849,0.0
11.376,0.805,-0.854,0.0
10.718,0.759,-0.868,0.0
10.194,0.723,-0.885,0.0
9.691,0.688,-0.898,0.0
12.985,0.919,-0.845,0.0
11.931,0.845,-0.845,0.0
11.198,0.794,-0.858,0.0
10.554,0.749,-0.871,0.0
10.095,0.717,-0.892,0.0
9.585,0.681,-0.902,0.0
12.656,0.897,-0.842,0.0
11.741,0.833,-0.849,0.0
11.04,0.783,-0.862,0.0
10.424,0.74,-0.876,0.0
9.952,0.707,-0.894,0.0
9.486,0.674,-0.907,0.0
12.412,0.88,-0.845,0.0
11.534,0.818,-0.852,0.0
10.851,0.77,-0.864,0.0
10.288,0.731,-0.88,0.0
9.8,0.696,-0.895,0.0
9.344,0.664,-0.908,0.0
12.165,0.862,-0.846,0.0
11.338,0.804,-0.854,0.0
10.684,0.758,-0.867,0.0
10.173,0.722,-0.885,0.0
9.67,0.687,-0.898,0.0
9.209,0.654,-0.908,0.0
11.895,0.843,-0.845,0.0
11.193,0.793,-0.86,0.0
10.563,0.749,-0.872,0.0
10.037,0.712,-0.888,0.0
9.555,0.678,-0.901,0.0
9.118,0.647,-0.913,0.0
11.714,0.829,-0.849,0.0
11.004,0.779,-0.861,0.0
10.431,0.738,-0.876,0.0
9.854,0.698,-0.886,0.0
9.411,0.667,-0.901,0.0
8.972,0.636,-0.911,0.0
11.512,0.813,-0.85,0.0
10.806,0.763,-0.861,0.0
10.306,0.728,-0.88,0.0
9.749,0.689,-0.89,0.0
9.321,0.659,-0.905,0.0
8.876,0.628,-0.914,0.0
11.326,0.798,-0.852,0.0
10.727,0.756,-0.869,0.0
10.162,0.716,-0.882,0.0
9.677,0.682,-0.897,0.0
9.214,0.65,-0.908,0.0
8.754,0.617,-0.913,0.0
11.177,0.785,-0.856,0.0
10.55,0.741,-0.869,0.0
10.032,0.705,-0.885,0.0
9.575,0.673,-0.901,0.0
9.094,0.639,-0.908,0.0
8.702,0.612,-0.92,0.0
11.016,0.771,-0.859,0.0
10.425,0.73,-0.873,0.0
9.919,0.694,-0.888,0.0
9.402,0.658,-0.897,0.0
9.017,0.631,-0.913,0.0
8.571,0.6,-0.918,0.0
10.865,0.758,-0.862,0.0
10.293,0.718,-0.876,0.0
9.808,0.684,-0.891,0.0
0.0,0.0,0.0,0.0
8.941,0.623,-0.917,0.0
8.51,0.593,-0.922,0.0
10.756,0.747,-0.867,0.0
10.191,0.707,-0.88,0.0
9.676,0.671,-0.892,0.0
0.0,0.0,0.0,0.0
8.804,0.611,-0.914,0.0
8.389,0.582,-0.92,0.0
10.62,0.733,-0.869,0.0
10.11,0.698,-0.886,0.0
9.652,0.666,-0.902,0.0
9.115,0.629,-0.905,0.0
8.73,0.602,-0.918,0.0
8.344,0.575,-0.926,0.0
10.494,0.72,-0.872,0.0
9.973,0.684,-0.887,0.0
9.488,0.651,-0.898,0.0
9.046,0.62,-0.91,0.0
8.609,0.59,-0.916,0.0
8.265,0.567,-0.927,0.0
10.357,0.707,-0.874,0.0
9.885,0.674,-0.891,0.0
9.419,0.642,-0.903,0.0
9.004,0.613,-0.917,0.0
8.545,0.582,-0.92,0.0
8.199,0.558,-0.93,0.0
10.281,0.696,-0.88,0.0
9.813,0.664,-0.896,0.0
9.287,0.628,-0.902,0.0
8.9,0.602,-0.917,0.0
8.484,0.574,-0.923,0.0
8.104,0.548,-0.929,0.0
10.16,0.683,-0.881,0.0
9.648,0.648,-0.892,0.0
0.0,0.0,0.0,0.0
0.0,0.0,0.0,0.0
8.415,0.565,-0.925,0.0
7.998,0.536,-0.926,0.0
10.095,0.673,-0.887,0.0
9.578,0.638,-0.897,0.0
9.147,0.609,-0.909,0.0
8.622,0.574,-0.908,0.0
8.324,0.554,-0.924,0.0
7.954,0.529,-0.93,0.0
9.956,0.659,-0.886,0.0
9.558,0.632,-0.905,0.0
9.101,0.601,-0.914,0.0
8.65,0.571,-0.92,0.0
8.279,0.546,-0.928,0.0
7.945,0.524,-0.937,0.0
9.897,0.649,-0.891,0.0
9.39,0.615,-0.899,0.0
9.0,0.589,-0.914,0.0
0.0,0.0,0.0,0.0
8.166,0.533,-0.925,0.0
7.838,0.512,-0.933,0.0
9.805,0.636,-0.893,0.0
9.36,0.607,-0.906,0.0
8.933,0.579,-0.916,0.0
0.0,0.0,0.0,0.0
8.121,0.525,-0.928,0.0
7.715,0.498,-0.926,0.0
9.715,0.624,-0.895,0.0
9.261,0.594,-0.906,0.0
8.789,0.563,-0.911,0.0
0.0,0.0,0.0,0.0
8.057,0.515,-0.929,0.0
7.704,0.492,-0.933,0.0
9.665,0.614,-0.9,0.0
9.253,0.587,-0.914,0.0
8.757,0.555,-0.916,0.0
0.0,0.0,0.0,0.0
8.008,0.507,-0.931,0.0
7.702,0.487,-0.94,0.0
9.548,0.6,-0.898,0.0
9.157,0.574,-0.913,0.0
8.663,0.543,-0.914,0.0
0.0,0.0,0.0,0.0
7.945,0.497,-0.931,0.0
7.626,0.476,-0.938,0.0
9.499,0.589,-0.902,0.0
9.044,0.56,-0.91,0.0
8.616,0.533,-0.917,0.0
8.279,0.512,-0.929,0.0
7.919,0.489,-0.935,0.0
7.595,0.468,-0.941,0.0
9.395,0.575,-0.9,0.0
8.947,0.547,-0.908,0.0
8.572,0.524,-0.919,0.0
0.0,0.0,0.0,0.0
7.853,0.478,-0.934,0.0
7.55,0.459,-0.941,0.0
9.329,0.564,-0.901,0.0
8.954,0.54,-0.916,0.0
8.449,0.509,-0.913,0.0
8.142,0.49,-0.928,0.0
7.816,0.469,-0.936,0.0
7.514,0.451,-0.943,0.0
9.32,0.555,-0.908,0.0
8.88,0.528,-0.916,0.0
8.539,0.507,-0.93,0.0
8.078,0.479,-0.927,0.0
7.811,0.463,-0.941,0.0
7.425,0.439,-0.938,0.0
9.253,0.543,-0.908,0.0
8.764,0.514,-0.91,0.0
8.396,0.491,-0.92,0.0
8.063,0.471,-0.931,0.0
7.736,0.451,-0.938,0.0
7.42,0.432,-0.942,0.0
9.129,0.528,-0.903,0.0
8.722,0.504,-0.912,0.0
8.336,0.48,-0.92,0.0
0.0,0.0,0.0,0.0
0.0,0.0,0.0,0.0
7.382,0.423,-0.943,0.0
9.096,0.518,-0.905,0.0
8.721,0.495,-0.918,0.0
8.287,0.47,-0.92,0.0
7.979,0.452,-0.932,0.0
7.647,0.432,-0.937,0.0
7.374,0.416,-0.947,0.0
9.066,0.508,-0.908,0.0
8.724,0.487,-0.924,0.0
8.319,0.464,-0.929,0.0
7.851,0.437,-0.922,0.0
7.639,0.424,-0.941,0.0
7.282,0.403,-0.939,0.0
9.009,0.496,-0.908,0.0
8.657,0.475,-0.922,0.0
8.248,0.452,-0.926,0.0
7.874,0.43,-0.93,0.0
7.638,0.416,-0.946,0.0
7.286,0.396,-0.944,0.0
8.984,0.485,-0.911,0.0
8.588,0.463,-0.919,0.0
8.225,0.442,-0.928,0.0
7.829,0.42,-0.929,0.0
7.553,0.404,-0.939,0.0
7.252,0.387,-0.943,0.0
8.963,0.475,-0.913,0.0
8.552,0.452,-0.92,0.0
8.167,0.431,-0.925,0.0
0.0,0.0,0.0,0.0
7.479,0.393,-0.934,0.0
0.0,0.0,0.0,0.0
8.919,0.464,-0.913,0.0
8.515,0.442,-0.92,0.0
8.14,0.421,-0.926,0.0
0.0,0.0,0.0,0.0
7.496,0.386,-0.939,0.0
0.0,0.0,0.0,0.0
8.879,0.452,-0.913,0.0
8.422,0.428,-0.913,0.0
8.12,0.411,-0.927,0.0
7.741,0.391,-0.929,0.0
7.52,0.379,-0.945,0.0
0.0,0.0,0.0,0.0
8.84,0.441,-0.912,0.0
8.487,0.422,-0.924,0.0
8.165,0.405,-0.935,0.0
0.0,0.0,0.0,0.0
7.492,0.37,-0.944,0.0
0.0,0.0,0.0,0.0
8.831,0.431,-0.914,0.0
8.459,0.411,-0.924,0.0
8.105,0.393,-0.931,0.0
7.694,0.372,-0.928,0.0
7.44,0.359,-0.94,0.0
0.0,0.0,0.0,0.0
8.81,0.42,-0.915,0.0
8.413,0.4,-0.921,0.0
8.097,0.384,-0.933,0.0
7.716,0.364,-0.933,0.0
7.418,0.349,-0.94,0.0
0.0,0.0,0.0,0.0
8.783,0.409,-0.914,0.0
8.376,0.389,-0.919,0.0
8.041,0.372,-0.928,0.0
7.735,0.357,-0.937,0.0
7.446,0.342,-0.945,0.0
7.173,0.329,-0.951,0.0
8.788,0.399,-0.917,0.0
8.401,0.38,-0.924,0.0
8.024,0.362,-0.928,0.0
7.706,0.346,-0.936,0.0
7.399,0.331,-0.94,0.0
7.139,0.319,-0.948,0.0
8.77,0.388,-0.916,0.0
8.334,0.368,-0.918,0.0
8.072,0.355,-0.934,0.0
7.709,0.338,-0.937,0.0
7.382,0.322,-0.939,0.0
7.096,0.309,-0.943,0.0
8.768,0.378,-0.917,0.0
8.385,0.36,-0.924,0.0
8.051,0.345,-0.933,0.0
7.699,0.328,-0.937,0.0
7.422,0.315,-0.945,0.0
0.0,0.0,0.0,0.0
8.732,0.367,-0.914,0.0
8.367,0.35,-0.923,0.0
8.066,0.336,-0.935,0.0
7.691,0.319,-0.936,0.0
7.383,0.305,-0.941,0.0
7.086,0.292,-0.943,0.0
8.717,0.356,-0.913,0.0
8.341,0.339,-0.92,0.0
8.008,0.324,-0.929,0.0
7.692,0.31,-0.936,0.0
7.384,0.296,-0.941,0.0
7.093,0.283,-0.944,0.0
8.759,0.347,-0.917,0.0
8.363,0.33,-0.923,0.0
8.0,0.314,-0.928,0.0
7.642,0.299,-0.93,0.0
7.394,0.288,-0.942,0.0
7.102,0.275,-0.945,0.0
8.728,0.336,-0.913,0.0
8.371,0.32,-0.923,0.0
8.037,0.306,-0.931,0.0
7.701,0.292,-0.937,0.0
7.335,0.277,-0.934,0.0
7.071,0.266,-0.94,0.0
8.725,0.325,-0.912,0.0
8.354,0.31,-0.92,0.0
7.949,0.293,-0.92,0.0
7.657,0.281,-0.93,0.0
7.412,0.271,-0.942,0.0
7.074,0.257,-0.939,0.0
8.76,0.316,-0.914,0.0
8.356,0.3,-0.919,0.0
8.04,0.287,-0.929,0.0
7.731,0.275,-0.938,0.0
7.448,0.263,-0.946,0.0
7.136,0.251,-0.946,0.0
8.799,0.307,-0.917,0.0
8.387,0.291,-0.921,0.0
8.065,0.278,-0.931,0.0
0.0,0.0,0.0,0.0
7.451,0.254,-0.944,0.0
7.112,0.241,-0.941,0.0
8.817,0.297,-0.917,0.0
8.393,0.281,-0.919,0.0
8.082,0.269,-0.931,0.0
0.0,0.0,0.0,0.0
7.473,0.246,-0.945,0.0
7.155,0.234,-0.945,0.0
8.794,0.285,-0.912,0.0
8.446,0.272,-0.923,0.0
8.094,0.26,-0.929,0.0
0.0,0.0,0.0,0.0
7.467,0.237,-0.942,0.0
7.193,0.227,-0.948,0.0
8.877,0.277,-0.917,0.0
8.456,0.262,-0.921,0.0
8.135,0.251,-0.931,0.0
0.0,0.0,0.0,0.0
7.477,0.228,-0.941,0.0
0.0,0.0,0.0,0.0
8.88,0.267,-0.914,0.0
8.495,0.253,-0.922,0.0
8.133,0.241,-0.928,0.0
0.0,0.0,0.0,0.0
7.562,0.221,-0.948,0.0
7.26,0.211,-0.951,0.0
8.915,0.257,-0.914,0.0
8.508,0.244,-0.92,0.0
8.194,0.233,-0.931,0.0
7.833,0.221,-0.935,0.0
7.534,0.211,-0.941,0.0
0.0,0.0,0.0,0.0
8.902,0.246,-0.909,0.0
8.513,0.233,-0.916,0.0
8.196,0.223,-0.928,0.0
7.862,0.213,-0.934,0.0
7.553,0.203,-0.94,0.0
7.252,0.193,-0.943,0.0
8.962,0.237,-0.91,0.0
8.522,0.223,-0.913,0.0
8.203,0.213,-0.924,0.0
0.0,0.0,0.0,0.0
7.546,0.193,-0.935,0.0
7.273,0.185,-0.942,0.0
8.986,0.227,-0.908,0.0
8.658,0.217,-0.922,0.0
8.306,0.206,-0.931,0.0
0.0,0.0,0.0,0.0
7.625,0.186,-0.94,0.0
7.354,0.178,-0.948,0.0
9.076,0.218,-0.912,0.0
8.7,0.207,-0.922,0.0
8.268,0.195,-0.922,0.0
0.0,0.0,0.0,0.0
7.63,0.177,-0.936,0.0
7.347,0.169,-0.942,0.0
9.089,0.208,-0.907,0.0
8.761,0.198,-0.922,0.0
8.337,0.187,-0.924,0.0
0.0,0.0,0.0,0.0
7.672,0.169,-0.936,0.0
7.423,0.162,-0.947,0.0
9.182,0.199,-0.91,0.0
8.816,0.189,-0.922,0.0
8.429,0.179,-0.928,0.0
0.0,0.0,0.0,0.0
7.763,0.162,-0.941,0.0
7.421,0.153,-0.941,0.0
9.214,0.189,-0.906,0.0
8.809,0.179,-0.915,0.0
8.415,0.169,-0.92,0.0
8.077,0.161,-0.928,0.0
7.759,0.153,-0.935,0.0
7.471,0.146,-0.941,0.0
9.274,0.179,-0.905,0.0
8.834,0.169,-0.91,0.0
8.45,0.16,-0.917,0.0
0.0,0.0,0.0,0.0
7.814,0.145,-0.935,0.0
7.516,0.138,-0.941,0.0
9.388,0.171,-0.908,0.0
8.955,0.161,-0.915,0.0
8.606,0.153,-0.927,0.0
0.0,0.0,0.0,0.0
7.861,0.136,-0.934,0.0
7.537,0.129,-0.937,0.0
9.434,0.161,-0.904,0.0
8.995,0.151,-0.911,0.0
0.0,0.0,0.0,0.0
0.0,0.0,0.0,0.0
7.965,0.129,-0.939,0.0
7.616,0.122,-0.94,0.0
9.504,0.151,-0.903,0.0
9.065,0.142,-0.91,0.0
8.622,0.133,-0.913,0.0
8.337,0.127,-0.929,0.0
8.017,0.121,-0.937,0.0
7.664,0.114,-0.938,0.0
9.609,0.142,-0.903,0.0
9.192,0.134,-0.914,0.0
8.756,0.126,-0.919,0.0
8.355,0.118,-0.923,0.0
8.029,0.112,-0.931,0.0
7.742,0.107,-0.94,0.0
9.69,0.133,-0.901,0.0
9.277,0.125,-0.913,0.0
8.882,0.118,-0.923,0.0
8.38,0.11,-0.917,0.0
8.112,0.105,-0.932,0.0
7.8,0.099,-0.939,0.0
9.771,0.123,-0.899,0.0
9.331,0.116,-0.909,0.0
8.878,0.108,-0.913,0.0
8.447,0.101,-0.915,0.0
8.146,0.096,-0.927,0.0
7.833,0.091,-0.934,0.0
9.839,0.113,-0.894,0.0
9.417,0.107,-0.907,0.0
9.024,0.101,-0.918,0.0
0.0,0.0,0.0,0.0
8.216,0.088,-0.926,0.0
7.908,0.083,-0.934,0.0
9.922,0.104,-0.891,0.0
9.542,0.098,-0.908,0.0
9.051,0.091,-0.911,0.0
8.679,0.086,-0.921,0.0
8.321,0.081,-0.928,0.0
7.998,0.076,-0.936,0.0
10.027,0.095,-0.889,0.0
9.615,0.089,-0.904,0.0
9.13,0.083,-0.908,0.0
0.0,0.0,0.0,0.0
8.416,0.073,-0.929,0.0
8.033,0.068,-0.93,0.0
10.153,0.086,-0.888,0.0
9.712,0.08,-0.902,0.0
9.244,0.075,-0.908,0.0
8.842,0.07,-0.917,0.0
8.471,0.065,-0.925,0.0
8.127,0.061,-0.931,0.0
10.246,0.076,-0.884,0.0
9.791,0.071,-0.897,0.0
9.298,0.066,-0.902,0.0
8.904,0.061,-0.913,0.0
8.59,0.058,-0.927,0.0
8.253,0.054,-0.935,0.0
10.348,0.067,-0.879,0.0
9.873,0.062,-0.892,0.0
9.447,0.058,-0.904,0.0
9.057,0.054,-0.916,0.0
8.694,0.05,-0.927,0.0
8.287,0.046,-0.928,0.0
10.446,0.058,-0.874,0.0
10.025,0.054,-0.892,0.0
9.644,0.05,-0.91,0.0
9.121,0.046,-0.911,0.0
8.768,0.042,-0.923,0.0
8.361,0.039,-0.925,0.0
10.632,0.049,-0.875,0.0
10.142,0.045,-0.889,0.0
9.721,0.041,-0.904,0.0
9.202,0.038,-0.906,0.0
8.875,0.035,-0.922,0.0
8.492,0.032,-0.928,0.0
10.766,0.04,-0.871,0.0
10.269,0.036,-0.886,0.0
9.809,0.033,-0.899,0.0
9.351,0.03,-0.908,0.0
8.981,0.027,-0.92,0.0
8.546,0.024,-0.921,0.0
10.953,0.031,-0.871,0.0
10.361,0.027,-0.879,0.0
9.985,0.025,-0.9,0.0
9.493,0.022,-0.908,0.0
9.069,0.019,-0.916,0.0
8.731,0.017,-0.928,0.0
11.106,0.022,-0.867,0.0
10.501,0.019,-0.876,0.0
10.048,0.016,-0.891,0.0
9.613,0.014,-0.905,0.0
9.147,0.012,-0.91,0.0
8.763,0.01,-0.919,0.0
11.284,0.013,-0.864,0.0
10.693,0.01,-0.876,0.0
10.215,0.008,-0.891,0.0
9.74,0.006,-0.902,0.0
9.309,0.004,-0.912,0.0
8.904,0.003,-0.92,0.0
11.43,0.004,-0.858,0.0
10.823,0.002,-0.87,0.0
10.325,0.0,-0.884,0.0
9.858,0.0,-0.898,0.0
9.403,-0.002,-0.906,0.0
8.989,-0.003,-0.915,0.0
11.604,-0.004,-0.853,0.0
11.009,-0.006,-0.867,0.0
10.466,-0.007,-0.88,0.0
9.938,-0.008,-0.889,0.0
9.552,-0.009,-0.906,0.0
9.166,-0.01,-0.918,0.0
11.82,-0.013,-0.85,0.0
11.221,-0.014,-0.866,0.0
10.574,-0.015,-0.872,0.0
10.139,-0.016,-0.891,0.0
9.723,-0.017,-0.906,0.0
9.27,-0.017,-0.913,0.0
12.084,-0.022,-0.85,0.0
11.373,-0.022,-0.86,0.0
10.799,-0.023,-0.873,0.0
10.267,-0.023,-0.886,0.0
9.856,-0.024,-0.902,0.0
9.353,-0.024,-0.906,0.0
12.338,-0.031,-0.847,0.0
11.586,-0.031,-0.857,0.0
10.982,-0.031,-0.87,0.0
10.418,-0.031,-0.881,0.0
9.975,-0.031,-0.897,0.0
9.566,-0.031,-0.911,0.0
12.716,-0.04,-0.852,0.0
11.773,-0.039,-0.851,0.0
11.147,-0.038,-0.864,0.0
10.561,-0.038,-0.876,0.0
10.136,-0.038,-0.894,0.0
9.659,-0.037,-0.903,0.0
12.948,-0.049,-0.846,0.0
12.072,-0.048,-0.852,0.0
11.372,-0.046,-0.862,0.0
10.793,-0.045,-0.876,0.0
10.292,-0.044,-0.89,0.0
9.83,-0.044,-0.902,0.0
13.31,-0.059,-0.846,0.0
12.346,-0.056,-0.85,0.0
11.565,-0.054,-0.857,0.0
10.94,-0.052,-0.869,0.0
10.428,-0.051,-0.884,0.0
9.962,-0.05,-0.897,0.0
13.58,-0.067,-0.84,0.0
12.679,-0.065,-0.851,0.0
11.773,-0.061,-0.852,0.0
11.136,-0.059,-0.865,0.0
10.596,-0.058,-0.879,0.0
10.149,-0.056,-0.895,0.0
13.895,-0.076,-0.835,0.0
12.92,-0.072,-0.844,0.0
12.097,-0.069,-0.854,0.0
11.387,-0.066,-0.864,0.0
10.834,-0.064,-0.879,0.0
10.298,-0.062,-0.89,0.0
14.25,-0.085,-0.831,0.0
13.342,-0.081,-0.847,0.0
12.403,-0.077,-0.853,0.0
11.581,-0.073,-0.858,0.0
10.982,-0.071,-0.871,0.0
10.445,-0.068,-0.883,0.0
14.615,-0.095,-0.825,0.0
13.659,-0.09,-0.842,0.0
12.686,-0.085,-0.849,0.0
11.811,-0.08,-0.853,0.0
11.201,-0.077,-0.868,0.0
10.638,-0.074,-0.88,0.0
14.998,-0.104,-0.819,0.0
13.916,-0.098,-0.832,0.0
13.105,-0.093,-0.852,0.0
12.201,-0.088,-0.858,0.0
11.426,-0.083,-0.864,0.0
10.869,-0.08,-0.878,0.0
15.373,-0.112,-0.811,0.0
14.3,-0.106,-0.829,0.0
13.42,-0.101,-0.848,0.0
12.459,-0.094,-0.853,0.0
11.646,-0.089,-0.858,0.0
11.05,-0.086,-0.872,0.0
15.817,-0.122,-0.804,0.0
14.671,-0.114,-0.822,0.0
13.697,-0.107,-0.839,0.0
12.822,-0.102,-0.854,0.0
11.926,-0.095,-0.856,0.0
11.293,-0.091,-0.87,0.0
16.266,-0.13,-0.796,0.0
15.1,-0.122,-0.817,0.0
14.072,-0.115,-0.835,0.0
13.189,-0.109,-0.853,0.0
12.275,-0.102,-0.858,0.0
11.506,-0.096,-0.864,0.0
16.868,-0.14,-0.793,0.0
15.49,-0.13,-0.809,0.0
14.386,-0.121,-0.826,0.0
13.504,-0.115,-0.847,0.0
12.518,-0.107,-0.85,0.0
11.722,-0.101,-0.857,0.0
17.366,-0.149,-0.783,0.0
15.87,-0.137,-0.798,0.0
14.817,-0.129,-0.822,0.0
13.824,-0.121,-0.84,0.0
12.953,-0.114,-0.854,0.0
12.066,-0.107,-0.859,0.0
17.842,-0.157,-0.769,0.0
16.518,-0.146,-0.798,0.0
15.222,-0.136,-0.814,0.0
14.146,-0.127,-0.831,0.0
13.331,-0.12,-0.853,0.0
12.385,-0.112,-0.857,0.0
18.578,-0.167,-0.764,0.0
17.062,-0.154,-0.79,0.0
15.836,-0.144,-0.815,0.0
14.601,-0.133,-0.829,0.0
13.666,-0.125,-0.847,0.0
12.728,-0.117,-0.855,0.0
19.243,-0.176,-0.753,0.0
17.554,-0.161,-0.778,0.0
16.216,-0.149,-0.803,0.0
14.995,-0.139,-0.821,0.0
14.003,-0.13,-0.84,0.0
13.128,-0.123,-0.855,0.0
19.93,-0.184,-0.74,0.0
18.167,-0.169,-0.768,0.0
16.734,-0.156,-0.794,0.0
15.399,-0.144,-0.812,0.0
14.386,-0.135,-0.833,0.0
13.463,-0.127,-0.85,0.0
20.758,-0.194,-0.729,0.0
18.932,-0.177,-0.762,0.0
17.34,-0.163,-0.788,0.0
15.922,-0.15,-0.807,0.0
14.799,-0.14,-0.827,0.0
13.757,-0.13,-0.84,0.0
21.647,-0.203,-0.716,0.0
19.653,-0.184,-0.752,0.0
17.807,-0.167,-0.773,0.0
16.46,-0.155,-0.801,0.0
15.189,-0.143,-0.818,0.0
14.148,-0.134,-0.835,0.0
22.579,-0.212,-0.701,0.0
20.534,-0.193,-0.743,0.0
18.593,-0.175,-0.769,0.0
16.896,-0.159,-0.788,0.0
15.816,-0.149,-0.819,0.0
14.61,-0.138,-0.832,0.0
23.797,-0.222,-0.69,0.0
21.385,-0.2,-0.73,0.0
19.284,-0.18,-0.758,0.0
17.507,-0.164,-0.78,0.0
16.117,-0.151,-0.801,0.0
14.988,-0.14,-0.823,0.0
24.968,-0.231,-0.672,0.0
22.34,-0.207,-0.717,0.0
19.89,-0.184,-0.74,0.0
18.296,-0.169,-0.777,0.0
16.735,-0.155,-0.798,0.0
15.493,-0.143,-0.818,0.0
26.409,-0.241,-0.656,0.0
23.077,-0.211,-0.692,0.0
20.917,-0.191,-0.736,0.0
18.842,-0.172,-0.762,0.0
17.37,-0.158,-0.792,0.0
15.96,-0.145,-0.81,0.0
28.381,-0.255,-0.647,0.0
24.506,-0.22,-0.685,0.0
21.751,-0.195,-0.72,0.0
19.615,-0.175,-0.752,0.0
17.842,-0.159,-0.776,0.0
16.539,-0.147,-0.805,0.0
29.557,-0.26,-0.613,0.0
26.133,-0.229,-0.676,0.0
22.688,-0.199,-0.704,0.0
20.528,-0.179,-0.745,0.0
18.613,-0.162,-0.771,0.0
17.037,-0.148,-0.794,0.0
31.448,-0.27,-0.586,0.0
27.487,-0.235,-0.654,0.0
23.676,-0.202,-0.685,0.0
21.348,-0.181,-0.729,0.0
19.298,-0.163,-0.759,0.0
17.603,-0.148,-0.783,0.0
0.0,0.0,0.0,0.0
0.0,0.0,0.0,0.0
0.0,0.0,0.0,0.0
22.412,-0.184,-0.719,0.0
20.162,-0.164,-0.751,0.0
18.427,-0.149,-0.781,0.0
0.0,0.0,0.0,0.0
30.641,-0.244,-0.601,0.0
26.539,-0.21,-0.657,0.0
23.192,-0.182,-0.696,0.0
21.033,-0.164,-0.74,0.0
19.073,-0.148,-0.769,0.0
0.0,0.0,0.0,0.0
0.0,0.0,0.0,0.0
0.0,0.0,0.0,0.0
24.589,-0.185,-0.687,0.0
21.967,-0.164,-0.727,0.0
19.755,-0.146,-0.756,0.0
0.0,0.0,0.0,0.0
35.277,-0.255,-0.546,0.0
29.778,-0.213,-0.614,0.0
26.175,-0.186,-0.677,0.0
22.844,-0.161,-0.708,0.0
20.579,-0.143,-0.744,0.0
0.0,0.0,0.0,0.0
0.0,0.0,0.0,0.0
32.971,-0.222,-0.611,0.0
27.569,-0.184,-0.655,0.0
24.267,-0.16,-0.702,0.0
21.368,-0.139,-0.728,0.0
0.0,0.0,0.0,0.0
0.0,0.0,0.0,0.0
0.0,0.0,0.0,0.0
29.075,-0.18,-0.631,0.0
25.277,-0.154,-0.679,0.0
22.494,-0.136,-0.72,0.0
0.0,0.0,0.0,0.0
0.0,0.0,0.0,0.0
37.549,-0.216,-0.54,0.0
30.63,-0.174,-0.601,0.0
26.721,-0.149,-0.662,0.0
23.204,-0.128,-0.695,0.0
0.0,0.0,0.0,0.0
0.0,0.0,0.0,0.0
39.966,-0.208,-0.492,0.0
0.0,0.0,0.0,0.0
0.0,0.0,0.0,0.0
24.692,-0.122,-0.688,0.0
0.0,0.0,0.0,0.0
0.0,0.0,0.0,0.0
0.0,0.0,0.0,0.0
35.336,-0.16,-0.548,0.0
29.935,-0.132,-0.619,0.0
26.187,-0.113,-0.676,0.0
95.152,-0.401,0.198,1.0
0.0,0.0,0.0,0.0
0.0,0.0,0.0,0.0
37.192,-0.145,-0.501,0.0
31.478,-0.12,-0.587,0.0
27.395,-0.101,-0.652,0.0
103.34,-0.37,0.424,3.0
0.0,0.0,0.0,0.0
53.458,-0.18,-0.332,0.0
0.0,0.0,0.0,0.0
0.0,0.0,0.0,0.0
0.0,0.0,0.0,0.0
111.156,-0.323,0.68,9.0
0.0,0.0,0.0,0.0
0.0,0.0,0.0,0.0
45.043,-0.115,-0.425,2.0
0.0,0.0,0.0,0.0
30.616,-0.071,-0.605,0.0
114.484,-0.25,0.934,107.0
0.0,0.0,0.0,0.0
0.0,0.0,0.0,0.0
47.243,-0.086,-0.351,0.0
39.865,-0.068,-0.502,0.0
0.0,0.0,0.0,0.0
117.501,-0.17,1.194,8.0
103.485,-0.136,0.517,2.0
0.0,0.0,0.0,0.0
0.0,0.0,0.0,0.0
44.863,-0.041,-0.475,0.0
35.735,-0.028,-0.563,0.0
117.335,-0.078,1.425,14.0
111.119,-0.059,0.775,13.0
95.33,-0.037,0.173,2.0
0.0,0.0,0.0,0.0
45.748,-0.005,-0.394,1.0
37.44,0.0,-0.516,0.0
117.315,0.017,1.658,16.0
111.13,0.031,0.994,7.0
95.622,0.041,0.362,5.0
73.567,0.042,-0.108,0.0
0.0,0.0,0.0,0.0
0.0,0.0,0.0,0.0
117.343,0.118,1.89,14.0
111.15,0.128,1.216,21.0
110.631,0.144,0.638,7.0
0.0,0.0,0.0,0.0
0.0,0.0,0.0,0.0
44.995,0.078,-0.443,1.0
193.388,0.366,3.494,13.0
111.134,0.227,1.432,22.0
111.029,0.244,0.856,13.0
92.879,0.218,0.225,2.0
0.0,0.0,0.0,0.0
49.739,0.132,-0.394,0.0
119.829,0.337,2.397,6.0
119.877,0.356,1.776,16.0
119.717,0.375,1.154,16.0
94.684,0.311,0.411,4.0
0.0,0.0,0.0,0.0
0.0,0.0,0.0,0.0
119.871,0.451,2.628,40.0
119.875,0.471,2.006,79.0
111.162,0.455,1.284,21.0
104.426,0.445,0.654,9.0
87.839,0.389,0.094,1.0
0.0,0.0,0.0,0.0
111.218,0.529,2.651,12.0
111.113,0.547,2.071,24.0
111.093,0.566,1.493,30.0
110.96,0.585,0.905,16.0
87.77,0.478,0.261,1.0
0.0,0.0,0.0,0.0
111.102,0.643,2.859,29.0
111.054,0.662,2.281,29.0
111.095,0.682,1.705,29.0
111.052,0.701,1.114,7.0
97.623,0.633,0.472,9.0
0.0,0.0,0.0,0.0
111.03,0.759,3.064,23.0
104.865,0.736,2.348,15.0
101.692,0.732,1.748,2.0
100.674,0.743,1.196,4.0
104.773,0.792,0.699,15.0
84.964,0.658,0.126,5.0
104.715,0.83,3.083,26.0
104.754,0.849,2.538,27.0
100.654,0.835,1.915,2.0
100.105,0.849,1.373,2.0
104.788,0.908,0.891,10.0
85.148,0.754,0.28,8.0
104.653,0.945,3.272,27.0
104.717,0.966,2.728,38.0
99.878,0.94,2.08,5.0
104.739,1.006,1.625,24.0
98.673,0.967,1.016,26.0
98.147,0.982,0.5,8.0
98.797,1.005,3.266,13.0
98.72,1.024,2.749,24.0
98.672,1.043,2.232,25.0
98.592,1.062,1.706,26.0
98.579,1.082,1.192,30.0
98.318,1.1,0.677,12.0
69.842,0.794,2.435,16.0
98.671,1.14,2.923,25.0
98.563,1.159,2.404,28.0
98.559,1.178,1.878,34.0
98.521,1.198,1.363,31.0
98.519,1.218,0.848,24.0
69.766,0.876,2.552,9.0
98.442,1.256,3.086,19.0
98.508,1.277,2.573,36.0
98.559,1.298,2.048,30.0
98.532,1.318,1.532,29.0
98.565,1.339,1.018,31.0
69.904,0.963,2.677,11.0
70.002,0.979,2.314,11.0
98.516,1.398,2.741,29.0
98.622,1.421,2.218,27.0
119.951,1.754,2.069,43.0
98.956,1.469,1.19,14.0
120.291,1.81,4.814,12.0
70.063,1.069,2.437,9.0
98.568,1.525,2.91,12.0
119.824,1.88,2.898,8.0
91.972,1.464,1.742,24.0
91.918,1.483,1.26,39.0
120.444,1.968,5.022,18.0
70.062,1.159,2.553,4.0
92.025,1.544,2.87,7.0
91.871,1.561,2.374,33.0
91.847,1.581,1.891,38.0
91.867,1.602,1.409,33.0
78.753,1.39,3.414,10.0
70.205,1.254,2.673,9.0
91.873,1.662,3.016,32.0
91.768,1.681,2.521,35.0
91.777,1.702,2.039,6.0
87.745,1.646,1.487,6.0
91.467,1.737,4.112,12.0
91.529,1.758,3.633,16.0
91.731,1.783,3.157,32.0
91.828,1.806,2.668,31.0
87.028,1.732,2.071,20.0
87.211,1.755,1.617,26.0
85.361,1.738,3.974,28.0
78.821,1.622,3.253,10.0
85.355,1.776,3.073,26.0
85.329,1.796,2.614,31.0
85.308,1.815,2.163,36.0
85.264,1.834,1.713,34.0
85.315,1.855,4.105,32.0
85.299,1.875,3.654,33.0
78.895,1.753,2.963,28.0
85.252,1.913,2.742,40.0
85.259,1.934,2.293,38.0
85.244,1.953,1.843,38.0
85.343,1.975,4.236,31.0
85.342,1.995,3.784,29.0
85.325,2.014,3.331,23.0
85.263,2.032,2.869,19.0
85.291,2.053,2.419,31.0
85.27,2.073,1.968,29.0
83.548,2.053,4.271,10.0
116.66,2.895,5.346,17.0
78.902,1.976,3.197,3.0
78.851,1.994,2.769,31.0
78.953,2.015,2.355,9.0
78.954,2.034,1.938,20.0
78.806,2.051,4.144,23.0
78.807,2.069,3.725,35.0
78.813,2.089,3.307,37.0
78.802,2.107,2.88,36.0
78.825,2.126,2.463,29.0
78.843,2.146,2.046,35.0
78.85,2.167,4.258,21.0
78.83,2.185,3.837,25.0
78.859,2.205,3.419,26.0
78.816,2.223,2.991,21.0
78.818,2.242,2.572,25.0
78.831,2.262,2.155,22.0
72.852,2.111,4.035,12.0
79.553,2.325,3.983,4.0
115.975,3.418,5.19,18.0
117.739,3.499,4.631,10.0
78.877,2.364,2.683,28.0
78.949,2.385,2.266,8.0
72.136,2.2,4.095,18.0
72.772,2.237,3.742,4.0
115.038,3.565,5.303,8.0
78.804,2.462,3.205,8.0
190.712,6.004,6.739,22.0
211.289,6.706,6.343,16.0
72.128,2.31,4.189,10.0
65.66,2.119,3.463,21.0
72.449,2.356,3.434,22.0
72.439,2.373,3.039,36.0
72.438,2.391,2.653,32.0
72.422,2.408,2.266,33.0
72.267,2.425,4.29,28.0
72.228,2.442,3.901,24.0
72.348,2.463,3.52,20.0
72.383,2.482,3.127,43.0
72.408,2.501,2.741,41.0
72.394,2.519,2.354,34.0
65.895,2.314,3.993,27.0
