X,Y,Z,Reflectivity
22.023,1.99,-0.703,0.0
19.657,1.772,-0.739,0.0
17.872,1.608,-0.773,0.0
16.304,1.463,-0.796,0.0
28.669,2.557,-0.602,0.0
25.077,2.231,-0.667,0.0
21.856,1.94,-0.703,0.0
19.512,1.727,-0.739,0.0
17.771,1.57,-0.773,0.0
16.279,1.434,-0.799,0.0
28.591,2.503,-0.608,0.0
24.823,2.168,-0.666,0.0
22.002,1.916,-0.713,0.0
19.497,1.694,-0.743,0.0
17.698,1.533,-0.774,0.0
16.221,1.402,-0.8,0.0
28.465,2.444,-0.611,0.0
24.77,2.121,-0.67,0.0
21.791,1.861,-0.711,0.0
19.42,1.654,-0.744,0.0
17.596,1.495,-0.773,0.0
16.147,1.368,-0.799,0.0
28.186,2.373,-0.61,0.0
24.567,2.062,-0.669,0.0
21.623,1.81,-0.709,0.0
19.344,1.615,-0.744,0.0
17.667,1.471,-0.778,0.0
16.13,1.339,-0.801,0.0
28.122,2.319,-0.612,0.0
24.567,2.02,-0.672,0.0
21.616,1.772,-0.712,0.0
19.398,1.586,-0.749,0.0
17.554,1.431,-0.775,0.0
16.138,1.312,-0.803,0.0
28.101,2.269,-0.615,0.0
24.454,1.969,-0.671,0.0
21.597,1.733,-0.713,0.0
19.317,1.546,-0.747,0.0
17.598,1.404,-0.779,0.0
16.111,1.281,-0.803,0.0
28.097,2.219,-0.617,0.0
24.541,1.933,-0.675,0.0
21.6,1.696,-0.714,0.0
19.338,1.513,-0.749,0.0
17.511,1.366,-0.776,0.0
16.007,1.245,-0.798,0.0
27.934,2.157,-0.614,0.0
24.453,1.882,-0.673,0.0
21.536,1.652,-0.712,0.0
19.322,1.478,-0.748,0.0
17.545,1.337,-0.777,0.0
16.136,1.226,-0.804,0.0
27.969,2.11,-0.614,0.0
24.485,1.841,-0.673,0.0
21.754,1.63,-0.719,0.0
19.431,1.451,-0.752,0.0
17.62,1.311,-0.78,0.0
16.053,1.191,-0.799,0.0
28.167,2.074,-0.617,0.0
24.667,1.81,-0.677,0.0
21.548,1.576,-0.711,0.0
19.269,1.404,-0.744,0.0
17.641,1.281,-0.779,0.0
16.182,1.171,-0.804,0.0
28.012,2.012,-0.611,0.0
24.638,1.763,-0.674,0.0
21.685,1.546,-0.713,0.0
19.435,1.381,-0.748,0.0
17.719,1.254,-0.78,0.0
16.189,1.142,-0.803,0.0
28.314,1.982,-0.614,0.0
24.742,1.725,-0.673,0.0
21.752,1.511,-0.712,0.0
19.434,1.345,-0.745,0.0
17.73,1.223,-0.778,0.0
16.092,1.106,-0.795,0.0
28.568,1.948,-0.615,0.0
24.82,1.686,-0.671,0.0
21.782,1.474,-0.709,0.0
19.474,1.312,-0.743,0.0
17.759,1.192,-0.776,0.0
16.252,1.087,-0.8,0.0
28.588,1.896,-0.609,0.0
24.746,1.635,-0.664,0.0
22.056,1.451,-0.713,0.0
19.588,1.284,-0.743,0.0
17.842,1.165,-0.775,0.0
16.326,1.062,-0.799,0.0
28.745,1.854,-0.605,0.0
25.009,1.606,-0.664,0.0
22.081,1.412,-0.708,0.0
19.67,1.253,-0.741,1.0
17.915,1.136,-0.773,0.0
16.261,1.027,-0.792,0.0
29.024,1.819,-0.603,0.0
24.996,1.559,-0.657,0.0
22.29,1.385,-0.708,0.0
19.728,1.22,-0.737,0.0
17.999,1.108,-0.771,0.0
16.352,1.002,-0.791,0.0
29.432,1.789,-0.602,0.0
25.27,1.529,-0.655,0.0
22.408,1.35,-0.704,0.0
19.89,1.193,-0.736,0.0
17.981,1.073,-0.764,0.0
16.537,0.983,-0.794,0.0
29.799,1.756,-0.598,0.0
25.659,1.504,-0.656,0.0
22.67,1.323,-0.703,0.0
20.096,1.167,-0.736,0.0
18.239,1.054,-0.768,0.0
16.692,0.96,-0.794,0.0
29.877,1.704,-0.588,0.0
0.0,0.0,0.0,0.0
22.741,1.284,-0.696,0.0
20.253,1.138,-0.733,0.0
18.341,1.025,-0.764,0.0
16.704,0.929,-0.787,0.0
0.0,0.0,0.0,0.0
26.253,1.44,-0.648,0.0
22.912,1.25,-0.69,0.0
20.517,1.114,-0.733,0.0
18.439,0.996,-0.759,0.0
16.849,0.905,-0.786,0.0
30.969,1.65,-0.58,0.0
26.553,1.407,-0.642,0.0
23.322,1.229,-0.691,0.0
20.602,1.08,-0.725,0.0
18.686,0.974,-0.76,0.0
16.925,0.877,-0.78,0.0
31.386,1.612,-0.571,0.0
26.976,1.378,-0.638,0.0
23.691,1.203,-0.689,0.0
20.928,1.057,-0.725,0.0
19.028,0.956,-0.763,0.0
17.193,0.859,-0.783,0.0
31.757,1.572,-0.56,0.0
27.414,1.349,-0.633,0.0
23.83,1.166,-0.679,0.0
21.267,1.034,-0.724,0.0
18.797,0.909,-0.742,0.0
17.353,0.834,-0.78,0.0
32.41,1.543,-0.552,0.0
27.752,1.313,-0.623,0.0
24.222,1.139,-0.676,0.0
21.548,1.007,-0.72,0.0
19.367,0.9,-0.752,0.0
17.58,0.812,-0.779,0.0
0.0,0.0,0.0,0.0
28.232,1.283,-0.616,0.0
24.72,1.116,-0.673,0.0
21.84,0.98,-0.715,0.0
19.508,0.87,-0.745,0.0
17.874,0.792,-0.779,0.0
0.0,0.0,0.0,0.0
28.809,1.255,-0.608,0.0
25.129,1.088,-0.667,0.0
21.994,0.946,-0.705,0.0
19.868,0.849,-0.745,0.0
17.911,0.76,-0.768,0.0
34.868,1.465,-0.522,0.0
29.464,1.229,-0.601,0.0
25.784,1.068,-0.665,0.0
22.485,0.925,-0.704,0.0
20.128,0.822,-0.739,0.0
18.21,0.739,-0.767,0.0
35.965,1.444,-0.511,0.0
0.0,0.0,0.0,0.0
26.278,1.039,-0.657,0.0
22.79,0.895,-0.695,0.0
20.474,0.798,-0.735,0.0
18.368,0.711,-0.759,0.0
36.974,1.415,-0.496,0.0
30.762,1.169,-0.579,0.0
26.668,1.005,-0.646,0.0
23.423,0.876,-0.696,0.0
20.814,0.772,-0.73,0.0
18.772,0.691,-0.76,0.0
0.0,0.0,0.0,0.0
0.0,0.0,0.0,0.0
27.496,0.985,-0.642,0.0
23.843,0.847,-0.687,0.0
21.212,0.747,-0.726,0.0
19.253,0.673,-0.762,0.0
38.704,1.337,-0.453,0.0
32.211,1.104,-0.55,0.0
28.496,0.968,-0.64,1.0
24.445,0.823,-0.683,0.0
21.456,0.716,-0.715,0.0
19.489,0.645,-0.754,0.0
41.689,1.364,-0.449,0.0
34.153,1.107,-0.551,0.0
28.619,0.919,-0.616,1.0
24.826,0.79,-0.67,0.0
22.342,0.705,-0.723,0.0
19.772,0.618,-0.746,0.0
0.0,0.0,0.0,0.0
35.095,1.073,-0.533,0.0
29.26,0.886,-0.601,0.0
25.515,0.765,-0.664,0.0
22.551,0.67,-0.707,0.0
20.296,0.597,-0.745,0.0
0.0,0.0,0.0,0.0
36.053,1.037,-0.512,0.0
0.0,0.0,0.0,0.0
26.288,0.741,-0.657,0.0
22.936,0.64,-0.696,0.0
20.546,0.567,-0.734,0.0
47.412,1.292,-0.371,0.0
38.352,1.034,-0.505,0.0
31.505,0.84,-0.583,0.0
26.965,0.711,-0.646,0.0
23.682,0.618,-0.694,0.0
21.028,0.542,-0.728,0.0
0.0,0.0,0.0,0.0
39.457,0.992,-0.477,0.0
32.766,0.815,-0.571,0.0
27.631,0.679,-0.632,0.0
24.319,0.59,-0.686,0.0
21.492,0.515,-0.721,0.0
48.847,1.155,-0.276,0.0
0.0,0.0,0.0,0.0
0.0,0.0,0.0,0.0
28.554,0.651,-0.621,0.0
24.99,0.562,-0.676,0.0
22.173,0.492,-0.718,0.0
0.0,0.0,0.0,0.0
44.05,0.951,-0.433,0.0
35.417,0.755,-0.537,0.0
29.605,0.622,-0.61,0.0
25.776,0.534,-0.668,0.0
22.569,0.462,-0.705,0.0
0.0,0.0,0.0,0.0
0.0,0.0,0.0,0.0
0.0,0.0,0.0,0.0
30.782,0.593,-0.597,0.0
26.46,0.503,-0.654,0.0
23.035,0.431,-0.692,0.0
0.0,0.0,0.0,0.0
45.902,0.832,-0.343,0.0
0.0,0.0,0.0,0.0
0.0,0.0,0.0,0.0
27.121,0.468,-0.637,0.0
24.007,0.408,-0.691,0.0
74.133,1.237,-0.069,0.0
0.0,0.0,0.0,0.0
40.338,0.65,-0.465,0.0
33.48,0.53,-0.566,0.0
28.549,0.444,-0.635,0.0
24.736,0.378,-0.681,0.0
76.337,1.144,0.025,1.0
53.238,0.783,-0.264,0.0
44.014,0.635,-0.451,1.0
34.693,0.491,-0.542,0.0
29.545,0.409,-0.618,0.0
25.763,0.35,-0.675,0.0
78.438,1.043,0.128,2.0
0.0,0.0,0.0,0.0
43.995,0.56,-0.392,1.0
36.929,0.46,-0.528,0.0
30.395,0.37,-0.595,0.0
26.555,0.316,-0.66,0.0
85.301,0.992,0.254,3.0
0.0,0.0,0.0,0.0
49.295,0.546,-0.374,0.0
0.0,0.0,0.0,0.0
0.0,0.0,0.0,0.0
27.073,0.278,-0.637,0.0
85.443,0.854,0.37,7.0
0.0,0.0,0.0,0.0
53.385,0.505,-0.331,0.0
0.0,0.0,0.0,0.0
33.354,0.297,-0.562,0.0
28.727,0.248,-0.635,0.0
97.976,0.82,0.562,9.0
0.0,0.0,0.0,0.0
0.0,0.0,0.0,0.0
42.779,0.324,-0.435,1.0
0.0,0.0,0.0,0.0
29.921,0.211,-0.619,0.0
104.814,0.712,0.748,17.0
86.871,0.567,0.163,6.0
0.0,0.0,0.0,0.0
45.798,0.275,-0.4,1.0
36.495,0.21,-0.511,0.0
0.0,0.0,0.0,0.0
110.941,0.58,0.952,18.0
89.485,0.444,0.298,1.0
0.0,0.0,0.0,0.0
49.883,0.222,-0.363,0.0
0.0,0.0,0.0,0.0
0.0,0.0,0.0,0.0
119.765,0.441,1.205,16.0
94.519,0.324,0.454,4.0
0.0,0.0,0.0,0.0
0.0,0.0,0.0,0.0
42.769,0.114,-0.472,1.0
0.0,0.0,0.0,0.0
111.11,0.239,1.286,24.0
110.658,0.212,0.699,7.0
0.0,0.0,0.0,0.0
0.0,0.0,0.0,0.0
45.432,0.052,-0.432,3.0
35.972,0.032,-0.53,0.0
111.129,0.073,1.457,16.0
111.092,0.047,0.873,11.0
95.311,0.016,0.25,2.0
0.0,0.0,0.0,0.0
45.555,-0.014,-0.361,0.0
0.0,0.0,0.0,0.0
112.363,-0.09,1.648,30.0
117.428,-0.123,1.108,12.0
0.0,0.0,0.0,0.0
0.0,0.0,0.0,0.0
0.0,0.0,0.0,0.0
41.451,-0.083,-0.48,0.0
112.811,-0.254,1.835,10.0
119.706,-0.297,1.32,16.0
111.008,-0.303,0.644,8.0
0.0,0.0,0.0,0.0
0.0,0.0,0.0,0.0
45.025,-0.154,-0.449,1.0
114.077,-0.418,2.039,9.0
119.709,-0.466,1.513,12.0
119.733,-0.495,0.889,6.0
95.275,-0.416,0.201,2.0
0.0,0.0,0.0,0.0
0.0,0.0,0.0,0.0
119.825,-0.606,2.339,150.0
114.264,-0.603,1.633,2.0
119.655,-0.659,1.085,19.0
0.0,0.0,0.0,0.0
0.0,0.0,0.0,0.0
0.0,0.0,0.0,0.0
119.81,-0.768,2.536,53.0
194.634,-1.29,3.105,6.0
119.695,-0.82,1.284,20.0
113.814,-0.805,0.617,3.0
0.0,0.0,0.0,0.0
0.0,0.0,0.0,0.0
119.724,-0.926,2.735,68.0
119.754,-0.951,2.11,96.0
119.724,-0.977,1.487,24.0
119.604,-1.002,0.85,10.0
0.0,0.0,0.0,0.0
0.0,0.0,0.0,0.0
119.722,-1.08,2.939,150.0
119.741,-1.106,2.316,150.0
119.76,-1.131,1.691,150.0
119.758,-1.156,1.056,150.0
0.0,0.0,0.0,0.0
0.0,0.0,0.0,0.0
119.776,-1.232,3.146,3.0
119.775,-1.256,2.522,6.0
119.63,-1.278,1.895,4.0
139.353,-1.519,1.47,8.0
125.145,-1.39,0.67,2.0
0.0,0.0,0.0,0.0
209.156,-2.409,5.858,8.0
210.664,-2.468,4.803,11.0
204.205,-2.434,3.595,20.0
0.0,0.0,0.0,0.0
139.187,-1.713,0.988,20.0
0.0,0.0,0.0,0.0
0.0,0.0,0.0,0.0
206.663,-2.667,5.076,9.0
0.0,0.0,0.0,0.0
139.143,-1.848,1.955,8.0
138.936,-1.873,1.232,20.0
127.507,-1.742,0.467,2.0
209.901,-2.91,6.616,8.0
113.165,-1.591,2.979,11.0
205.734,-2.93,4.348,14.0
138.915,-2.005,2.201,11.0
139.139,-2.035,1.484,4.0
138.812,-2.056,0.761,16.0
112.627,-1.691,3.756,3.0
112.692,-1.712,3.171,10.0
0.0,0.0,0.0,0.0
193.846,-3.016,3.424,20.0
0.0,0.0,0.0,0.0
139.078,-2.213,1.014,14.0
112.785,-1.815,3.962,15.0
113.078,-1.84,3.386,5.0
112.642,-1.853,2.789,18.0
194.049,-3.227,3.78,17.0
138.96,-2.334,1.985,7.0
139.08,-2.36,1.266,20.0
112.769,-1.936,4.169,19.0
112.888,-1.957,3.588,9.0
112.688,-1.972,2.996,24.0
193.742,-3.423,4.126,8.0
193.161,-3.446,3.114,21.0
139.176,-2.505,1.523,4.0
106.675,-1.941,4.139,8.0
112.584,-2.067,3.785,25.0
112.922,-2.092,3.212,20.0
205.528,-3.839,4.758,13.0
193.096,-3.638,3.471,24.0
0.0,0.0,0.0,0.0
189.738,-3.641,7.715,50.0
112.661,-2.179,3.997,13.0
112.757,-2.199,3.416,24.0
113.001,-2.221,2.827,6.0
193.48,-3.832,3.839,24.0
138.972,-2.774,2.039,6.0
95.532,-1.925,4.064,9.0
113.305,-2.3,4.233,14.0
112.772,-2.306,3.629,27.0
209.227,-4.309,5.63,16.0
193.884,-4.022,4.214,8.0
193.388,-4.04,3.203,12.0
0.0,0.0,0.0,0.0
96.744,-2.052,3.796,10.0
113.271,-2.419,3.858,22.0
112.697,-2.422,3.243,18.0
118.262,-2.558,2.792,2.0
193.492,-4.213,3.568,14.0
80.865,-1.776,3.745,15.0
96.377,-2.128,3.963,16.0
113.33,-2.518,4.073,16.0
112.57,-2.515,3.452,17.0
209.28,-4.704,5.334,6.0
193.176,-4.368,3.924,5.0
80.91,-1.844,3.899,25.0
96.116,-2.203,4.133,15.0
106.44,-2.453,4.027,11.0
113.17,-2.621,3.683,16.0
118.17,-2.752,3.234,5.0
118.1,-2.765,2.622,7.0
74.199,-1.75,3.716,32.0
81.737,-1.938,3.67,13.0
96.658,-2.304,3.84,17.0
113.256,-2.713,3.903,8.0
210.242,-5.059,6.155,10.0
118.128,-2.857,2.849,21.0
74.322,-1.811,3.865,19.0
81.838,-2.003,3.832,8.0
96.771,-2.379,4.03,14.0
106.117,-2.621,3.859,16.0
120.897,-2.999,3.772,22.0
118.209,-2.945,3.076,6.0
78.72,-1.976,4.245,20.0
74.14,-1.868,3.614,15.0
96.873,-2.452,4.221,14.0
106.327,-2.701,4.07,12.0
120.665,-3.078,3.996,19.0
207.635,-5.318,5.803,7.0
78.602,-2.028,4.39,20.0
74.156,-1.919,3.756,16.0
81.6,-2.12,3.711,10.0
101.66,-2.651,4.088,7.0
116.871,-3.059,4.096,17.0
120.881,-3.175,3.61,14.0
78.221,-2.069,4.52,9.0
81.559,-2.164,4.289,6.0
81.14,-2.16,3.846,40.0
101.748,-2.717,4.285,7.0
117.792,-3.156,4.352,17.0
120.687,-3.243,3.836,26.0
71.525,-1.935,4.27,8.0
80.198,-2.177,4.371,13.0
81.425,-2.216,4.016,30.0
94.798,-2.587,4.175,23.0
106.081,-2.904,4.123,16.0
120.402,-3.305,4.057,21.0
57.261,-1.582,3.528,8.0
65.819,-1.823,3.713,11.0
81.577,-2.265,4.178,10.0
81.166,-2.26,3.729,32.0
94.589,-2.64,3.857,12.0
120.257,-3.365,4.281,20.0
56.993,-1.605,3.621,26.0
71.55,-2.02,4.175,10.0
65.984,-1.866,3.507,8.0
81.182,-2.301,3.887,41.0
94.556,-2.687,4.037,14.0
106.207,-3.024,3.984,8.0
57.098,-1.636,3.737,11.0
56.957,-1.635,3.433,30.0
65.989,-1.898,3.634,26.0
80.982,-2.334,4.032,13.0
81.335,-2.349,3.629,42.0
101.705,-2.943,4.011,11.0
46.771,-1.362,3.152,21.0
56.84,-1.657,3.535,30.0
65.646,-1.917,3.742,10.0
80.404,-2.352,4.157,19.0
81.152,-2.378,3.775,38.0
94.584,-2.776,3.911,13.0
45.941,-1.357,3.183,31.0
56.794,-1.679,3.64,19.0
57.099,-1.69,3.363,21.0
66.108,-1.96,3.544,14.0
81.136,-2.408,3.929,35.0
81.298,-2.416,3.516,12.0
46.315,-1.385,3.298,21.0
46.237,-1.384,3.052,20.0
56.895,-1.705,3.46,30.0
65.613,-1.968,3.643,20.0
80.588,-2.42,4.057,29.0
81.307,-2.444,3.673,35.0
44.818,-1.355,3.279,31.0
45.979,-1.391,3.124,30.0
56.88,-1.723,3.568,30.0
65.674,-1.991,3.772,13.0
80.299,-2.436,4.196,15.0
81.218,-2.466,3.823,35.0
44.779,-1.367,3.361,39.0
45.89,-1.402,3.205,41.0
56.748,-1.735,3.669,11.0
57.005,-1.743,3.383,28.0
79.594,-2.436,4.31,10.0
81.026,-2.48,3.967,39.0
44.551,-1.372,3.428,26.0
44.901,-1.383,3.222,19.0
45.93,-1.415,3.056,40.0
56.927,-1.754,3.486,31.0
65.821,-2.029,3.688,34.0
80.418,-2.48,4.089,29.0
44.047,-1.366,3.473,36.0
44.563,-1.382,3.281,35.0
45.876,-1.423,3.138,42.0
56.759,-1.76,3.582,29.0
65.846,-2.042,3.813,12.0
71.754,-2.225,3.782,11.0
43.783,-1.366,3.535,48.0
44.669,-1.393,3.372,28.0
45.129,-1.407,3.171,30.0
45.895,-1.43,2.982,16.0
57.126,-1.78,3.414,29.0
71.7,-2.234,3.911,20.0
43.745,-1.37,3.612,44.0
44.284,-1.386,3.425,18.0
44.337,-1.387,3.197,39.0
46.047,-1.44,3.075,25.0
57.073,-1.784,3.514,30.0
65.839,-2.057,3.711,35.0
43.946,-1.381,3.71,41.0
44.081,-1.384,3.49,35.0
44.488,-1.396,3.29,32.0
45.902,-1.439,3.151,36.0
56.828,-1.78,3.605,18.0
65.862,-2.062,3.835,14.0
43.766,-1.378,3.776,44.0
43.745,-1.376,3.544,45.0
44.584,-1.401,3.379,21.0
45.041,-1.413,3.173,32.0
45.908,-1.439,2.995,15.0
57.143,-1.79,3.431,24.0
43.902,-1.383,3.868,36.0
43.769,-1.377,3.626,42.0
44.292,-1.392,3.437,21.0
44.323,-1.391,3.203,37.0
46.085,-1.445,3.089,24.0
57.041,-1.786,3.526,28.0
44.287,-1.394,3.981,20.0
43.939,-1.381,3.719,40.0
43.995,-1.381,3.493,38.0
44.494,-1.395,3.295,33.0
45.828,-1.434,3.154,39.0
56.759,-1.774,3.61,16.0
46.621,-1.465,4.275,6.0
43.758,-1.373,3.782,44.0
43.735,-1.37,3.551,47.0
44.595,-1.394,3.382,20.0
45.003,-1.405,3.177,22.0
45.917,-1.431,3.002,29.0
43.779,-1.372,4.093,31.0
43.926,-1.374,3.875,38.0
43.807,-1.367,3.634,41.0
44.177,-1.376,3.428,27.0
44.414,-1.381,3.213,44.0
45.938,-1.426,3.083,41.0
43.632,-1.361,4.154,31.0
44.279,-1.378,3.983,21.0
43.978,-1.366,3.724,39.0
43.893,-1.361,3.482,37.0
44.692,-1.382,3.311,37.0
45.83,-1.415,3.155,44.0
43.672,-1.355,4.235,22.0
43.927,-1.36,4.028,18.0
43.803,-1.353,3.785,39.0
43.755,-1.348,3.547,46.0
44.719,-1.374,3.39,34.0
45.794,-1.404,3.231,20.0
43.766,-1.349,4.319,15.0
43.616,-1.341,4.074,35.0
43.775,-1.342,3.858,40.0
43.787,-1.339,3.624,41.0
44.271,-1.35,3.431,33.0
44.804,-1.363,3.237,19.0
45.063,-1.378,4.524,20.0
43.641,-1.331,4.15,28.0
43.966,-1.337,3.949,21.0
43.749,-1.326,3.694,44.0
44.12,-1.334,3.493,36.0
44.845,-1.352,3.314,35.0
44.734,-1.355,4.567,43.0
43.68,-1.319,4.227,31.0
44.083,-1.327,4.033,21.0
43.766,-1.314,3.769,42.0
43.938,-1.315,3.551,43.0
44.691,-1.333,3.377,34.0
44.286,-1.328,4.594,34.0
43.743,-1.307,4.306,18.0
43.721,-1.302,4.072,31.0
43.721,-1.298,3.836,36.0
43.895,-1.298,3.62,43.0
44.298,-1.306,3.419,44.0
43.814,-1.298,4.617,40.0
44.819,-1.323,4.485,33.0
43.603,-1.283,4.131,26.0
43.759,-1.283,3.91,28.0
43.719,-1.277,3.674,46.0
43.856,-1.276,3.454,42.0
43.787,-1.28,4.685,42.0
44.528,-1.297,4.527,26.0
43.665,-1.267,4.207,34.0
43.627,-1.261,3.967,32.0
43.655,-1.257,3.738,37.0
43.951,-1.26,3.531,33.0
43.781,-1.262,4.753,47.0
44.043,-1.264,4.546,33.0
43.688,-1.249,4.277,30.0
43.56,-1.24,4.029,21.0
43.564,-1.235,3.798,41.0
44.046,-1.244,3.606,36.0
43.723,-1.241,4.815,44.0
43.804,-1.237,4.59,45.0
0.0,0.0,0.0,0.0
43.602,-1.221,4.1,31.0
43.533,-1.213,3.861,37.0
43.893,-1.218,3.66,36.0
43.757,-1.22,4.885,38.0
43.821,-1.216,4.658,40.0
44.391,-1.226,4.481,19.0
43.538,-1.197,4.158,31.0
43.45,-1.189,3.918,44.0
43.577,-1.187,3.698,42.0
43.802,-1.199,4.955,45.0
43.773,-1.192,4.717,44.0
43.91,-1.19,4.497,36.0
43.605,-1.176,4.228,20.0
43.485,-1.167,3.984,16.0
43.662,-1.166,3.768,38.0
43.694,-1.172,5.006,36.0
43.769,-1.168,4.78,40.0
43.748,-1.161,4.543,48.0
43.676,-1.153,4.297,18.0
43.532,-1.143,4.051,31.0
43.494,-1.136,3.816,41.0
44.237,-1.161,5.132,37.0
43.799,-1.143,4.845,42.0
43.725,-1.134,4.603,44.0
45.567,-1.175,4.548,41.0
43.711,-1.121,4.129,17.0
43.592,-1.112,3.885,24.0
50.1,-1.283,5.884,5.0
44.132,-1.124,4.945,26.0
43.554,-1.102,4.646,42.0
0.0,0.0,0.0,0.0
43.704,-1.093,4.189,17.0
43.453,-1.08,3.932,34.0
44.203,-1.103,5.252,30.0
50.008,-1.241,5.672,5.0
43.68,-1.077,4.719,32.0
43.729,-1.071,4.484,41.0
43.669,-1.063,4.244,17.0
43.28,-1.048,3.974,18.0
50.264,-1.221,6.04,12.0
44.298,-1.069,5.083,19.0
43.384,-1.04,4.744,43.0
43.461,-1.035,4.515,38.0
43.636,-1.032,4.298,32.0
43.791,-1.029,4.078,24.0
44.466,-1.049,5.401,16.0
44.649,-1.046,5.182,17.0
43.848,-1.02,4.851,22.0
43.292,-1.0,4.552,45.0
43.379,-0.995,4.328,46.0
43.579,-0.992,4.113,20.0
44.45,-1.015,5.456,36.0
50.308,-1.141,5.902,7.0
44.229,-0.996,4.949,20.0
43.356,-0.969,4.613,38.0
43.417,-0.963,4.385,37.0
43.59,-0.96,4.168,41.0
44.354,-0.98,5.499,26.0
50.075,-1.098,5.936,26.0
44.288,-0.963,5.01,19.0
43.33,-0.935,4.662,39.0
43.402,-0.93,4.435,45.0
43.49,-0.924,4.21,40.0
47.927,-1.022,5.999,6.0
44.434,-0.939,5.32,17.0
0.0,0.0,0.0,0.0
43.582,-0.906,4.74,46.0
43.473,-0.896,4.493,41.0
43.311,-0.885,4.242,42.0
48.03,-0.985,6.068,3.0
44.366,-0.901,5.363,18.0
45.35,-0.914,5.235,20.0
43.304,-0.864,4.759,34.0
43.496,-0.861,4.544,35.0
43.355,-0.85,4.295,42.0
45.477,-0.894,5.797,21.0
48.099,-0.937,5.868,13.0
50.563,-0.976,5.893,12.0
43.498,-0.831,4.828,18.0
43.293,-0.82,4.57,35.0
0.0,0.0,0.0,0.0
45.734,-0.859,5.879,21.0
48.048,-0.894,5.914,32.0
44.837,-0.826,5.274,9.0
43.99,-0.802,4.93,18.0
43.471,-0.785,4.635,40.0
0.0,0.0,0.0,0.0
45.672,-0.818,5.919,21.0
44.379,-0.786,5.508,33.0
48.419,-0.849,5.745,12.0
50.024,-0.868,5.657,5.0
43.459,-0.746,4.678,42.0
43.228,-0.734,4.418,43.0
45.391,-0.771,5.929,20.0
44.327,-0.745,5.546,27.0
48.358,-0.804,5.785,4.0
50.019,-0.822,5.705,14.0
43.621,-0.709,4.737,41.0
43.343,-0.696,4.471,39.0
44.084,-0.709,5.8,19.0
47.937,-0.762,6.044,3.0
48.377,-0.759,5.833,5.0
50.039,-0.776,5.754,9.0
43.904,-0.673,4.808,31.0
0.0,0.0,0.0,0.0
43.486,-0.658,5.762,19.0
0.0,0.0,0.0,0.0
41.415,-0.611,5.031,27.0
41.673,-0.606,4.83,13.0
41.353,-0.593,4.566,34.0
0.0,0.0,0.0,0.0
43.02,-0.608,5.739,34.0
44.275,-0.618,5.661,18.0
41.378,-0.569,5.063,41.0
41.313,-0.56,4.823,36.0
41.355,-0.553,4.601,38.0
41.574,-0.549,4.397,29.0
42.909,-0.565,5.759,45.0
44.386,-0.576,5.712,18.0
41.289,-0.528,5.085,27.0
41.29,-0.52,4.854,26.0
41.25,-0.511,4.622,42.0
41.549,-0.507,4.428,43.0
42.844,-0.522,5.785,34.0
44.6,-0.534,5.775,19.0
41.173,-0.485,5.103,36.0
41.149,-0.477,4.869,37.0
41.236,-0.469,4.652,42.0
41.407,-0.463,4.444,37.0
42.748,-0.476,5.804,48.0
43.996,-0.482,5.73,18.0
41.221,-0.443,5.14,13.0
41.101,-0.434,4.893,36.0
41.121,-0.425,4.669,32.0
41.238,-0.419,4.455,44.0
42.724,-0.432,5.832,39.0
43.82,-0.434,5.737,22.0
41.161,-0.4,5.161,36.0
40.996,-0.39,4.909,41.0
41.098,-0.383,4.694,34.0
41.281,-0.376,4.487,40.0
42.584,-0.385,5.841,42.0
43.263,-0.383,5.693,26.0
41.113,-0.356,5.181,33.0
41.012,-0.347,4.937,31.0
41.03,-0.339,4.712,36.0
41.256,-0.333,4.51,38.0
42.353,-0.339,5.836,36.0
0.0,0.0,0.0,0.0
41.144,-0.313,5.21,34.0
41.076,-0.304,4.969,25.0
41.057,-0.296,4.739,38.0
41.401,-0.29,4.549,36.0
42.156,-0.292,5.833,32.0
42.761,-0.287,5.677,21.0
41.12,-0.268,5.23,40.0
41.266,-0.26,5.015,25.0
41.134,-0.252,4.77,32.0
41.5,-0.246,4.583,24.0
42.103,-0.245,5.848,33.0
42.248,-0.238,5.631,18.0
41.147,-0.224,5.255,29.0
41.241,-0.215,5.032,29.0
41.064,-0.207,4.782,23.0
43.366,-0.209,4.81,4.0
42.577,-0.201,5.935,23.0
42.058,-0.19,5.626,26.0
41.155,-0.178,5.275,29.0
43.232,-0.178,5.295,5.0
41.058,-0.162,4.8,41.0
41.077,-0.153,4.574,36.0
42.263,-0.153,5.909,28.0
42.2,-0.144,5.663,34.0
48.418,-0.156,6.226,11.0
41.255,-0.125,5.07,38.0
41.075,-0.116,4.819,42.0
41.247,-0.108,4.609,34.0
42.124,-0.106,5.907,43.0
42.096,-0.098,5.666,33.0
48.194,-0.102,6.216,19.0
41.066,-0.079,5.062,37.0
41.058,-0.071,4.832,43.0
41.255,-0.062,4.625,36.0
42.102,-0.058,5.918,38.0
42.157,-0.05,5.688,29.0
48.275,-0.048,6.242,16.0
41.07,-0.032,5.076,38.0
41.148,-0.024,4.855,38.0
41.457,-0.017,4.66,30.0
42.331,-0.011,5.963,17.0
42.093,-0.002,5.692,50.0
42.103,0.004,5.456,18.0
41.131,0.012,5.095,22.0
41.001,0.02,4.849,31.0
41.314,0.029,4.654,29.0
42.552,0.036,6.005,18.0
42.193,0.044,5.716,34.0
41.797,0.052,5.426,17.0
41.108,0.059,5.101,31.0
40.952,0.066,4.852,36.0
41.216,0.075,4.652,30.0
42.408,0.084,5.993,7.0
42.174,0.092,5.722,52.0
41.719,0.098,5.424,17.0
41.114,0.105,5.109,35.0
41.041,0.113,4.869,30.0
41.584,0.123,4.701,17.0
43.044,0.134,6.09,10.0
42.199,0.14,5.731,37.0
42.275,0.148,5.502,38.0
41.111,0.152,5.115,39.0
41.101,0.16,4.882,29.0
41.253,0.168,4.668,30.0
42.24,0.181,5.981,25.0
42.27,0.189,5.746,32.0
42.372,0.197,5.519,40.0
40.832,0.197,5.084,37.0
41.072,0.206,4.882,19.0
41.265,0.215,4.673,19.0
42.234,0.229,5.983,37.0
42.266,0.237,5.748,32.0
42.328,0.245,5.516,40.0
40.713,0.244,5.071,42.0
41.149,0.254,4.892,40.0
41.253,0.262,4.672,37.0
42.494,0.279,6.021,13.0
42.196,0.284,5.739,45.0
41.912,0.29,5.462,18.0
40.713,0.289,5.07,37.0
40.842,0.297,4.856,42.0
41.096,0.307,4.654,24.0
42.616,0.328,6.037,2.0
42.169,0.332,5.733,38.0
40.931,0.329,5.332,16.0
40.666,0.335,5.063,43.0
40.673,0.342,4.833,42.0
40.991,0.352,4.639,31.0
41.387,0.366,5.86,12.0
41.695,0.375,5.666,46.0
40.683,0.374,5.296,15.0
40.684,0.381,5.061,40.0
40.709,0.389,4.833,45.0
41.365,0.402,4.677,39.0
41.453,0.413,5.864,40.0
41.16,0.417,5.588,37.0
40.935,0.422,5.324,32.0
40.676,0.427,5.054,39.0
40.856,0.435,4.845,42.0
41.402,0.449,4.675,42.0
41.381,0.459,5.847,43.0
40.625,0.458,5.508,35.0
40.821,0.466,5.301,43.0
40.629,0.471,5.041,39.0
40.652,0.478,4.813,45.0
41.567,0.496,4.685,42.0
41.233,0.503,5.818,42.0
40.539,0.502,5.487,46.0
40.734,0.511,5.281,35.0
40.614,0.517,5.029,41.0
40.82,0.526,4.823,47.0
41.417,0.541,4.658,32.0
41.166,0.548,5.798,43.0
40.672,0.548,5.495,39.0
0.0,0.0,0.0,0.0
40.627,0.561,5.02,42.0
40.568,0.567,4.781,36.0
41.05,0.581,4.605,28.0
40.778,0.588,5.731,44.0
40.604,0.592,5.473,40.0
41.464,0.612,5.351,18.0
40.551,0.605,4.997,42.0
40.482,0.611,4.758,42.0
40.656,0.619,4.547,33.0
40.578,0.63,5.688,43.0
40.555,0.636,5.452,41.0
41.192,0.653,5.301,23.0
40.586,0.65,4.987,37.0
40.519,0.655,4.747,39.0
40.572,0.662,4.522,38.0
40.583,0.675,5.673,43.0
40.51,0.679,5.429,39.0
41.514,0.702,5.325,35.0
40.529,0.693,4.963,41.0
40.522,0.698,4.73,36.0
40.536,0.705,4.501,38.0
40.787,0.722,5.683,47.0
40.598,0.725,5.423,43.0
40.6,0.73,5.19,40.0
41.144,0.747,5.019,36.0
40.558,0.742,4.716,35.0
40.659,0.75,4.495,43.0
40.671,0.763,5.647,47.0
40.629,0.768,5.407,35.0
40.614,0.774,5.171,39.0
40.571,0.779,4.929,41.0
40.532,0.784,4.692,40.0
40.527,0.791,4.459,43.0
40.592,0.804,5.615,44.0
40.92,0.817,5.424,35.0
40.525,0.815,5.138,44.0
40.498,0.82,4.898,42.0
40.36,0.823,4.649,44.0
40.586,0.833,4.443,37.0
40.645,0.847,5.599,45.0
40.914,0.859,5.399,40.0
40.427,0.854,5.102,37.0
40.456,0.861,4.868,35.0
40.466,0.867,4.637,40.0
40.576,0.874,4.418,39.0
41.051,0.898,5.629,29.0
40.868,0.9,5.367,43.0
40.308,0.893,5.061,42.0
40.335,0.899,4.828,40.0
40.539,0.909,4.62,36.0
40.581,0.916,4.392,40.0
41.022,0.939,5.598,40.0
40.84,0.941,5.336,40.0
40.34,0.934,5.038,38.0
40.321,0.939,4.799,43.0
40.467,0.948,4.584,35.0
40.594,0.956,4.365,37.0
40.901,0.977,5.552,29.0
40.5,0.973,5.263,42.0
40.453,0.977,5.023,37.0
40.276,0.977,4.764,41.0
40.52,0.989,4.56,28.0
40.626,0.997,4.339,41.0
40.739,1.013,5.499,42.0
40.431,1.01,5.223,40.0
40.422,1.015,4.988,42.0
40.292,1.017,4.735,34.0
40.478,1.027,4.524,41.0
40.887,1.042,4.334,40.0
40.933,1.057,5.493,38.0
40.313,1.046,5.175,40.0
40.35,1.052,4.946,39.0
40.221,1.053,4.694,41.0
40.669,1.07,4.512,33.0
40.966,1.083,4.309,40.0
41.018,1.098,5.47,29.0
40.422,1.087,5.155,45.0
40.285,1.087,4.904,40.0
40.416,1.096,4.683,38.0
40.726,1.109,4.483,40.0
41.162,1.125,4.294,39.0
41.269,1.143,5.467,17.0
40.387,1.123,5.115,43.0
40.248,1.123,4.864,40.0
40.418,1.132,4.647,39.0
40.751,1.146,4.45,40.0
40.984,1.157,4.239,42.0
40.996,1.172,5.393,17.0
40.476,1.161,5.089,35.0
40.606,1.169,4.87,25.0
40.481,1.17,4.616,43.0
40.832,1.184,4.42,37.0
41.061,1.195,4.208,37.0
40.824,1.203,5.331,33.0
40.425,1.195,5.043,41.0
40.481,1.2,4.815,44.0
0.0,0.0,0.0,0.0
40.792,1.218,4.376,40.0
40.972,1.227,4.159,36.0
41.168,1.247,5.334,32.0
40.618,1.235,5.027,45.0
40.524,1.236,4.779,38.0
41.371,1.265,4.635,26.0
40.768,1.251,4.332,37.0
40.824,1.256,4.103,37.0
41.001,1.276,5.27,34.0
41.076,1.282,5.041,35.0
40.587,1.27,4.744,44.0
41.346,1.297,4.589,18.0
40.76,1.283,4.289,41.0
40.838,1.289,4.061,44.0
40.946,1.306,5.219,40.0
41.219,1.319,5.014,31.0
40.697,1.305,4.714,36.0
40.793,1.312,4.484,36.0
41.016,1.323,4.271,38.0
41.192,1.332,4.051,42.0
41.146,1.345,5.199,27.0
40.803,1.336,4.918,29.0
41.015,1.347,4.704,23.0
40.767,1.342,4.435,22.0
40.802,1.346,4.203,38.0
40.601,1.343,3.948,41.0
41.218,1.377,5.161,40.0
40.738,1.364,4.863,16.0
41.471,1.392,4.709,28.0
40.613,1.366,4.372,36.0
40.696,1.372,4.145,41.0
40.541,1.37,3.895,41.0
41.19,1.406,5.109,16.0
41.305,1.412,4.882,24.0
41.886,1.436,4.707,43.0
40.611,1.394,4.323,19.0
40.645,1.398,4.091,42.0
40.651,1.402,3.857,32.0
40.896,1.424,5.022,39.0
41.435,1.445,4.847,16.0
41.507,1.45,4.613,17.0
40.592,1.421,4.272,41.0
40.534,1.421,4.03,42.0
40.516,1.423,3.794,38.0
40.918,1.452,4.974,20.0
41.23,1.465,4.771,25.0
40.882,1.455,4.492,22.0
40.762,1.453,4.238,32.0
40.613,1.45,3.987,35.0
40.402,1.445,3.732,35.0
40.971,1.479,4.927,38.0
41.546,1.502,4.754,18.0
40.76,1.475,4.426,36.0
40.921,1.484,4.202,27.0
40.469,1.469,3.92,38.0
40.262,1.464,3.667,43.0
41.072,1.507,4.885,43.0
40.758,1.497,4.61,22.0
40.648,1.495,4.36,37.0
40.935,1.507,4.149,16.0
40.464,1.492,3.866,36.0
40.248,1.486,3.612,34.0
41.123,1.532,4.836,34.0
40.705,1.518,4.549,38.0
40.515,1.513,4.291,40.0
41.04,1.534,4.103,17.0
40.33,1.509,3.798,40.0
40.208,1.506,3.553,46.0
42.734,1.615,4.965,15.0
40.722,1.54,4.494,38.0
40.552,1.535,4.238,35.0
40.815,1.546,4.024,26.0
40.374,1.531,3.746,42.0
40.425,1.535,3.516,43.0
42.554,1.629,4.885,35.0
40.686,1.559,4.432,38.0
40.521,1.554,4.178,29.0
40.458,1.552,3.932,32.0
40.388,1.551,3.69,40.0
40.442,1.554,3.461,43.0
0.0,0.0,0.0,0.0
40.563,1.573,4.361,28.0
40.823,1.584,4.15,37.0
40.448,1.57,3.872,38.0
40.479,1.573,3.64,44.0
40.481,1.574,3.406,38.0
42.286,1.657,4.731,2.0
40.452,1.586,4.289,41.0
40.895,1.604,4.097,16.0
40.352,1.583,3.804,40.0
40.331,1.583,3.567,39.0
40.388,1.587,3.338,37.0
40.659,1.609,4.488,39.0
40.514,1.604,4.235,40.0
40.449,1.602,3.992,34.0
40.488,1.604,3.756,28.0
40.413,1.602,3.514,46.0
40.379,1.601,3.277,50.0
40.617,1.622,4.421,38.0
40.585,1.621,4.18,40.0
40.416,1.615,3.927,37.0
40.48,1.618,3.693,26.0
40.548,1.621,3.463,36.0
40.435,1.617,3.219,43.0
40.689,1.638,4.366,36.0
40.535,1.632,4.112,30.0
40.457,1.629,3.868,41.0
40.381,1.626,3.621,41.0
40.383,1.626,3.387,41.0
40.512,1.632,3.162,37.0
40.556,1.644,4.287,31.0
40.423,1.639,4.037,37.0
40.559,1.645,3.813,35.0
40.472,1.641,3.565,43.0
40.343,1.636,3.319,42.0
40.609,1.647,3.105,38.0
40.596,1.656,4.227,32.0
40.435,1.649,3.973,40.0
40.909,1.669,3.781,16.0
40.788,1.663,3.528,22.0
40.354,1.645,3.256,41.0
40.707,1.659,3.048,41.0
40.602,1.666,4.161,38.0
40.398,1.656,3.904,41.0
40.378,1.655,3.666,35.0
40.56,1.662,3.442,30.0
40.373,1.654,3.192,41.0
40.861,1.674,2.993,36.0
40.989,1.689,4.133,16.0
40.385,1.663,3.836,44.0
40.406,1.663,3.602,46.0
40.336,1.659,3.357,39.0
40.412,1.662,3.128,42.0
40.695,1.673,2.913,35.0
40.558,1.677,4.022,24.0
40.618,1.678,3.79,24.0
40.613,1.677,3.552,29.0
40.374,1.666,3.293,39.0
40.544,1.672,3.07,45.0
41.002,1.69,2.867,23.0
40.509,1.678,3.949,39.0
40.452,1.675,3.707,24.0
40.651,1.682,3.487,30.0
40.396,1.67,3.226,40.0
40.685,1.681,3.013,40.0
41.175,1.7,2.81,23.0
40.404,1.677,3.87,46.0
40.366,1.674,3.63,44.0
40.388,1.673,3.396,43.0
40.395,1.672,3.157,38.0
40.683,1.682,2.943,34.0
41.014,1.695,2.729,25.0
40.545,1.683,3.814,41.0
40.492,1.679,3.572,41.0
40.411,1.675,3.329,38.0
40.486,1.676,3.095,43.0
40.783,1.687,2.88,32.0
45.196,1.868,2.93,4.0
40.711,1.69,3.758,21.0
40.682,1.687,3.517,28.0
40.42,1.674,3.259,40.0
40.631,1.681,3.035,43.0
41.198,1.702,2.838,27.0
44.806,1.849,2.826,4.0
40.376,1.673,3.656,43.0
40.407,1.672,3.422,41.0
40.434,1.672,3.189,38.0
40.718,1.681,2.97,33.0
41.062,1.694,2.757,18.0
44.724,1.843,2.743,27.0
40.444,1.672,3.591,46.0
40.386,1.668,3.35,41.0
40.459,1.669,3.12,44.0
40.723,1.677,2.898,30.0
45.248,1.861,2.957,4.0
44.702,1.836,2.662,32.0
40.757,1.68,3.546,21.0
40.339,1.66,3.274,42.0
40.682,1.672,3.064,47.0
41.174,1.689,2.857,15.0
41.138,1.685,2.615,27.0
65.767,2.691,3.799,34.0
40.576,1.665,3.457,32.0
40.397,1.655,3.205,43.0
40.847,1.671,3.003,36.0
44.862,1.832,3.033,3.0
44.691,1.822,2.761,11.0
65.785,2.678,3.682,40.0
40.331,1.646,3.363,42.0
40.62,1.655,3.15,42.0
40.987,1.667,2.94,33.0
41.098,1.669,2.705,34.0
44.743,1.813,2.684,23.0
65.795,2.662,3.565,41.0
40.345,1.636,3.291,42.0
40.7,1.648,3.082,40.0
44.835,1.812,3.134,4.0
41.131,1.659,2.631,37.0
65.368,2.631,3.802,40.0
0.0,0.0,0.0,0.0
40.462,1.629,3.227,40.0
40.809,1.64,3.016,38.0
45.032,1.806,3.066,3.0
44.7,1.789,2.779,6.0
65.849,2.629,3.711,39.0
65.437,2.608,3.309,6.0
40.506,1.617,3.156,50.0
40.827,1.626,2.943,37.0
44.866,1.784,2.973,13.0
44.687,1.772,2.697,8.0
65.858,2.606,3.592,8.0
66.249,2.616,3.228,7.0
40.659,1.608,3.094,46.0
40.922,1.615,2.875,36.0
44.829,1.765,2.889,9.0
65.822,2.585,3.853,39.0
72.801,2.852,3.838,4.0
66.212,2.588,3.107,18.0
40.74,1.594,3.025,43.0
41.186,1.608,2.818,44.0
41.176,1.603,2.578,4.0
65.203,2.533,3.697,18.0
65.649,2.543,3.341,15.0
66.168,2.557,2.983,19.0
40.702,1.574,2.948,45.0
44.841,1.73,2.986,33.0
65.377,2.515,3.974,27.0
64.609,2.479,3.545,17.0
66.205,2.533,3.248,25.0
66.191,2.526,2.863,19.0
40.839,1.559,2.883,37.0
44.8,1.706,2.901,3.0
65.816,2.498,3.879,35.0
66.28,2.509,3.515,19.0
66.25,2.501,3.129,26.0
72.55,2.73,3.005,16.0
40.951,1.542,2.815,42.0
65.97,2.476,4.151,8.0
0.0,0.0,0.0,0.0
66.189,2.469,3.389,40.0
66.299,2.466,3.011,7.0
72.536,2.69,2.874,4.0
44.804,1.661,2.998,8.0
65.764,2.431,4.019,33.0
0.0,0.0,0.0,0.0
66.069,2.426,3.262,35.0
72.486,2.653,3.159,24.0
72.46,2.643,2.738,22.0
44.828,1.634,2.917,10.0
66.204,2.406,3.923,22.0
66.339,2.402,3.546,27.0
72.397,2.612,3.442,27.0
72.435,2.605,3.024,31.0
72.415,2.595,2.603,29.0
65.818,2.357,4.162,16.0
66.365,2.367,3.81,25.0
72.267,2.569,3.729,25.0
72.382,2.563,3.308,37.0
72.403,2.554,2.889,37.0
72.392,2.545,2.469,34.0
65.905,2.314,4.045,24.0
72.154,2.523,4.009,30.0
72.312,2.518,3.598,12.0
72.371,2.51,3.173,39.0
72.398,2.501,2.754,38.0
72.385,2.491,2.334,35.0
66.471,2.284,3.957,14.0
72.235,2.471,3.879,30.0
72.337,2.465,3.465,34.0
72.397,2.457,3.04,38.0
72.41,2.447,2.621,40.0
72.409,2.436,2.201,34.0
72.503,2.435,4.181,27.0
72.315,2.417,3.749,21.0
72.371,2.408,3.332,35.0
72.446,2.4,2.909,33.0
72.459,2.391,2.49,32.0
72.452,2.38,2.07,33.0
72.214,2.366,4.032,26.0
72.508,2.365,3.628,21.0
72.469,2.352,3.205,30.0
72.53,2.343,2.779,23.0
72.521,2.331,2.358,5.0
72.537,2.32,1.938,9.0
72.573,2.315,3.918,10.0
72.518,2.302,3.494,16.0
78.726,2.486,3.336,4.0
190.663,5.993,6.958,23.0
211.367,6.609,6.488,11.0
74.376,2.314,1.853,6.0
72.73,2.255,3.794,5.0
115.454,3.561,5.352,14.0
78.821,2.418,3.196,10.0
78.902,2.407,2.735,10.0
78.956,2.396,2.28,5.0
74.841,2.259,1.728,4.0
82.252,2.473,4.142,8.0
117.895,3.525,5.252,6.0
78.813,2.344,3.055,10.0
78.863,2.331,2.591,29.0
78.891,2.319,2.135,4.0
76.0,2.221,1.617,4.0
65.545,1.907,3.182,7.0
79.232,2.292,3.387,5.0
78.792,2.266,2.912,19.0
78.819,2.253,2.449,27.0
77.329,2.196,1.955,3.0
76.885,2.171,1.5,2.0
78.85,2.215,3.686,24.0
78.805,2.2,3.228,25.0
78.798,2.185,2.771,31.0
78.818,2.172,2.307,35.0
78.849,2.159,1.853,36.0
78.854,2.144,1.397,30.0
78.799,2.132,3.544,37.0
78.805,2.117,3.087,31.0
78.82,2.103,2.632,27.0
78.89,2.09,2.17,35.0
78.92,2.076,1.714,36.0
78.944,2.062,1.258,33.0
78.828,2.046,3.405,29.0
78.832,2.031,2.948,30.0
78.923,2.019,2.496,12.0
120.006,3.048,3.09,25.0
120.014,3.026,2.396,22.0
85.341,2.136,1.211,15.0
115.805,2.878,4.801,4.0
78.855,1.944,2.812,25.0
85.309,2.087,2.55,27.0
85.253,2.069,2.046,30.0
85.267,2.052,1.553,33.0
85.261,2.035,1.061,33.0
85.299,2.021,3.387,15.0
85.25,2.003,2.892,32.0
85.233,1.986,2.399,36.0
85.229,1.969,1.898,39.0
85.252,1.953,1.407,38.0
85.25,1.936,0.915,33.0
78.889,1.776,2.996,25.0
85.27,1.902,2.746,38.0
85.228,1.884,2.252,39.0
85.242,1.866,1.751,39.0
85.259,1.849,1.259,40.0
85.256,1.832,0.768,26.0
85.314,1.816,3.094,30.0
85.354,1.799,2.602,26.0
85.364,1.781,2.109,26.0
85.379,1.763,1.608,23.0
85.415,1.747,1.117,21.0
85.29,1.726,0.623,17.0
91.762,1.838,3.173,28.0
91.841,1.821,2.646,25.0
88.157,1.728,2.03,6.0
87.59,1.698,1.504,12.0
91.993,1.765,1.05,4.0
84.919,1.611,0.479,12.0
91.843,1.721,3.022,32.0
91.786,1.7,2.49,36.0
91.702,1.679,1.96,13.0
90.065,1.629,1.396,3.0
91.864,1.641,0.894,23.0
84.429,1.491,0.336,3.0
91.924,1.601,2.872,17.0
91.864,1.58,2.341,34.0
91.877,1.559,1.811,37.0
91.893,1.538,1.272,48.0
91.842,1.517,0.743,26.0
77.441,1.262,0.181,3.0
92.127,1.479,2.728,3.0
189.682,3.004,4.523,11.0
91.987,1.435,1.663,18.0
92.019,1.414,1.124,24.0
91.98,1.392,0.594,11.0
75.786,1.13,0.053,1.0
98.55,1.446,2.758,28.0
98.645,1.424,2.193,26.0
98.548,1.4,1.623,30.0
98.581,1.377,1.047,27.0
85.259,1.171,0.414,13.0
0.0,0.0,0.0,0.0
98.524,1.306,2.601,33.0
98.569,1.283,2.034,31.0
98.467,1.257,1.465,29.0
98.473,1.235,0.889,19.0
81.268,0.999,0.266,4.0
0.0,0.0,0.0,0.0
98.564,1.163,2.446,26.0
98.558,1.14,1.88,32.0
98.561,1.115,1.313,31.0
98.227,1.088,0.734,11.0
80.7,0.874,0.139,5.0
0.0,0.0,0.0,0.0
98.757,1.02,2.299,16.0
98.69,0.994,1.729,20.0
98.673,0.97,1.163,28.0
97.995,0.939,0.581,6.0
0.0,0.0,0.0,0.0
53.36,0.485,-0.295,0.0
100.04,0.883,2.177,3.0
100.092,0.857,1.602,3.0
104.769,0.87,1.075,13.0
90.818,0.732,0.402,6.0
0.0,0.0,0.0,0.0
48.641,0.367,-0.343,0.0
101.528,0.74,2.057,1.0
100.658,0.707,1.461,1.0
104.906,0.709,0.919,27.0
86.506,0.562,0.252,6.0
0.0,0.0,0.0,0.0
46.004,0.275,-0.393,0.0
111.067,0.635,2.086,31.0
111.108,0.605,1.448,14.0
104.63,0.543,0.764,9.0
87.982,0.433,0.129,1.0
0.0,0.0,0.0,0.0
42.828,0.187,-0.429,1.0
119.864,0.494,2.078,37.0
111.166,0.429,1.289,10.0
103.984,0.374,0.611,6.0
0.0,0.0,0.0,0.0
50.427,0.154,-0.287,0.0
0.0,0.0,0.0,0.0
119.897,0.301,1.909,23.0
111.13,0.249,1.132,15.0
93.608,0.184,0.417,2.0
0.0,0.0,0.0,0.0
49.686,0.071,-0.352,0.0
38.338,0.044,-0.491,0.0
111.1,0.098,1.615,15.0
111.091,0.067,0.979,7.0
95.669,0.031,0.294,4.0
0.0,0.0,0.0,0.0
45.141,-0.009,-0.382,2.0
35.757,-0.018,-0.507,0.0
117.329,-0.091,1.546,13.0
111.054,-0.116,0.828,13.0
0.0,0.0,0.0,0.0
0.0,0.0,0.0,0.0
45.451,-0.086,-0.446,0.0
34.151,-0.074,-0.53,0.0
119.711,-0.295,1.417,20.0
111.019,-0.304,0.68,5.0
0.0,0.0,0.0,0.0
0.0,0.0,0.0,0.0
40.277,-0.145,-0.448,0.0
0.0,0.0,0.0,0.0
119.701,-0.499,1.262,19.0
105.438,-0.47,0.509,1.0
0.0,0.0,0.0,0.0
0.0,0.0,0.0,0.0
38.526,-0.205,-0.478,0.0
0.0,0.0,0.0,0.0
119.702,-0.705,1.111,15.0
0.0,0.0,0.0,0.0
0.0,0.0,0.0,0.0
0.0,0.0,0.0,0.0
37.231,-0.263,-0.509,0.0
29.918,-0.22,-0.579,0.0
119.691,-0.915,0.962,7.0
0.0,0.0,0.0,0.0
0.0,0.0,0.0,0.0
0.0,0.0,0.0,0.0
35.22,-0.311,-0.524,0.0
29.32,-0.268,-0.604,0.0
119.739,-1.128,0.818,26.0
0.0,0.0,0.0,0.0
0.0,0.0,0.0,0.0
0.0,0.0,0.0,0.0
0.0,0.0,0.0,0.0
28.387,-0.31,-0.618,0.0
0.0,0.0,0.0,0.0
0.0,0.0,0.0,0.0
0.0,0.0,0.0,0.0
0.0,0.0,0.0,0.0
0.0,0.0,0.0,0.0
27.932,-0.356,-0.64,0.0
0.0,0.0,0.0,0.0
0.0,0.0,0.0,0.0
49.66,-0.677,-0.341,0.0
37.693,-0.526,-0.477,0.0
0.0,0.0,0.0,0.0
26.766,-0.39,-0.644,0.0
0.0,0.0,0.0,0.0
0.0,0.0,0.0,0.0
46.751,-0.723,-0.372,1.0
0.0,0.0,0.0,0.0
30.527,-0.491,-0.594,0.0
25.993,-0.426,-0.653,0.0
0.0,0.0,0.0,0.0
59.291,-1.008,-0.198,0.0
46.794,-0.809,-0.422,0.0
35.029,-0.617,-0.519,0.0
29.303,-0.525,-0.6,0.0
0.0,0.0,0.0,0.0
0.0,0.0,0.0,0.0
0.0,0.0,0.0,0.0
44.855,-0.858,-0.45,0.0
33.788,-0.658,-0.534,0.0
29.086,-0.576,-0.625,0.0
24.621,-0.495,-0.669,0.0
0.0,0.0,0.0,0.0
0.0,0.0,0.0,0.0
0.0,0.0,0.0,0.0
33.426,-0.714,-0.562,0.0
27.732,-0.601,-0.624,0.0
18.155,-0.399,-0.511,12.0
0.0,0.0,0.0,0.0
0.0,0.0,0.0,0.0
0.0,0.0,0.0,0.0
0.0,0.0,0.0,0.0
0.0,0.0,0.0,0.0
18.146,-0.434,-0.528,107.0
0.0,0.0,0.0,0.0
48.062,-1.177,-0.348,1.0
0.0,0.0,0.0,0.0
30.722,-0.773,-0.574,0.0
21.886,-0.558,-0.533,156.0
21.875,-0.564,-0.657,70.0
49.01,-1.278,-0.121,0.0
44.373,-1.172,-0.361,0.0
0.0,0.0,0.0,0.0
21.919,-0.593,-0.429,27.0
21.87,-0.599,-0.552,215.0
21.861,-0.607,-0.675,86.0
59.59,-1.668,-0.199,0.0
44.411,-1.258,-0.399,2.0
0.0,0.0,0.0,0.0
29.217,-0.847,-0.596,0.0
21.903,-0.643,-0.571,151.0
21.866,-0.649,-0.694,14.0
55.077,-1.649,-0.23,0.0
41.45,-1.255,-0.407,0.0
35.013,-1.072,-0.542,0.0
29.0,-0.897,-0.615,0.0
24.885,-0.778,-0.669,0.0
21.899,-0.693,-0.712,11.0
0.0,0.0,0.0,0.0
41.526,-1.337,-0.44,1.0
33.733,-1.098,-0.548,0.0
28.753,-0.945,-0.632,0.0
24.218,-0.804,-0.669,0.0
21.48,-0.721,-0.715,0.0
0.0,0.0,0.0,0.0
41.443,-1.414,-0.469,0.0
32.631,-1.125,-0.554,0.0
27.538,-0.958,-0.625,0.0
23.777,-0.836,-0.674,0.0
21.074,-0.748,-0.717,0.0
0.0,0.0,0.0,0.0
38.313,-1.382,-0.461,0.0
0.0,0.0,0.0,0.0
27.1,-0.996,-0.634,0.0
23.454,-0.87,-0.681,0.0
20.808,-0.779,-0.722,0.0
48.168,-1.815,-0.34,0.0
38.218,-1.453,-0.485,0.0
31.163,-1.196,-0.571,0.0
26.639,-1.031,-0.641,0.0
23.357,-0.912,-0.693,0.0
20.51,-0.808,-0.724,0.0
47.682,-1.889,-0.367,0.0
37.207,-1.486,-0.495,0.0
30.212,-1.218,-0.572,0.0
0.0,0.0,0.0,0.0
22.901,-0.939,-0.694,0.0
20.444,-0.846,-0.734,0.0
47.142,-1.961,-0.39,0.0
38.354,-1.608,-0.533,0.0
0.0,0.0,0.0,0.0
25.833,-1.101,-0.652,0.0
22.532,-0.969,-0.695,0.0
20.1,-0.871,-0.734,0.0
43.168,-1.879,-0.381,0.0
0.0,0.0,0.0,0.0
29.473,-1.304,-0.591,0.0
25.606,-1.142,-0.66,0.0
22.131,-0.995,-0.695,0.0
19.556,-0.886,-0.724,0.0
20.018,-0.91,-0.187,10.0
20.02,-0.918,-0.299,9.0
20.069,-0.927,-0.413,3.0
24.533,-1.142,-0.645,0.0
21.854,-1.025,-0.697,0.0
19.778,-0.935,-0.742,2.0
19.998,-0.949,-0.196,30.0
20.009,-0.957,-0.308,27.0
20.046,-0.965,-0.421,24.0
20.054,-0.973,-0.536,18.0
20.072,-0.981,-0.649,1.0
19.803,-0.975,-0.752,1.0
19.989,-0.988,-0.205,34.0
20.011,-0.996,-0.317,27.0
20.036,-1.004,-0.43,29.0
20.06,-1.013,-0.545,29.0
20.05,-1.019,-0.657,16.0
19.813,-1.015,-0.76,0.0
20.022,-1.028,-0.213,29.0
20.029,-1.036,-0.325,17.0
20.04,-1.043,-0.438,19.0
20.08,-1.053,-0.553,23.0
20.071,-1.059,-0.665,9.0
19.458,-1.034,-0.754,0.0
41.031,-2.188,-0.452,0.0
0.0,0.0,0.0,0.0
28.52,-1.541,-0.633,0.0
23.682,-1.288,-0.66,0.0
21.424,-1.173,-0.717,0.0
19.28,-1.063,-0.753,0.0
0.0,0.0,0.0,0.0
0.0,0.0,0.0,0.0
28.0,-1.567,-0.63,0.0
23.619,-1.33,-0.665,1.0
21.119,-1.197,-0.713,0.0
19.106,-1.09,-0.752,0.0
19.98,-1.143,-0.232,0.0
19.999,-1.151,-0.343,1.0
19.997,-1.158,-0.455,14.0
19.977,-1.164,-0.568,51.0
19.961,-1.171,-0.679,16.0
19.71,-1.163,-0.78,1.0
19.989,-1.182,-0.237,151.0
19.993,-1.189,-0.348,151.0
19.977,-1.196,-0.459,150.0
19.978,-1.203,-0.572,150.0
19.97,-1.21,-0.684,7.0
19.723,-1.202,-0.785,0.0
20.008,-1.222,-0.241,17.0
20.078,-1.233,-0.353,9.0
20.107,-1.242,-0.466,11.0
20.116,-1.25,-0.58,7.0
20.064,-1.254,-0.69,9.0
20.017,-1.258,-0.8,1.0
20.046,-1.262,-0.244,28.0
20.07,-1.271,-0.356,28.0
20.091,-1.279,-0.468,29.0
20.102,-1.287,-0.582,28.0
20.081,-1.293,-0.694,12.0
19.918,-1.29,-0.799,1.0
20.027,-1.299,-0.247,33.0
20.055,-1.308,-0.358,27.0
20.078,-1.316,-0.47,29.0
20.11,-1.325,-0.585,22.0
20.11,-1.333,-0.697,10.0
0.0,0.0,0.0,0.0
20.04,-1.337,-0.248,24.0
20.054,-1.345,-0.36,17.0
20.088,-1.355,-0.472,6.0
23.355,-1.584,-0.681,0.0
20.162,-1.374,-0.7,0.0
18.65,-1.278,-0.751,0.0
20.06,-1.377,-0.25,2.0
0.0,0.0,0.0,0.0
26.983,-1.871,-0.635,0.0
23.284,-1.622,-0.679,0.0
20.248,-1.418,-0.703,1.0
18.859,-1.328,-0.759,0.0
0.0,0.0,0.0,0.0
32.148,-2.277,-0.578,0.0
27.12,-1.93,-0.638,0.0
23.442,-1.677,-0.683,0.0
21.088,-1.516,-0.732,0.0
19.017,-1.374,-0.765,0.0
0.0,0.0,0.0,0.0
0.0,0.0,0.0,0.0
0.0,0.0,0.0,0.0
22.916,-1.681,-0.667,0.0
20.758,-1.53,-0.719,0.0
18.816,-1.394,-0.756,0.0
36.582,-2.712,-0.452,1.0
31.773,-2.367,-0.568,0.0
27.0,-2.021,-0.632,0.0
23.478,-1.765,-0.681,0.0
20.925,-1.581,-0.723,0.0
18.855,-1.431,-0.756,0.0
33.769,-2.566,-0.413,2.0
32.764,-2.501,-0.582,0.0
27.273,-2.091,-0.635,0.0
23.455,-1.806,-0.678,0.0
21.205,-1.641,-0.73,0.0
18.849,-1.465,-0.753,0.0
32.996,-2.566,-0.399,1.0
30.261,-2.364,-0.533,1.0
27.123,-2.128,-0.627,0.0
0.0,0.0,0.0,0.0
21.215,-1.679,-0.727,0.0
18.864,-1.5,-0.75,0.0
32.778,-2.607,-0.391,15.0
28.488,-2.276,-0.496,2.0
27.844,-2.234,-0.638,0.0
23.501,-1.894,-0.671,0.0
21.137,-1.71,-0.72,0.0
18.919,-1.538,-0.748,0.0
35.4,-2.879,-0.414,3.0
27.892,-2.278,-0.479,1.0
25.925,-2.126,-0.588,1.0
23.246,-1.914,-0.658,0.0
21.339,-1.764,-0.721,0.0
19.177,-1.592,-0.754,0.0
35.069,-2.913,-0.401,35.0
28.355,-2.364,-0.48,15.0
24.496,-2.051,-0.549,2.0
24.063,-2.023,-0.674,0.0
21.369,-1.804,-0.716,0.0
19.189,-1.626,-0.749,0.0
35.655,-3.023,-0.398,16.0
27.783,-2.364,-0.462,26.0
24.21,-2.068,-0.536,2.0
22.88,-1.962,-0.634,1.0
21.511,-1.852,-0.714,0.0
19.092,-1.651,-0.739,0.0
29.898,-2.585,-0.323,0.0
28.249,-2.452,-0.461,25.0
24.428,-2.128,-0.532,6.0
21.722,-1.9,-0.594,2.0
21.539,-1.891,-0.708,0.0
19.476,-1.717,-0.747,0.0
29.938,-2.639,-0.313,0.0
28.67,-2.537,-0.457,24.0
23.883,-2.121,-0.511,23.0
21.397,-1.908,-0.577,2.0
20.34,-1.82,-0.66,1.0
19.895,-1.787,-0.755,0.0
29.985,-2.693,-0.302,1.0
28.798,-2.596,-0.447,24.0
22.939,-2.075,-0.482,11.0
21.656,-1.966,-0.575,4.0
19.512,-1.778,-0.625,1.0
19.235,-1.759,-0.722,0.0
0.0,0.0,0.0,0.0
28.82,-2.645,-0.435,22.0
23.442,-2.158,-0.482,5.0
21.394,-1.977,-0.559,12.0
19.277,-1.787,-0.609,2.0
18.322,-1.705,-0.679,1.0
0.0,0.0,0.0,0.0
0.0,0.0,0.0,0.0
35.636,-4.088,-0.302,20.0
28.027,-3.221,-0.391,15.0
22.681,-2.611,-0.439,21.0
20.13,-2.322,-0.498,17.0
51.496,-5.939,0.165,17.0
42.303,-4.887,-0.091,15.0
36.035,-4.17,-0.271,14.0
28.352,-3.287,-0.369,11.0
23.018,-2.673,-0.423,21.0
20.487,-2.383,-0.487,18.0
51.487,-5.988,0.214,4.0
0.0,0.0,0.0,0.0
36.97,-4.314,-0.243,15.0
29.203,-3.413,-0.352,19.0
23.571,-2.759,-0.411,21.0
20.6,-2.416,-0.47,19.0
75.145,-8.81,0.386,10.0
46.303,-5.437,-0.01,20.0
37.782,-4.443,-0.211,20.0
29.978,-3.531,-0.332,22.0
24.212,-2.856,-0.398,23.0
21.321,-2.519,-0.465,20.0
83.207,-9.83,0.509,13.0
46.84,-5.541,0.035,20.0
38.532,-4.565,-0.178,17.0
30.542,-3.624,-0.308,14.0
24.801,-2.947,-0.383,23.0
21.693,-2.582,-0.452,20.0
84.212,-10.02,0.599,17.0
0.0,0.0,0.0,0.0
38.975,-4.65,-0.141,14.0
35.298,-4.217,-0.321,15.0
25.233,-3.019,-0.365,16.0
22.213,-2.662,-0.44,21.0
84.84,-10.164,0.691,9.0
51.23,-6.145,0.142,25.0
41.525,-4.987,-0.107,17.0
35.618,-4.284,-0.286,24.0
28.273,-3.405,-0.379,3.0
22.519,-2.716,-0.423,21.0
90.089,-10.863,0.829,6.0
52.106,-6.29,0.199,5.0
45.455,-5.494,-0.07,10.0
36.136,-4.373,-0.253,16.0
0.0,0.0,0.0,0.0
22.992,-2.789,-0.407,23.0
90.593,-10.989,0.928,7.0
63.19,-7.674,0.309,6.0
45.64,-5.548,-0.021,20.0
37.328,-4.543,-0.221,16.0
29.433,-3.587,-0.333,31.0
23.678,-2.889,-0.394,23.0
73.218,-8.931,0.828,1.0
83.542,-10.201,0.496,12.0
46.426,-5.675,0.027,21.0
38.267,-4.683,-0.186,23.0
30.134,-3.691,-0.308,21.0
24.223,-2.971,-0.377,21.0
73.24,-8.981,0.907,27.0
84.585,-10.382,0.594,11.0
47.431,-5.827,0.079,10.0
38.764,-4.767,-0.146,14.0
35.431,-4.362,-0.324,3.0
25.025,-3.084,-0.363,21.0
73.351,-9.039,0.989,21.0
85.473,-10.541,0.694,4.0
0.0,0.0,0.0,0.0
0.0,0.0,0.0,0.0
35.845,-4.432,-0.288,12.0
25.565,-3.164,-0.342,19.0
76.709,-9.494,1.118,6.0
90.738,-11.239,0.837,4.0
52.374,-6.492,0.202,8.0
0.0,0.0,0.0,0.0
36.238,-4.5,-0.251,16.0
0.0,0.0,0.0,0.0
76.656,-9.526,1.203,20.0
76.647,-9.532,0.792,9.0
66.941,-8.331,0.333,3.0
0.0,0.0,0.0,0.0
37.341,-4.654,-0.217,16.0
0.0,0.0,0.0,0.0
76.625,-9.558,1.288,23.0
76.609,-9.561,0.877,18.0
76.617,-9.568,0.467,10.0
46.609,-5.824,0.03,21.0
38.206,-4.778,-0.179,20.0
30.282,-3.789,-0.304,10.0
76.619,-9.588,1.374,20.0
76.602,-9.591,0.963,18.0
76.569,-9.592,0.552,17.0
47.773,-5.988,0.084,10.0
38.715,-4.856,-0.139,14.0
35.397,-4.442,-0.316,4.0
76.67,-9.623,1.461,13.0
76.579,-9.615,1.049,21.0
76.556,-9.617,0.639,22.0
50.701,-6.372,0.146,7.0
0.0,0.0,0.0,0.0
35.799,-4.504,-0.28,17.0
87.065,-10.955,1.756,10.0
76.617,-9.644,1.136,20.0
76.594,-9.644,0.725,26.0
52.477,-6.61,0.21,6.0
0.0,0.0,0.0,0.0
36.536,-4.606,-0.244,13.0
86.944,-10.963,1.852,20.0
76.643,-9.667,1.222,15.0
76.579,-9.662,0.812,25.0
76.533,-9.659,0.395,10.0
0.0,0.0,0.0,0.0
37.467,-4.732,-0.207,17.0
86.64,-10.945,1.947,11.0
76.723,-9.694,1.313,12.0
76.569,-9.677,0.901,19.0
76.557,-9.678,0.482,25.0
46.939,-5.935,0.044,21.0
38.287,-4.843,-0.167,17.0
69.938,-8.848,1.651,3.0
76.721,-9.707,1.401,7.0
76.595,-9.692,0.989,16.0
76.525,-9.685,0.57,24.0
47.798,-6.051,0.1,7.0
0.0,0.0,0.0,0.0
69.845,-8.846,1.73,4.0
87.129,-11.035,1.692,3.0
76.618,-9.704,1.077,9.0
76.538,-9.695,0.658,22.0
0.0,0.0,0.0,0.0
43.118,-5.463,-0.09,3.0
69.776,-8.843,1.808,5.0
86.747,-10.993,1.785,9.0
76.659,-9.714,1.167,3.0
76.555,-9.701,0.747,19.0
65.555,-8.308,0.288,6.0
45.896,-5.817,-0.043,10.0
69.679,-8.834,1.886,4.0
86.819,-11.005,1.884,16.0
135.967,-17.233,2.223,5.0
76.544,-9.701,0.834,17.0
76.479,-9.692,0.424,11.0
46.374,-5.877,0.009,21.0
69.75,-8.842,1.968,4.0
87.048,-11.033,1.989,10.0
76.718,-9.722,1.342,4.0
76.587,-9.703,0.922,19.0
76.544,-9.697,0.511,20.0
47.415,-6.006,0.063,21.0
69.741,-8.837,2.047,4.0
69.809,-8.843,1.674,4.0
76.699,-9.714,1.428,3.0
76.598,-9.698,1.009,13.0
76.561,-9.692,0.598,25.0
50.577,-6.401,0.124,6.0
69.797,-8.838,2.127,4.0
69.872,-8.844,1.755,4.0
87.034,-11.012,1.719,13.0
76.603,-9.689,1.095,11.0
76.55,-9.68,0.684,22.0
52.257,-6.606,0.187,9.0
69.882,-8.838,2.209,3.0
69.969,-8.845,1.836,4.0
86.942,-10.986,1.815,39.0
76.643,-9.681,1.182,14.0
76.568,-9.668,0.769,23.0
76.555,-9.663,0.359,9.0
69.994,-8.839,2.29,4.0
70.148,-8.854,1.919,4.0
86.612,-10.926,1.905,10.0
76.627,-9.662,1.266,15.0
76.567,-9.65,0.856,21.0
76.562,-9.645,0.444,20.0
70.25,-8.855,2.377,4.0
70.479,-8.878,2.006,4.0
94.072,-11.843,2.174,4.0
76.65,-9.644,1.352,15.0
76.59,-9.631,0.94,20.0
76.566,-9.624,0.529,23.0
70.543,-8.872,2.466,3.0
75.704,-9.514,2.239,5.0
75.492,-9.481,1.827,6.0
76.649,-9.62,1.436,13.0
76.613,-9.61,1.024,22.0
76.584,-9.601,0.613,20.0
75.043,-9.413,2.704,11.0
78.732,-9.868,2.415,12.0
75.512,-9.457,1.91,19.0
76.659,-9.594,1.52,15.0
76.614,-9.581,1.108,20.0
76.616,-9.575,0.698,21.0
75.257,-9.412,2.794,21.0
78.825,-9.849,2.503,32.0
75.431,-9.417,1.99,16.0
76.653,-9.562,1.603,20.0
76.632,-9.552,1.191,22.0
76.626,-9.544,0.779,10.0
0.0,0.0,0.0,0.0
78.747,-9.805,2.586,11.0
75.308,-9.368,2.067,13.0
76.668,-9.529,1.685,18.0
76.638,-9.517,1.272,23.0
73.248,-9.089,0.822,21.0
73.725,-9.154,2.894,10.0
75.208,-9.329,2.548,37.0
75.164,-9.314,2.142,7.0
76.69,-9.494,1.766,11.0
76.687,-9.485,1.354,18.0
73.299,-9.058,0.899,16.0
0.0,0.0,0.0,0.0
75.136,-9.281,2.625,37.0
76.714,-9.466,2.266,17.0
72.936,-8.99,1.755,12.0
76.691,-9.443,1.432,10.0
73.345,-9.022,0.976,19.0
75.545,-9.3,3.123,15.0
75.353,-9.266,2.709,28.0
76.729,-9.424,2.345,13.0
72.931,-8.947,1.828,8.0
76.778,-9.409,1.511,4.0
73.398,-8.985,1.051,22.0
75.649,-9.268,3.204,11.0
0.0,0.0,0.0,0.0
75.255,-9.197,2.376,16.0
87.394,-10.667,2.278,8.0
73.377,-8.946,1.518,10.0
73.541,-8.955,1.126,14.0
0.0,0.0,0.0,0.0
75.435,-9.181,2.862,24.0
75.356,-9.16,2.452,20.0
86.974,-10.558,2.353,9.0
73.346,-8.893,1.588,8.0
73.566,-8.909,1.197,10.0
74.002,-8.969,3.279,8.0
75.721,-9.164,2.947,14.0
77.822,-9.405,2.608,11.0
72.887,-8.796,2.042,17.0
73.463,-8.854,1.661,10.0
73.376,-8.832,1.265,7.0
73.819,-8.893,3.342,26.0
75.73,-9.109,3.019,8.0
78.213,-9.394,2.696,12.0
78.7,-9.439,2.28,14.0
73.254,-8.773,1.726,6.0
73.187,-8.753,1.329,26.0
73.702,-8.822,3.407,30.0
73.708,-8.809,3.008,11.0
78.436,-9.36,2.776,13.0
78.693,-9.376,2.352,12.0
72.976,-8.682,1.786,19.0
73.021,-8.674,1.393,14.0
73.397,-8.727,3.459,30.0
73.477,-8.721,3.065,16.0
75.374,-8.932,2.737,10.0
78.479,-9.285,2.416,14.0
73.181,-8.645,1.857,12.0
73.597,-8.68,1.47,5.0
73.305,-8.653,3.521,25.0
73.624,-8.675,3.138,14.0
73.26,-8.618,2.725,14.0
78.51,-9.22,2.486,13.0
73.346,-8.599,1.926,7.0
73.395,-8.591,1.531,10.0
71.76,-8.407,3.51,10.0
73.664,-8.614,3.203,31.0
74.765,-8.727,2.845,3.0
74.456,-8.675,2.423,19.0
73.25,-8.52,1.987,6.0
73.445,-8.528,1.595,7.0
71.93,-8.36,3.579,11.0
73.322,-8.505,3.25,48.0
72.512,-8.395,2.82,18.0
74.482,-8.607,2.486,14.0
78.253,-9.026,2.188,4.0
75.087,-8.646,1.692,16.0
72.889,-8.401,3.687,20.0
73.348,-8.436,3.312,37.0
72.896,-8.368,2.896,22.0
0.0,0.0,0.0,0.0
74.771,-8.55,2.15,17.0
74.766,-8.534,1.745,22.0
72.825,-8.32,3.743,17.0
73.528,-8.383,3.378,36.0
72.853,-8.289,2.951,13.0
74.99,-8.514,2.622,21.0
74.337,-8.424,2.196,16.0
74.271,-8.4,1.79,37.0
70.884,-8.024,3.697,6.0
72.495,-8.189,3.386,25.0
0.0,0.0,0.0,0.0
74.044,-8.328,2.645,36.0
74.633,-8.377,2.261,13.0
74.499,-8.345,1.852,44.0
33.208,-3.723,1.756,41.0
33.201,-3.714,1.575,34.0
33.206,-3.706,1.394,27.0
33.192,-3.696,1.21,9.0
33.176,-3.687,1.029,1.0
75.069,-8.326,1.92,21.0
33.189,-3.684,1.779,82.0
33.176,-3.674,1.598,81.0
33.169,-3.665,1.416,78.0
33.17,-3.657,1.232,76.0
33.159,-3.647,1.051,71.0
33.15,-3.639,0.87,58.0
33.191,-3.646,1.802,76.0
33.18,-3.636,1.62,79.0
33.16,-3.625,1.438,82.0
33.154,-3.616,1.254,81.0
33.149,-3.607,1.073,77.0
