X,Y,Z,Reflectivity
11.547,0.398,-0.853,0.0
10.972,0.376,-0.87,0.0
10.389,0.353,-0.881,0.0
9.92,0.335,-0.895,0.0
9.506,0.319,-0.909,0.0
12.553,0.419,-0.846,0.0
11.672,0.387,-0.849,0.0
11.115,0.366,-0.869,1.0
10.464,0.342,-0.875,0.0
10.023,0.325,-0.893,0.0
9.566,0.308,-0.904,0.0
12.828,0.411,-0.849,0.0
11.85,0.377,-0.848,0.0
11.245,0.355,-0.865,1.0
10.653,0.334,-0.878,0.0
10.155,0.316,-0.892,0.0
9.706,0.3,-0.905,0.0
13.134,0.404,-0.854,0.0
12.055,0.368,-0.848,0.0
11.385,0.345,-0.862,0.0
10.817,0.326,-0.879,0.0
10.252,0.307,-0.888,0.0
9.774,0.29,-0.899,0.0
13.277,0.392,-0.847,0.0
12.32,0.361,-0.852,0.0
11.461,0.333,-0.854,0.0
10.923,0.315,-0.873,0.0
10.34,0.296,-0.882,0.0
9.906,0.282,-0.899,0.0
13.53,0.382,-0.845,0.0
12.451,0.349,-0.845,0.0
11.645,0.324,-0.852,0.0
11.078,0.306,-0.871,0.0
10.467,0.287,-0.88,0.0
10.02,0.272,-0.896,0.0
13.711,0.37,-0.839,0.0
12.642,0.339,-0.841,0.0
11.821,0.314,-0.849,0.0
11.229,0.296,-0.868,1.0
10.634,0.278,-0.879,0.0
10.138,0.263,-0.893,0.0
13.912,0.359,-0.832,0.0
13.004,0.333,-0.847,0.0
12.05,0.306,-0.849,0.0
11.388,0.287,-0.865,1.0
10.798,0.269,-0.878,0.0
10.22,0.253,-0.886,0.0
14.181,0.349,-0.829,0.0
13.218,0.322,-0.843,0.0
12.31,0.298,-0.85,0.0
11.462,0.275,-0.854,0.0
10.982,0.261,-0.877,0.0
10.381,0.245,-0.885,0.0
14.516,0.34,-0.828,0.0
13.53,0.314,-0.843,0.0
12.491,0.287,-0.845,0.0
11.678,0.266,-0.853,0.0
11.129,0.252,-0.873,0.0
10.474,0.235,-0.877,0.0
14.773,0.329,-0.82,0.0
13.767,0.304,-0.838,0.0
12.906,0.282,-0.854,0.0
11.854,0.257,-0.849,0.0
11.283,0.242,-0.868,1.0
10.69,0.227,-0.879,0.0
15.082,0.319,-0.815,0.0
14.039,0.294,-0.833,0.0
13.124,0.272,-0.848,0.0
12.164,0.25,-0.852,0.0
11.406,0.232,-0.86,0.0
10.877,0.219,-0.878,0.0
15.394,0.308,-0.809,0.0
14.385,0.285,-0.832,0.0
13.361,0.262,-0.843,0.0
12.398,0.241,-0.85,0.0
11.583,0.223,-0.855,0.0
11.077,0.211,-0.877,0.0
15.84,0.3,-0.807,0.0
14.622,0.274,-0.823,0.0
13.725,0.255,-0.845,0.0
12.594,0.231,-0.843,0.0
11.784,0.214,-0.851,0.0
11.238,0.202,-0.871,0.0
16.27,0.291,-0.803,0.0
15.0,0.265,-0.82,0.0
13.852,0.242,-0.83,0.0
13.016,0.225,-0.85,0.0
12.079,0.207,-0.853,0.0
11.388,0.193,-0.864,0.0
16.661,0.28,-0.796,0.0
15.38,0.256,-0.815,0.0
14.278,0.235,-0.832,0.0
13.288,0.216,-0.846,0.0
12.354,0.199,-0.852,0.0
11.54,0.183,-0.856,0.0
17.183,0.272,-0.792,0.0
15.73,0.246,-0.808,0.0
14.635,0.226,-0.828,0.0
13.574,0.207,-0.841,0.0
12.62,0.19,-0.849,0.0
11.775,0.175,-0.854,0.0
17.601,0.261,-0.781,1.0
16.198,0.237,-0.804,0.0
14.881,0.215,-0.817,0.0
13.878,0.198,-0.837,0.0
13.081,0.185,-0.857,0.0
12.055,0.168,-0.854,0.0
18.161,0.252,-0.776,0.0
16.58,0.227,-0.795,0.0
15.395,0.208,-0.819,0.0
14.21,0.19,-0.832,0.0
13.328,0.176,-0.851,0.0
12.402,0.161,-0.857,0.0
18.578,0.24,-0.761,0.0
17.0,0.217,-0.786,0.0
15.628,0.197,-0.804,0.0
14.569,0.181,-0.828,0.0
13.609,0.167,-0.845,0.0
12.629,0.153,-0.85,0.0
19.15,0.231,-0.751,0.0
17.529,0.208,-0.779,0.0
16.172,0.189,-0.804,0.0
14.921,0.172,-0.821,0.0
13.893,0.158,-0.837,0.0
13.016,0.146,-0.853,0.0
20.057,0.224,-0.751,0.0
18.023,0.198,-0.768,0.0
16.61,0.18,-0.795,0.0
15.298,0.163,-0.813,0.0
14.254,0.15,-0.833,0.0
13.338,0.138,-0.849,0.0
20.509,0.211,-0.73,0.0
18.656,0.189,-0.761,0.0
17.023,0.17,-0.783,0.0
15.768,0.155,-0.81,0.0
14.61,0.141,-0.827,0.0
13.724,0.131,-0.848,0.0
21.474,0.204,-0.725,0.0
19.301,0.18,-0.752,0.0
17.637,0.162,-0.779,0.0
16.218,0.147,-0.803,0.0
15.08,0.134,-0.825,0.0
13.968,0.122,-0.837,0.0
22.444,0.195,-0.716,0.0
20.173,0.173,-0.748,0.0
18.268,0.154,-0.772,0.0
16.676,0.138,-0.794,0.0
15.443,0.125,-0.816,0.0
14.391,0.115,-0.835,0.0
23.365,0.186,-0.7,0.0
20.89,0.163,-0.735,0.0
18.874,0.145,-0.762,0.0
17.246,0.13,-0.788,0.0
15.895,0.117,-0.809,0.0
14.791,0.107,-0.83,0.0
24.335,0.176,-0.683,0.0
21.519,0.152,-0.715,0.0
19.547,0.136,-0.751,0.0
17.839,0.122,-0.78,0.0
16.4,0.11,-0.803,0.0
15.19,0.1,-0.822,0.0
25.975,0.169,-0.678,0.0
22.494,0.144,-0.704,0.0
20.236,0.127,-0.738,0.0
18.4,0.113,-0.769,0.0
16.883,0.101,-0.793,0.0
15.644,0.092,-0.816,0.0
26.632,0.156,-0.643,0.0
23.707,0.136,-0.695,0.0
21.252,0.119,-0.733,0.0
19.045,0.104,-0.758,0.0
17.519,0.094,-0.788,0.0
16.075,0.084,-0.806,0.0
28.228,0.147,-0.625,0.0
25.142,0.128,-0.686,0.0
22.063,0.11,-0.717,0.0
19.798,0.096,-0.748,0.0
18.159,0.086,-0.78,0.0
16.65,0.077,-0.802,0.0
0.0,0.0,0.0,0.0
26.227,0.119,-0.664,0.0
23.014,0.102,-0.702,0.0
20.6,0.089,-0.737,0.0
18.691,0.078,-0.765,0.0
17.121,0.07,-0.789,0.0
31.851,0.13,-0.577,0.0
0.0,0.0,0.0,0.0
24.15,0.093,-0.687,0.0
21.454,0.081,-0.723,0.0
19.526,0.071,-0.759,0.0
17.816,0.063,-0.785,0.0
34.693,0.123,-0.558,0.0
29.286,0.101,-0.622,0.0
25.608,0.086,-0.676,0.0
22.35,0.073,-0.708,0.0
20.279,0.064,-0.747,0.0
18.386,0.056,-0.773,0.0
0.0,0.0,0.0,0.0
30.874,0.092,-0.593,0.0
26.6,0.076,-0.648,0.0
23.637,0.066,-0.7,0.0
21.021,0.057,-0.731,0.0
19.141,0.05,-0.765,0.0
40.205,0.105,-0.481,0.0
33.973,0.086,-0.582,0.0
28.798,0.07,-0.642,0.0
0.0,0.0,0.0,0.0
22.286,0.051,-0.729,0.0
19.718,0.043,-0.747,0.0
42.865,0.094,-0.423,1.0
35.91,0.076,-0.54,0.0
30.083,0.061,-0.607,0.0
26.208,0.051,-0.667,0.0
23.068,0.043,-0.706,0.0
20.757,0.037,-0.742,0.0
0.0,0.0,0.0,0.0
37.792,0.065,-0.489,0.0
0.0,0.0,0.0,0.0
0.0,0.0,0.0,0.0
24.251,0.037,-0.691,0.0
21.525,0.031,-0.724,0.0
40.821,0.059,-0.232,0.0
42.835,0.06,-0.464,1.0
0.0,0.0,0.0,0.0
28.842,0.036,-0.613,0.0
25.594,0.031,-0.676,0.0
22.634,0.026,-0.714,0.0
0.0,0.0,0.0,0.0
45.658,0.05,-0.399,2.0
37.357,0.038,-0.518,0.0
31.156,0.03,-0.596,0.0
26.85,0.025,-0.652,0.0
23.738,0.021,-0.698,0.0
0.0,0.0,0.0,0.0
0.0,0.0,0.0,0.0
40.291,0.031,-0.474,0.0
0.0,0.0,0.0,0.0
28.576,0.019,-0.633,0.0
24.73,0.016,-0.675,0.0
0.0,0.0,0.0,0.0
55.376,0.033,-0.249,0.0
45.143,0.025,-0.435,2.0
35.47,0.018,-0.528,0.0
30.744,0.015,-0.616,0.0
26.661,0.012,-0.672,0.0
95.748,0.042,0.262,2.0
0.0,0.0,0.0,0.0
0.0,0.0,0.0,0.0
38.408,0.013,-0.49,0.0
32.199,0.01,-0.577,0.0
0.0,0.0,0.0,0.0
0.0,0.0,0.0,0.0
0.0,0.0,0.0,0.0
55.109,0.012,-0.296,0.0
44.86,0.009,-0.477,0.0
0.0,0.0,0.0,0.0
0.0,0.0,0.0,0.0
110.914,0.017,0.78,12.0
95.249,0.013,0.18,1.0
0.0,0.0,0.0,0.0
45.659,0.004,-0.388,1.0
0.0,0.0,0.0,0.0
31.694,0.002,-0.595,0.0
117.313,0.008,1.076,9.0
0.0,0.0,0.0,0.0
0.0,0.0,0.0,0.0
0.0,0.0,0.0,0.0
40.371,0.001,-0.463,0.0
34.472,0.0,-0.573,0.0
111.158,0.002,1.258,13.0
110.707,0.001,0.684,12.0
0.0,0.0,0.0,0.0
0.0,0.0,0.0,0.0
45.118,0.0,-0.422,2.0
37.371,0.0,-0.542,0.0
111.158,0.0,1.495,12.0
117.266,0.0,0.977,6.0
97.272,0.001,0.31,1.0
0.0,0.0,0.0,0.0
0.0,0.0,0.0,0.0
40.29,0.001,-0.497,0.0
111.231,0.003,1.735,7.0
117.293,0.004,1.227,12.0
110.56,0.005,0.589,5.0
0.0,0.0,0.0,0.0
0.0,0.0,0.0,0.0
44.995,0.003,-0.458,1.0
112.813,0.01,2.005,5.0
111.11,0.012,1.403,12.0
111.135,0.014,0.831,10.0
95.949,0.013,0.215,1.0
0.0,0.0,0.0,0.0
45.974,0.008,-0.37,0.0
113.965,0.021,2.27,7.0
111.109,0.024,1.642,8.0
111.208,0.026,1.071,9.0
0.0,0.0,0.0,0.0
0.0,0.0,0.0,0.0
54.993,0.017,-0.323,0.0
114.495,0.037,2.528,9.0
112.649,0.04,1.907,8.0
111.082,0.043,1.31,16.0
110.686,0.047,0.725,11.0
95.717,0.044,0.135,1.0
0.0,0.0,0.0,0.0
117.425,0.059,2.845,18.0
112.957,0.061,2.155,4.0
117.287,0.068,1.635,9.0
111.164,0.069,0.965,6.0
95.606,0.063,0.339,4.0
0.0,0.0,0.0,0.0
117.426,0.084,3.097,20.0
113.881,0.086,2.416,8.0
117.36,0.095,1.887,5.0
111.157,0.095,1.205,17.0
110.64,0.1,0.629,7.0
0.0,0.0,0.0,0.0
70.124,0.068,2.0,25.0
117.405,0.119,2.743,6.0
112.537,0.12,2.05,8.0
111.112,0.125,1.439,17.0
111.131,0.131,0.867,8.0
95.107,0.118,0.253,1.0
69.959,0.087,2.142,17.0
117.447,0.154,2.991,16.0
112.623,0.154,2.288,7.0
111.036,0.159,1.672,11.0
111.183,0.166,1.101,16.0
103.267,0.161,0.492,3.0
69.897,0.11,2.288,28.0
70.105,0.115,1.933,25.0
113.136,0.193,2.538,5.0
117.407,0.208,2.015,9.0
111.069,0.205,1.334,21.0
110.767,0.212,0.761,8.0
69.909,0.135,2.436,25.0
69.958,0.14,2.076,26.0
117.464,0.244,2.88,3.0
195.218,0.421,3.762,5.0
111.122,0.248,1.567,13.0
111.141,0.256,0.994,16.0
70.075,0.163,2.588,28.0
69.778,0.168,2.216,35.0
70.23,0.174,1.867,11.0
119.84,0.308,2.557,29.0
119.843,0.318,1.939,20.0
111.133,0.304,1.225,10.0
70.233,0.193,2.739,20.0
69.946,0.199,2.366,28.0
70.148,0.205,2.01,21.0
119.861,0.362,2.805,4.0
119.86,0.373,2.187,8.0
119.793,0.384,1.567,11.0
70.174,0.226,2.882,8.0
70.171,0.233,2.519,30.0
69.834,0.238,2.145,38.0
119.814,0.42,3.049,18.0
119.852,0.431,2.43,89.0
119.893,0.443,1.812,72.0
70.148,0.261,3.024,12.0
70.098,0.268,2.658,28.0
69.766,0.273,2.285,27.0
70.077,0.282,1.926,5.0
119.882,0.495,2.675,16.0
119.891,0.507,2.053,20.0
103.175,0.439,4.657,5.0
70.33,0.307,2.809,6.0
69.92,0.312,2.431,28.0
70.103,0.321,2.068,18.0
119.883,0.562,2.915,20.0
111.192,0.533,2.128,18.0
80.408,0.388,3.792,20.0
70.188,0.347,2.947,4.0
70.074,0.354,2.577,15.0
70.092,0.362,2.208,7.0
111.168,0.588,2.928,21.0
111.085,0.601,2.351,24.0
80.762,0.44,3.973,7.0
104.282,0.58,4.59,6.0
69.979,0.397,2.715,9.0
69.93,0.406,2.344,6.0
111.054,0.658,3.146,24.0
111.079,0.672,2.571,31.0
78.688,0.479,4.027,9.0
80.414,0.499,3.698,12.0
104.816,0.664,4.274,15.0
104.807,0.677,3.72,15.0
111.021,0.731,3.364,24.0
111.067,0.745,2.787,29.0
81.356,0.549,4.323,15.0
70.335,0.484,3.372,6.0
104.733,0.735,4.475,23.0
70.011,0.5,2.62,15.0
104.752,0.762,3.376,18.0
104.801,0.777,2.833,24.0
81.052,0.604,4.464,13.0
78.694,0.598,3.925,8.0
97.638,0.755,4.36,18.0
104.759,0.824,4.123,18.0
69.712,0.558,2.381,19.0
104.706,0.853,3.032,25.0
78.434,0.643,4.472,8.0
81.337,0.679,4.213,9.0
80.609,0.684,3.755,13.0
97.799,0.843,4.035,18.0
69.705,0.612,2.514,9.0
104.664,0.933,3.23,37.0
78.282,0.702,4.613,23.0
81.366,0.742,4.369,10.0
78.696,0.729,3.815,8.0
70.075,0.66,3.025,18.0
69.862,0.668,2.65,7.0
69.756,0.677,2.283,7.0
71.726,0.701,4.362,5.0
78.41,0.778,4.357,3.0
81.612,0.823,4.109,3.0
70.236,0.718,3.162,9.0
98.105,1.019,3.904,14.0
69.637,0.734,2.407,10.0
60.022,0.636,3.76,18.0
80.668,0.868,4.631,4.0
81.38,0.888,4.247,7.0
98.615,1.092,4.62,17.0
98.623,1.108,4.104,18.0
98.181,1.119,3.573,15.0
60.238,0.691,3.885,19.0
80.591,0.937,4.775,3.0
82.908,0.977,4.477,9.0
78.719,0.941,3.831,10.0
98.615,1.195,4.282,17.0
98.612,1.211,3.766,21.0
60.194,0.743,3.99,14.0
80.365,1.006,4.904,14.0
80.232,1.018,4.475,4.0
98.668,1.268,4.975,11.0
98.719,1.286,4.461,15.0
98.291,1.296,3.927,22.0
41.467,0.55,2.822,5.0
74.474,1.001,4.677,4.0
78.46,1.068,4.515,12.0
81.409,1.122,4.249,11.0
78.76,1.1,3.697,18.0
98.2,1.388,4.094,24.0
41.436,0.589,2.893,13.0
74.359,1.07,4.799,1.0
80.524,1.174,4.774,8.0
81.289,1.199,4.384,12.0
98.057,1.464,4.773,19.0
78.752,1.19,3.419,9.0
41.492,0.631,2.968,34.0
41.474,0.637,2.748,14.0
74.317,1.156,4.533,7.0
78.49,1.235,4.366,6.0
85.591,1.362,4.309,10.0
78.722,1.267,3.55,8.0
41.411,0.671,3.033,33.0
41.425,0.678,2.815,40.0
83.524,1.383,5.234,5.0
82.812,1.387,4.744,4.0
91.425,1.548,4.756,21.0
92.226,1.579,4.311,13.0
41.14,0.709,3.081,40.0
41.423,0.721,2.883,13.0
78.155,1.376,5.027,7.0
74.294,1.322,4.379,6.0
77.552,1.395,4.161,2.0
85.518,1.555,4.138,11.0
40.897,0.748,3.13,47.0
41.372,0.765,2.947,12.0
74.418,1.39,4.908,10.0
80.196,1.513,4.857,8.0
81.1,1.546,4.482,4.0
91.427,1.761,4.571,14.0
40.959,0.794,3.201,41.0
41.022,0.803,2.988,37.0
41.394,0.818,2.796,12.0
81.439,1.626,5.061,3.0
72.91,1.47,4.145,2.0
84.95,1.73,4.379,12.0
40.932,0.838,3.263,37.0
40.95,0.847,3.047,45.0
41.338,0.863,2.856,16.0
83.618,1.763,5.325,8.0
74.113,1.577,4.327,2.0
81.979,1.761,4.352,10.0
40.801,0.882,3.316,37.0
40.777,0.89,3.097,44.0
40.894,0.9,2.888,22.0
70.358,1.563,4.587,5.0
74.112,1.662,4.439,5.0
81.241,1.839,4.435,7.0
40.7,0.927,3.37,43.0
40.784,0.937,3.158,39.0
41.004,0.95,2.957,27.0
70.631,1.652,4.711,4.0
74.148,1.749,4.551,13.0
80.596,1.918,4.518,5.0
40.596,0.972,3.421,42.0
40.855,0.987,3.224,39.0
40.928,0.997,3.011,15.0
41.129,1.01,2.802,7.0
72.116,1.787,4.53,29.0
78.796,1.968,4.529,10.0
40.531,1.019,3.473,39.0
40.96,1.038,3.291,25.0
40.815,1.043,3.06,34.0
41.128,1.06,2.86,18.0
70.721,1.837,4.541,16.0
78.705,2.061,4.633,12.0
40.577,1.069,3.534,37.0
40.76,1.082,3.331,36.0
40.792,1.092,3.115,41.0
40.968,1.105,2.905,15.0
70.848,1.926,4.644,6.0
71.909,1.97,4.329,35.0
40.58,1.119,3.588,37.0
40.636,1.128,3.375,35.0
40.794,1.142,3.169,35.0
40.987,1.156,2.96,9.0
65.356,1.857,4.37,23.0
70.895,2.029,4.361,8.0
40.569,1.169,3.641,41.0
40.64,1.18,3.429,45.0
40.814,1.193,3.224,40.0
41.056,1.209,3.018,16.0
65.413,1.941,4.458,7.0
65.555,1.96,4.117,3.0
40.49,1.218,3.686,51.0
40.521,1.228,3.47,35.0
40.834,1.246,3.277,39.0
45.007,1.383,3.366,4.0
78.095,2.417,5.42,17.0
65.522,2.042,4.196,26.0
40.492,1.27,3.737,46.0
40.421,1.276,3.512,36.0
40.686,1.293,3.315,39.0
45.004,1.441,3.42,15.0
45.136,1.455,3.188,24.0
79.637,2.584,5.195,12.0
40.503,1.323,3.787,32.0
40.402,1.328,3.558,44.0
40.514,1.341,3.349,38.0
40.793,1.358,3.148,37.0
45.106,1.512,3.237,14.0
66.548,2.245,4.418,26.0
40.418,1.373,3.826,34.0
40.479,1.383,3.612,41.0
40.537,1.394,3.398,35.0
40.651,1.407,3.183,47.0
40.756,1.419,2.971,35.0
44.724,1.568,3.02,16.0
40.777,1.439,3.906,19.0
40.375,1.434,3.648,43.0
40.371,1.442,3.429,36.0
40.543,1.457,3.22,41.0
40.618,1.469,3.006,38.0
44.756,1.628,3.07,5.0
40.414,1.481,3.915,46.0
40.246,1.483,3.68,43.0
40.305,1.494,3.467,40.0
40.528,1.511,3.262,40.0
40.604,1.523,3.047,39.0
40.846,1.541,2.845,43.0
40.524,1.539,3.968,40.0
40.405,1.543,3.736,43.0
40.71,1.564,3.543,39.0
40.457,1.563,3.297,35.0
40.687,1.581,3.095,26.0
40.735,1.591,2.878,40.0
40.564,1.596,4.013,30.0
40.348,1.596,3.772,46.0
40.228,1.6,3.541,45.0
40.34,1.614,3.327,43.0
40.545,1.631,3.124,42.0
40.732,1.647,2.917,42.0
40.459,1.648,4.042,32.0
40.377,1.653,3.813,39.0
40.327,1.66,3.588,42.0
40.378,1.671,3.368,41.0
40.566,1.688,3.163,38.0
40.879,1.71,2.965,39.0
40.888,1.722,4.123,16.0
40.382,1.709,3.851,45.0
40.366,1.717,3.628,44.0
40.33,1.724,3.4,40.0
40.46,1.739,3.191,39.0
40.556,1.752,2.977,41.0
41.134,1.789,4.184,29.0
40.623,1.776,3.909,40.0
40.254,1.768,3.653,39.0
40.389,1.783,3.44,28.0
40.298,1.788,3.212,37.0
40.475,1.804,3.005,40.0
41.109,1.846,4.216,36.0
40.748,1.838,3.955,40.0
40.251,1.824,3.686,43.0
40.824,1.859,3.51,8.0
40.324,1.845,3.246,37.0
40.383,1.856,3.03,42.0
40.986,1.897,4.236,40.0
40.704,1.892,3.983,44.0
40.544,1.894,3.744,44.0
40.454,1.898,3.509,15.0
40.414,1.905,3.284,33.0
40.356,1.911,3.059,40.0
40.982,1.954,4.267,39.0
40.824,1.955,4.025,31.0
40.401,1.944,3.76,45.0
40.304,1.948,3.526,42.0
40.52,1.967,3.322,15.0
40.371,1.968,3.088,35.0
40.878,2.007,4.285,43.0
40.916,2.018,4.063,32.0
40.766,2.019,3.823,36.0
40.313,2.005,3.554,42.0
40.414,2.019,3.341,33.0
40.587,2.036,3.132,24.0
40.756,2.059,4.299,46.0
40.83,2.071,4.081,40.0
40.925,2.084,3.864,39.0
40.466,2.069,3.593,43.0
40.323,2.071,3.359,35.0
40.491,2.088,3.15,29.0
40.715,2.114,4.32,46.0
40.908,2.133,4.114,27.0
40.992,2.145,3.895,36.0
40.77,2.142,3.645,17.0
40.409,2.132,3.389,40.0
40.459,2.143,3.171,34.0
40.708,2.171,4.343,41.0
45.272,2.424,4.578,11.0
40.924,2.199,3.912,31.0
41.141,2.219,3.7,39.0
40.528,2.195,3.421,38.0
40.367,2.194,3.185,38.0
40.747,2.231,4.369,34.0
41.009,2.253,4.169,32.0
41.12,2.268,3.952,16.0
41.203,2.281,3.727,44.0
40.422,2.246,3.433,47.0
40.409,2.254,3.208,42.0
40.802,2.292,4.395,40.0
40.948,2.308,4.183,16.0
45.873,2.595,4.43,20.0
41.282,2.343,3.753,41.0
40.512,2.308,3.459,39.0
40.582,2.321,3.241,35.0
40.858,2.353,4.419,36.0
40.74,2.354,4.179,11.0
44.972,2.607,4.363,19.0
41.325,2.404,3.775,46.0
40.458,2.362,3.471,42.0
40.478,2.371,3.248,40.0
40.914,2.413,4.442,22.0
40.866,2.419,4.208,12.0
44.788,2.66,4.362,18.0
41.362,2.465,3.794,40.0
40.572,2.426,3.496,45.0
41.04,2.462,3.308,27.0
46.661,2.818,5.082,5.0
40.86,2.476,4.222,3.0
44.824,2.724,4.38,19.0
45.583,2.779,4.196,20.0
41.043,2.51,3.55,35.0
41.435,2.543,3.353,23.0
52.279,3.23,5.71,15.0
52.307,3.242,5.42,36.0
52.305,3.251,5.127,18.0
45.534,2.839,4.204,27.0
41.735,2.611,3.621,36.0
44.123,2.769,3.583,4.0
52.227,3.299,5.718,35.0
52.277,3.312,5.43,21.0
52.298,3.323,5.139,18.0
45.383,2.892,4.201,7.0
41.923,2.679,3.647,37.0
41.985,2.691,3.419,7.0
52.252,3.372,5.733,12.0
52.32,3.385,5.446,15.0
42.403,2.752,4.176,4.0
42.232,2.748,3.918,17.0
41.925,2.736,3.655,36.0
41.97,2.747,3.425,16.0
46.672,3.076,5.128,11.0
43.135,2.85,4.497,3.0
42.24,2.799,4.166,16.0
42.005,2.791,3.904,17.0
41.833,2.787,3.653,44.0
41.809,2.793,3.418,31.0
62.435,4.199,6.869,10.0
46.505,3.136,4.855,14.0
42.05,2.843,4.153,26.0
42.014,2.848,3.909,32.0
41.908,2.848,3.664,37.0
41.819,2.85,3.422,21.0
53.227,3.652,5.861,11.0
46.493,3.197,4.857,9.0
41.958,2.893,4.147,38.0
42.003,2.903,3.911,36.0
41.862,2.901,3.663,27.0
41.654,2.894,3.411,25.0
41.916,2.932,4.617,31.0
53.039,3.718,5.543,8.0
41.955,2.948,4.148,10.0
45.027,3.172,4.193,7.0
41.413,2.924,3.624,27.0
41.663,2.949,3.412,33.0
41.939,2.988,4.619,10.0
53.054,3.789,5.544,10.0
41.545,2.974,4.107,30.0
41.606,2.985,3.874,16.0
41.424,2.979,3.624,35.0
41.46,2.989,3.394,38.0
46.043,3.34,5.07,4.0
46.052,3.348,4.81,14.0
41.595,3.031,4.109,28.0
41.402,3.024,3.852,16.0
41.32,3.024,3.612,35.0
41.422,3.039,3.388,36.0
45.734,3.376,5.032,21.0
46.019,3.404,4.802,21.0
46.024,3.411,4.542,14.0
41.3,3.068,3.838,35.0
41.405,3.083,3.614,39.0
41.382,3.088,3.38,44.0
45.251,3.398,4.973,28.0
46.081,3.467,4.802,3.0
41.154,3.103,4.056,29.0
41.303,3.12,3.833,40.0
41.207,3.12,3.591,40.0
46.049,3.494,3.753,5.0
45.256,3.455,4.966,40.0
0.0,0.0,0.0,0.0
41.077,3.148,4.04,41.0
41.534,3.19,3.846,17.0
41.203,3.17,3.583,43.0
41.593,3.207,3.382,27.0
45.246,3.511,4.955,13.0
45.247,3.517,4.697,19.0
41.058,3.197,4.029,31.0
41.144,3.21,3.8,9.0
41.253,3.224,3.577,41.0
41.523,3.252,3.365,30.0
45.234,3.565,4.942,21.0
41.131,3.247,4.259,30.0
41.093,3.249,4.022,38.0
41.252,3.268,3.799,24.0
41.321,3.279,3.571,41.0
41.513,3.301,3.353,44.0
45.251,3.62,4.93,37.0
45.313,3.631,4.678,4.0
41.141,3.302,4.013,30.0
41.184,3.311,3.78,37.0
41.254,3.323,3.552,39.0
41.679,3.363,3.353,14.0
50.722,4.117,5.509,12.0
41.157,3.345,4.235,42.0
41.189,3.354,4.004,32.0
41.315,3.37,3.777,35.0
41.292,3.373,3.54,33.0
45.565,3.729,3.648,4.0
47.947,3.947,5.189,12.0
41.136,3.391,4.217,39.0
42.232,3.487,4.089,17.0
41.44,3.426,3.772,27.0
41.614,3.447,3.551,16.0
41.654,3.455,3.318,22.0
47.944,4.001,5.169,17.0
41.156,3.439,4.202,5.0
41.93,3.509,4.041,17.0
41.435,3.472,3.753,39.0
41.517,3.485,3.525,16.0
41.467,3.486,3.285,24.0
47.958,4.055,5.148,11.0
41.332,3.499,4.2,3.0
41.365,3.506,3.967,29.0
41.409,3.515,3.731,36.0
41.299,3.511,3.486,40.0
41.408,3.525,3.26,22.0
47.967,4.107,5.125,5.0
41.352,3.545,4.181,4.0
41.619,3.572,3.97,35.0
41.65,3.58,3.731,17.0
41.337,3.558,3.468,29.0
41.46,3.573,3.243,30.0
47.881,4.149,5.091,14.0
41.359,3.588,4.16,3.0
41.413,3.597,3.928,38.0
42.04,3.656,3.743,17.0
41.392,3.604,3.45,32.0
41.416,3.611,3.216,35.0
47.792,4.19,5.053,11.0
41.258,3.621,4.126,38.0
41.399,3.637,3.903,35.0
43.821,3.854,3.876,4.0
41.546,3.659,3.438,22.0
41.485,3.658,3.197,30.0
45.898,4.069,4.825,21.0
41.264,3.662,4.101,28.0
41.528,3.69,3.889,16.0
41.209,3.665,3.619,35.0
41.662,3.709,3.421,27.0
41.492,3.699,3.171,31.0
45.885,4.111,4.794,26.0
41.247,3.7,4.072,47.0
41.345,3.712,3.845,16.0
41.268,3.709,3.597,31.0
41.54,3.737,3.384,37.0
41.531,3.741,3.146,35.0
45.901,4.156,4.764,12.0
41.314,3.744,4.05,33.0
41.313,3.747,3.813,29.0
41.278,3.747,3.569,36.0
41.485,3.77,3.351,34.0
41.523,3.777,3.116,41.0
48.143,4.402,4.962,14.0
41.243,3.774,4.014,45.0
41.409,3.792,3.792,38.0
41.468,3.801,3.556,37.0
41.42,3.8,3.315,42.0
41.606,3.821,3.092,35.0
48.115,4.44,4.923,6.0
41.34,3.818,3.992,19.0
41.276,3.815,3.749,34.0
41.598,3.848,3.535,40.0
41.472,3.84,3.287,40.0
41.574,3.853,3.057,40.0
48.211,4.49,4.894,6.0
41.57,3.873,3.981,30.0
41.271,3.849,3.715,22.0
41.617,3.884,3.503,31.0
41.525,3.878,3.258,36.0
55.187,5.159,4.014,11.0
44.836,4.21,4.516,21.0
41.487,3.898,3.939,22.0
41.205,3.875,3.675,34.0
41.691,3.923,3.475,36.0
41.607,3.918,3.23,33.0
42.068,3.964,3.025,21.0
44.743,4.236,4.468,21.0
41.533,3.934,3.908,27.0
41.665,3.949,3.681,17.0
41.773,3.962,3.446,33.0
41.509,3.939,3.186,43.0
44.142,4.192,3.136,19.0
44.256,4.222,4.38,18.0
41.512,3.962,3.869,22.0
41.998,4.01,3.673,15.0
41.806,3.994,3.412,25.0
41.507,3.968,3.149,40.0
42.121,4.03,2.954,16.0
44.208,4.248,4.335,9.0
41.427,3.982,3.823,32.0
41.988,4.038,3.633,14.0
41.772,4.019,3.37,38.0
41.724,4.017,3.127,41.0
44.337,4.271,3.069,3.0
41.774,4.041,4.057,22.0
41.738,4.039,3.812,27.0
41.936,4.06,3.589,35.0
41.664,4.036,3.322,35.0
41.954,4.066,3.104,35.0
43.172,4.186,2.947,16.0
44.443,4.326,4.273,5.0
41.793,4.07,3.776,28.0
42.034,4.095,3.556,31.0
41.733,4.067,3.286,33.0
42.146,4.109,3.077,26.0
43.292,4.224,2.912,18.0
44.409,4.349,4.224,6.0
41.978,4.112,3.751,13.0
42.104,4.126,3.52,33.0
44.328,4.345,3.446,8.0
42.15,4.133,3.035,9.0
43.043,4.223,2.852,30.0
41.725,4.109,3.927,9.0
43.974,4.331,3.885,7.0
42.033,4.141,3.47,36.0
42.34,4.172,3.248,17.0
42.447,4.184,3.012,17.0
67.278,6.635,4.388,9.0
41.687,4.126,3.879,18.0
43.925,4.347,3.834,11.0
42.025,4.16,3.426,34.0
42.234,4.182,3.196,32.0
42.682,4.228,2.984,10.0
42.83,4.243,2.749,3.0
44.11,4.385,4.058,10.0
41.92,4.168,3.614,15.0
42.045,4.181,3.383,27.0
42.196,4.197,3.147,34.0
0.0,0.0,0.0,0.0
73.128,7.277,4.615,15.0
44.189,4.412,4.016,28.0
41.924,4.186,3.568,29.0
42.036,4.197,3.335,19.0
42.361,4.23,3.112,17.0
43.305,4.325,2.933,17.0
73.197,7.313,4.537,25.0
43.908,4.4,3.941,17.0
41.928,4.202,3.521,35.0
42.165,4.226,3.297,17.0
42.735,4.283,3.092,21.0
42.946,4.305,2.86,25.0
73.239,7.343,4.457,28.0
43.906,4.415,3.891,10.0
41.96,4.219,3.476,28.0
42.854,4.309,3.303,17.0
42.759,4.3,3.044,30.0
42.852,4.309,2.804,24.0
73.294,7.371,4.376,13.0
44.014,4.439,3.849,18.0
42.074,4.243,3.436,17.0
42.802,4.316,3.248,29.0
42.845,4.32,3.0,22.0
42.811,4.316,2.752,4.0
88.531,8.928,5.18,33.0
44.031,4.452,3.797,13.0
44.238,4.472,3.56,8.0
0.0,0.0,0.0,0.0
42.983,4.344,2.958,29.0
73.532,7.432,4.638,9.0
88.543,8.949,5.076,33.0
44.05,4.463,3.746,6.0
44.18,4.475,3.502,24.0
42.964,4.351,3.157,15.0
43.11,4.365,2.915,34.0
73.324,7.425,4.536,14.0
88.542,8.965,4.969,35.0
41.931,4.255,3.515,11.0
43.521,4.415,3.396,20.0
42.894,4.351,3.1,28.0
43.227,4.384,2.87,18.0
73.298,7.433,4.446,20.0
88.556,8.979,4.862,37.0
49.002,4.979,4.047,12.0
42.862,4.354,3.292,19.0
42.79,4.345,3.039,31.0
42.828,4.348,2.79,3.0
88.535,8.987,5.259,22.0
88.544,8.987,4.75,34.0
49.08,4.991,3.991,5.0
43.541,4.426,3.289,20.0
42.864,4.356,2.99,28.0
42.811,4.349,2.735,3.0
88.547,8.993,5.149,35.0
88.537,8.991,4.639,29.0
44.158,4.492,3.535,30.0
43.941,4.468,3.264,19.0
42.999,4.371,2.945,35.0
88.525,8.996,5.545,10.0
88.532,8.993,5.036,38.0
88.532,8.99,4.528,29.0
44.046,4.48,3.469,19.0
43.311,4.404,3.161,18.0
43.222,4.392,2.905,24.0
73.279,7.444,4.496,22.0
88.548,8.993,4.922,36.0
88.543,8.989,4.414,28.0
42.874,4.359,3.321,17.0
42.828,4.352,3.07,30.0
43.321,4.4,2.856,13.0
88.514,8.986,5.316,15.0
88.531,8.985,4.807,34.0
88.546,8.983,4.299,29.0
43.403,4.409,3.306,20.0
42.8,4.345,3.013,23.0
42.768,4.339,2.764,3.0
88.545,8.98,5.203,37.0
88.548,8.976,4.694,37.0
88.544,8.972,4.186,32.0
0.0,0.0,0.0,0.0
42.924,4.351,2.965,25.0
73.515,7.448,4.655,7.0
88.527,8.964,5.086,43.0
88.55,8.962,4.578,34.0
88.555,8.958,4.069,31.0
42.978,4.352,3.16,18.0
43.17,4.368,2.924,35.0
73.334,7.415,4.545,20.0
88.529,8.947,4.968,39.0
88.534,8.942,4.459,36.0
88.548,8.939,3.95,32.0
42.877,4.332,3.095,31.0
58.038,5.859,3.854,7.0
73.324,7.397,4.447,21.0
88.537,8.926,4.851,39.0
88.57,8.924,4.343,38.0
88.562,8.918,3.834,33.0
42.787,4.311,3.032,30.0
42.835,4.312,2.788,14.0
88.532,8.907,5.251,24.0
88.512,8.898,4.731,18.0
88.539,8.895,4.223,36.0
88.542,8.889,3.715,31.0
42.873,4.306,2.98,29.0
73.357,7.362,4.675,9.0
88.508,8.876,5.131,26.0
88.522,8.87,4.614,27.0
88.54,8.865,4.105,34.0
88.536,8.858,3.596,28.0
43.16,4.32,2.941,17.0
73.192,7.318,4.566,24.0
88.509,8.842,5.011,18.0
88.522,8.836,4.492,32.0
88.543,8.832,3.984,31.0
88.523,8.823,3.474,16.0
42.879,4.274,2.863,30.0
73.095,7.278,4.459,31.0
73.216,7.284,4.045,20.0
88.523,8.799,4.372,33.0
88.549,8.794,3.864,29.0
88.449,8.777,3.351,6.0
42.852,4.251,2.803,10.0
73.018,7.237,4.355,32.0
73.258,7.254,3.948,24.0
88.532,8.758,4.253,17.0
88.555,8.752,3.744,20.0
88.439,8.733,3.232,2.0
72.998,7.206,4.675,10.0
72.915,7.191,4.25,34.0
73.249,7.216,3.847,11.0
88.606,8.72,4.135,15.0
88.593,8.71,3.625,14.0
88.613,8.704,3.117,6.0
72.91,7.158,4.57,15.0
73.094,7.168,4.16,29.0
88.773,8.696,4.54,9.0
88.777,8.687,4.021,10.0
88.817,8.682,3.512,9.0
88.869,8.678,3.005,11.0
72.857,7.11,4.466,26.0
73.107,7.126,4.061,30.0
90.774,8.837,4.52,14.0
90.698,8.821,3.986,18.0
90.654,8.807,3.463,12.0
89.118,8.648,2.893,13.0
72.78,7.057,4.362,28.0
73.225,7.091,3.967,26.0
91.076,8.809,4.41,14.0
90.99,8.79,3.875,15.0
89.473,8.634,3.295,4.0
89.419,8.619,2.781,12.0
72.826,7.012,4.266,30.0
73.297,7.048,3.871,9.0
91.407,8.778,4.303,15.0
91.335,8.76,3.766,16.0
89.774,8.601,3.186,4.0
89.759,8.589,2.671,11.0
73.198,6.995,4.188,39.0
91.762,8.758,4.723,16.0
91.734,8.743,4.193,12.0
91.696,8.728,3.657,19.0
90.049,8.56,3.074,3.0
90.173,8.562,2.561,12.0
84.529,8.014,4.722,20.0
92.152,8.724,4.619,15.0
92.125,8.71,4.088,10.0
92.012,8.686,3.545,14.0
90.497,8.532,2.968,10.0
90.521,8.523,2.45,11.0
84.446,7.939,4.605,26.0
92.511,8.683,4.512,16.0
92.516,8.671,3.98,17.0
92.424,8.65,3.437,9.0
90.849,8.49,2.859,9.0
90.902,8.484,2.339,11.0
84.781,7.898,4.509,33.0
92.98,8.648,4.412,12.0
92.954,8.633,3.877,16.0
92.847,8.61,3.33,3.0
91.351,8.458,2.754,7.0
91.384,8.45,2.231,9.0
85.364,7.877,4.427,34.0
93.029,8.57,4.29,27.0
93.037,8.557,3.757,31.0
91.682,8.419,3.167,4.0
91.745,8.411,2.643,12.0
91.787,8.402,2.12,10.0
85.576,7.817,4.324,34.0
93.039,8.483,4.167,27.0
93.036,8.468,3.634,30.0
92.21,8.379,3.063,3.0
92.261,8.369,2.537,5.0
92.283,8.359,2.009,5.0
85.566,7.732,4.21,34.0
93.029,8.39,4.044,19.0
92.986,8.372,3.508,14.0
92.805,8.341,2.96,5.0
92.752,8.321,2.428,4.0
92.877,8.318,1.9,7.0
85.867,7.67,4.112,21.0
93.183,8.309,3.928,14.0
93.263,8.3,3.397,13.0
93.145,8.274,2.851,13.0
93.221,8.267,2.319,14.0
93.264,8.256,1.788,16.0
92.322,8.149,4.302,22.0
93.114,8.204,3.805,60.0
93.109,8.187,3.272,65.0
93.109,8.173,2.731,61.0
93.118,8.158,2.198,71.0
93.138,8.145,1.667,59.0
91.888,8.012,4.165,24.0
93.123,8.103,3.688,10.0
93.155,8.088,3.155,7.0
45.894,3.977,1.287,14.0
45.838,3.965,1.024,18.0
45.811,3.955,0.762,24.0
91.652,7.887,4.038,15.0
45.913,3.942,1.76,14.0
45.839,3.927,1.495,18.0
45.794,3.915,1.227,22.0
45.789,3.907,0.965,30.0
45.768,3.897,0.704,33.0
45.855,3.892,1.963,28.0
45.823,3.881,1.7,23.0
45.797,3.87,1.437,33.0
45.775,3.859,1.17,33.0
45.78,3.852,0.908,36.0
45.769,3.843,0.647,36.0
45.821,3.833,1.905,38.0
45.818,3.824,1.642,34.0
45.79,3.813,1.38,36.0
45.777,3.803,1.113,41.0
45.771,3.794,0.852,39.0
45.769,3.786,0.591,39.0
45.809,3.774,1.848,40.0
45.801,3.764,1.586,43.0
45.803,3.755,1.325,37.0
45.794,3.746,1.058,41.0
45.804,3.738,0.798,42.0
45.796,3.729,0.537,43.0
45.842,3.718,1.794,44.0
45.833,3.707,1.532,38.0
45.85,3.699,1.271,39.0
45.87,3.692,1.006,37.0
45.878,3.684,0.744,36.0
45.874,3.674,0.483,40.0
45.913,3.662,1.742,28.0
45.938,3.654,1.481,30.0
98.509,7.816,2.615,8.0
98.535,7.799,2.045,9.0
98.636,7.786,1.485,8.0
98.717,7.774,0.924,8.0
100.934,7.912,3.712,15.0
101.114,7.904,3.143,2.0
99.287,7.741,2.52,7.0
99.401,7.729,1.948,10.0
99.436,7.712,1.383,8.0
99.497,7.697,0.817,10.0
101.812,7.839,3.629,24.0
100.136,7.687,2.999,1.0
100.116,7.665,2.428,6.0
100.218,7.651,1.851,9.0
100.269,7.634,1.282,9.0
100.254,7.613,0.712,10.0
101.99,7.706,3.522,41.0
100.787,7.594,2.907,5.0
100.948,7.583,2.337,7.0
100.942,7.561,1.753,6.0
101.149,7.556,1.182,8.0
98.577,7.343,0.592,4.0
101.983,7.557,3.411,28.0
101.923,7.53,2.828,5.0
101.919,7.506,2.249,7.0
102.071,7.494,1.662,9.0
102.038,7.47,1.081,12.0
52.23,3.812,0.257,13.0
102.089,7.41,3.303,49.0
102.085,7.387,2.723,58.0
102.072,7.363,2.143,59.0
52.291,3.76,0.796,22.0
52.234,3.744,0.498,22.0
52.129,3.725,0.202,15.0
52.29,3.716,1.637,21.0
52.247,3.7,1.339,25.0
52.222,3.686,1.041,25.0
52.203,3.672,0.74,31.0
52.189,3.66,0.443,25.0
52.006,3.635,0.147,18.0
52.208,3.627,1.58,32.0
52.203,3.614,1.284,35.0
52.182,3.601,0.987,39.0
52.181,3.588,0.686,37.0
52.181,3.575,0.391,25.0
51.877,3.543,0.095,17.0
52.221,3.544,1.528,13.0
52.208,3.531,1.232,41.0
52.214,3.518,0.936,42.0
52.224,3.506,0.635,36.0
52.192,3.491,0.339,25.0
51.7,3.446,0.043,15.0
47.395,3.139,1.34,61.0
52.267,3.449,1.182,37.0
52.292,3.437,0.886,31.0
52.286,3.424,0.585,33.0
52.253,3.409,0.289,21.0
51.557,3.352,-0.005,17.0
47.5,3.067,1.298,37.0
47.532,3.057,1.029,27.0
110.065,7.051,1.762,7.0
110.119,7.027,1.128,8.0
52.332,3.326,0.24,12.0
51.403,3.255,-0.053,18.0
47.638,2.996,1.257,42.0
47.61,2.982,0.988,39.0
111.189,6.935,1.678,21.0
111.127,6.902,1.037,45.0
52.408,3.242,0.193,18.0
51.251,3.157,-0.1,21.0
47.771,2.922,1.218,35.0
47.742,2.907,0.947,47.0
47.726,2.893,0.677,50.0
113.41,6.847,0.958,7.0
52.376,3.148,0.147,13.0
51.022,3.053,-0.144,22.0
47.894,2.845,1.179,24.0
47.87,2.831,0.908,44.0
47.864,2.817,0.638,39.0
59.189,3.468,0.449,2.0
52.527,3.064,0.102,11.0
48.419,2.812,-0.178,6.0
48.038,2.768,1.142,17.0
47.996,2.752,0.87,39.0
47.987,2.739,0.599,34.0
59.393,3.374,0.401,17.0
52.393,2.962,0.059,16.0
47.972,2.699,-0.216,4.0
48.207,2.69,1.106,17.0
48.111,2.672,0.833,28.0
48.105,2.658,0.562,33.0
59.309,3.261,0.353,22.0
52.228,2.857,0.017,20.0
48.552,2.643,-0.257,3.0
48.387,2.612,1.073,15.0
48.25,2.59,0.798,20.0
59.343,3.17,0.647,28.0
59.314,3.151,0.307,30.0
52.355,2.767,-0.022,25.0
49.318,2.593,-0.298,2.0
48.583,2.532,1.04,14.0
48.404,2.509,0.764,22.0
59.47,3.066,0.605,20.0
59.446,3.048,0.264,25.0
52.284,2.666,-0.06,25.0
50.285,2.55,-0.341,7.0
48.826,2.454,1.01,14.0
48.582,2.427,0.732,22.0
120.067,5.964,1.136,15.0
65.875,3.253,0.246,10.0
52.162,2.56,-0.097,25.0
0.0,0.0,0.0,0.0
49.08,2.373,0.981,9.0
48.734,2.342,0.701,17.0
120.044,5.735,1.054,16.0
65.628,3.116,0.202,12.0
52.528,2.478,-0.133,17.0
0.0,0.0,0.0,0.0
49.386,2.293,0.955,10.0
66.131,3.051,0.909,16.0
66.117,3.032,0.538,16.0
65.39,2.978,0.159,9.0
53.219,2.408,-0.168,9.0
43.872,1.972,-0.384,0.0
49.921,2.222,0.935,6.0
66.054,2.919,0.867,28.0
66.026,2.897,0.496,26.0
65.101,2.838,0.118,11.0
53.982,2.337,-0.203,3.0
44.736,1.923,-0.419,0.0
50.332,2.141,0.912,16.0
66.077,2.79,0.828,26.0
66.071,2.769,0.458,23.0
65.124,2.709,0.081,9.0
55.105,2.276,-0.239,4.0
44.672,1.832,-0.443,0.0
61.247,2.484,1.076,8.0
119.996,4.829,1.438,16.0
66.122,2.641,0.423,5.0
64.894,2.572,0.045,8.0
56.163,2.208,-0.274,0.0
44.659,1.741,-0.467,0.0
63.316,2.44,1.079,6.0
62.241,2.38,0.713,8.0
72.008,2.731,0.423,10.0
58.922,2.216,0.011,7.0
53.055,1.979,-0.285,0.0
0.0,0.0,0.0,0.0
72.396,2.645,1.198,25.0
72.381,2.62,0.794,26.0
71.894,2.579,0.388,14.0
59.783,2.126,-0.016,5.0
54.349,1.916,-0.318,1.0
40.143,1.402,-0.458,0.0
72.357,2.495,1.164,35.0
72.346,2.471,0.761,33.0
71.873,2.431,0.355,11.0
62.618,2.099,-0.045,2.0
54.176,1.798,-0.34,0.0
40.61,1.335,-0.481,0.0
72.457,2.351,1.136,27.0
72.459,2.328,0.732,31.0
71.802,2.284,0.326,14.0
61.619,1.94,-0.068,3.0
48.998,1.527,-0.327,0.0
0.0,0.0,0.0,0.0
78.923,2.399,1.207,23.0
78.909,2.372,0.768,15.0
71.756,2.134,0.299,12.0
63.066,1.855,-0.093,4.0
0.0,0.0,0.0,0.0
38.211,1.099,-0.481,0.0
78.817,2.233,1.178,6.0
78.849,2.207,0.74,16.0
71.857,1.988,0.275,14.0
64.635,1.767,-0.117,3.0
0.0,0.0,0.0,0.0
0.0,0.0,0.0,0.0
78.941,2.073,1.155,27.0
78.951,2.047,0.717,30.0
71.807,1.837,0.254,10.0
66.196,1.672,-0.139,0.0
0.0,0.0,0.0,0.0
0.0,0.0,0.0,0.0
85.254,2.058,1.224,33.0
85.158,2.027,0.75,22.0
72.035,1.69,0.235,13.0
0.0,0.0,0.0,0.0
48.698,1.109,-0.385,0.0
0.0,0.0,0.0,0.0
85.267,1.878,1.203,34.0
85.243,1.848,0.731,21.0
72.283,1.542,0.219,4.0
0.0,0.0,0.0,0.0
0.0,0.0,0.0,0.0
38.101,0.774,-0.52,0.0
92.005,1.83,1.279,10.0
91.935,1.798,0.77,11.0
73.926,1.42,0.21,4.0
0.0,0.0,0.0,0.0
45.796,0.848,-0.38,0.0
0.0,0.0,0.0,0.0
91.897,1.632,1.262,17.0
91.836,1.6,0.754,25.0
77.91,1.33,0.21,6.0
0.0,0.0,0.0,0.0
47.04,0.77,-0.397,1.0
0.0,0.0,0.0,0.0
92.038,1.436,1.252,21.0
92.119,1.405,0.745,18.0
80.996,1.208,0.208,2.0
0.0,0.0,0.0,0.0
43.95,0.625,-0.375,0.0
36.181,0.502,-0.509,0.0
98.52,1.328,1.332,30.0
98.463,1.292,0.788,16.0
79.015,1.009,0.197,4.0
0.0,0.0,0.0,0.0
46.245,0.558,-0.398,0.0
36.261,0.424,-0.512,0.0
98.591,1.115,1.327,27.0
98.398,1.078,0.783,14.0
81.373,0.862,0.2,3.0
0.0,0.0,0.0,0.0
45.501,0.45,-0.393,1.0
0.0,0.0,0.0,0.0
99.809,0.915,1.342,5.0
98.461,0.867,0.783,12.0
84.451,0.713,0.207,4.0
52.041,0.421,-0.163,10.0
0.0,0.0,0.0,0.0
35.612,0.263,-0.503,0.0
111.061,0.778,1.496,5.0
104.91,0.697,0.837,21.0
87.241,0.55,0.217,4.0
0.0,0.0,0.0,0.0
45.676,0.256,-0.392,1.0
35.345,0.185,-0.497,0.0
111.102,0.542,1.503,28.0
110.891,0.501,0.892,11.0
0.0,0.0,0.0,0.0
0.0,0.0,0.0,0.0
0.0,0.0,0.0,0.0
0.0,0.0,0.0,0.0
111.185,0.303,1.515,18.0
110.946,0.262,0.904,11.0
0.0,0.0,0.0,0.0
0.0,0.0,0.0,0.0
45.582,0.059,-0.382,2.0
36.883,0.034,-0.511,0.0
117.315,0.068,1.614,9.0
111.142,0.025,0.921,9.0
95.375,-0.012,0.268,1.0
0.0,0.0,0.0,0.0
45.503,-0.038,-0.374,1.0
0.0,0.0,0.0,0.0
113.634,-0.175,1.583,2.0
114.466,-0.218,0.969,100.0
0.0,0.0,0.0,0.0
0.0,0.0,0.0,0.0
45.422,-0.135,-0.364,0.0
37.097,-0.124,-0.5,0.0
119.795,-0.443,1.694,11.0
119.669,-0.485,1.039,12.0
95.2,-0.419,0.307,1.0
0.0,0.0,0.0,0.0
46.508,-0.238,-0.362,0.0
37.692,-0.207,-0.499,0.0
119.745,-0.697,1.723,19.0
119.709,-0.739,1.069,13.0
0.0,0.0,0.0,0.0
0.0,0.0,0.0,0.0
47.031,-0.341,-0.353,0.0
38.459,-0.293,-0.498,0.0
119.746,-0.953,1.757,68.0
119.676,-0.994,1.104,16.0
0.0,0.0,0.0,0.0
0.0,0.0,0.0,0.0
0.0,0.0,0.0,0.0
37.993,-0.37,-0.48,0.0
119.742,-1.206,1.795,150.0
139.254,-1.454,1.33,17.0
0.0,0.0,0.0,0.0
0.0,0.0,0.0,0.0
0.0,0.0,0.0,0.0
38.933,-0.463,-0.478,0.0
139.206,-1.698,2.138,9.0
139.229,-1.748,1.381,18.0
127.465,-1.647,0.572,4.0
0.0,0.0,0.0,0.0
52.777,-0.72,-0.341,0.0
40.619,-0.569,-0.483,0.0
139.012,-1.989,2.189,13.0
138.981,-2.036,1.434,9.0
138.751,-2.082,0.678,3.0
0.0,0.0,0.0,0.0
49.96,-0.785,-0.302,0.0
0.0,0.0,0.0,0.0
139.066,-2.28,2.25,4.0
139.22,-2.333,1.498,10.0
139.035,-2.378,0.742,4.0
0.0,0.0,0.0,0.0
0.0,0.0,0.0,0.0
0.0,0.0,0.0,0.0
193.169,-3.568,3.215,8.0
139.004,-2.616,1.56,3.0
138.915,-2.664,0.807,9.0
56.458,-1.103,0.017,0.0
0.0,0.0,0.0,0.0
44.738,-0.906,-0.47,0.0
192.951,-3.963,3.309,21.0
0.0,0.0,0.0,0.0
138.868,-2.95,0.878,11.0
0.0,0.0,0.0,0.0
0.0,0.0,0.0,0.0
42.337,-0.945,-0.422,0.0
193.108,-4.365,3.415,19.0
0.0,0.0,0.0,0.0
138.86,-3.236,0.955,12.0
0.0,0.0,0.0,0.0
0.0,0.0,0.0,0.0
43.754,-1.066,-0.412,1.0
192.962,-4.756,3.524,17.0
204.748,-5.118,2.633,6.0
138.835,-3.519,1.036,16.0
0.0,0.0,0.0,0.0
0.0,0.0,0.0,0.0
48.127,-1.272,-0.424,0.0
195.072,-5.204,3.682,4.0
0.0,0.0,0.0,0.0
138.555,-3.795,1.121,22.0
0.0,0.0,0.0,0.0
0.0,0.0,0.0,0.0
0.0,0.0,0.0,0.0
194.428,-5.582,3.796,21.0
138.662,-4.029,1.959,4.0
138.398,-4.068,1.21,17.0
0.0,0.0,0.0,0.0
0.0,0.0,0.0,0.0
47.715,-1.453,-0.357,0.0
194.433,-5.969,3.927,8.0
138.719,-4.306,2.055,7.0
138.686,-4.354,1.308,25.0
0.0,0.0,0.0,0.0
0.0,0.0,0.0,0.0
0.0,0.0,0.0,0.0
193.981,-6.337,4.055,8.0
138.646,-4.578,2.153,7.0
138.581,-4.623,1.407,22.0
0.0,0.0,0.0,0.0
0.0,0.0,0.0,0.0
49.874,-1.715,-0.301,0.0
204.45,-7.079,4.426,13.0
193.274,-6.756,3.145,7.0
138.529,-4.89,1.511,12.0
138.425,-4.935,0.753,3.0
0.0,0.0,0.0,0.0
0.0,0.0,0.0,0.0
193.626,-7.08,4.342,5.0
193.34,-7.136,3.299,15.0
0.0,0.0,0.0,0.0
138.41,-5.202,0.863,10.0
0.0,0.0,0.0,0.0
0.0,0.0,0.0,0.0
193.108,-7.429,4.486,17.0
193.288,-7.5,3.454,7.0
0.0,0.0,0.0,0.0
138.397,-5.464,0.977,16.0
0.0,0.0,0.0,0.0
0.0,0.0,0.0,0.0
192.919,-7.788,4.644,21.0
192.495,-7.834,3.603,24.0
187.244,-7.682,2.501,19.0
138.273,-5.718,1.094,18.0
0.0,0.0,0.0,0.0
0.0,0.0,0.0,0.0
193.161,-8.155,4.817,23.0
193.052,-8.213,3.78,23.0
138.106,-5.921,1.965,51.0
137.965,-5.96,1.213,24.0
104.954,-4.568,0.361,1.0
0.0,0.0,0.0,0.0
193.401,-8.519,4.995,9.0
0.0,0.0,0.0,0.0
138.05,-6.168,2.089,107.0
138.254,-6.224,1.34,23.0
0.0,0.0,0.0,0.0
0.0,0.0,0.0,0.0
20.127,-0.923,0.538,17.0
20.144,-0.93,0.431,14.0
20.199,-0.939,0.324,0.0
138.21,-6.473,1.471,15.0
138.305,-6.521,0.734,2.0
20.005,-0.949,0.0,2.0
20.118,-0.958,0.557,27.0
20.133,-0.965,0.45,20.0
20.15,-0.973,0.343,19.0
20.152,-0.979,0.234,17.0
20.122,-0.984,0.126,0.0
19.995,-0.984,0.019,15.0
20.133,-0.995,0.577,25.0
20.123,-1.001,0.47,19.0
20.144,-1.008,0.363,20.0
20.102,-1.012,0.253,23.0
20.006,-1.014,0.145,15.0
19.985,-1.019,0.039,24.0
19.984,-1.022,0.593,16.0
19.964,-1.027,0.486,16.0
19.959,-1.033,0.38,14.0
19.993,-1.041,0.272,27.0
19.965,-1.046,0.166,17.0
19.97,-1.052,0.06,33.0
19.975,-1.056,0.614,23.0
19.975,-1.062,0.508,22.0
19.965,-1.067,0.401,19.0
19.941,-1.072,0.293,18.0
19.984,-1.08,0.187,22.0
19.979,-1.086,0.081,22.0
19.974,-1.089,0.635,25.0
19.967,-1.095,0.529,22.0
19.954,-1.1,0.422,19.0
19.929,-1.105,0.314,19.0
19.983,-1.114,0.209,18.0
20.021,-1.122,0.103,21.0
19.979,-1.123,0.657,24.0
19.948,-1.127,0.55,23.0
19.95,-1.133,0.444,22.0
19.916,-1.137,0.336,18.0
19.975,-1.146,0.231,10.0
20.08,-1.158,0.126,6.0
19.967,-1.154,0.679,19.0
19.96,-1.159,0.573,20.0
19.949,-1.164,0.466,19.0
19.917,-1.168,0.358,19.0
19.956,-1.176,0.253,26.0
19.987,-1.184,0.148,150.0
19.969,-1.186,0.702,18.0
19.955,-1.19,0.595,23.0
19.958,-1.196,0.49,22.0
19.913,-1.199,0.381,19.0
19.944,-1.207,0.276,25.0
19.994,-1.215,0.171,150.0
19.974,-1.217,0.725,17.0
19.952,-1.221,0.619,23.0
19.941,-1.226,0.513,23.0
19.934,-1.231,0.405,20.0
19.937,-1.236,0.299,25.0
19.969,-1.244,0.194,25.0
19.973,-1.247,0.749,14.0
19.959,-1.252,0.642,22.0
19.965,-1.257,0.537,21.0
19.909,-1.259,0.428,18.0
19.934,-1.266,0.323,19.0
19.968,-1.274,0.218,23.0
19.991,-1.278,0.774,11.0
19.939,-1.28,0.666,17.0
19.929,-1.285,0.56,17.0
19.915,-1.289,0.453,14.0
19.929,-1.295,0.347,16.0
19.963,-1.303,0.243,30.0
20.058,-1.312,0.801,5.0
20.007,-1.314,0.693,11.0
20.045,-1.321,0.588,12.0
20.011,-1.324,0.48,9.0
19.99,-1.328,0.373,9.0
19.97,-1.332,0.268,11.0
72.439,-4.842,2.985,35.0
20.003,-1.342,0.718,10.0
20.015,-1.347,0.613,8.0
20.053,-1.355,0.506,11.0
20.059,-1.36,0.4,2.0
119.385,-8.129,1.753,35.0
67.896,-4.632,2.884,45.0
20.031,-1.371,0.744,4.0
20.009,-1.374,0.638,11.0
20.013,-1.38,0.53,9.0
20.015,-1.384,0.425,9.0
20.041,-1.391,0.32,8.0
67.898,-4.725,2.972,62.0
67.89,-4.74,2.612,43.0
19.996,-1.401,0.664,10.0
19.998,-1.405,0.556,11.0
19.998,-1.41,0.451,10.0
20.008,-1.415,0.345,12.0
67.921,-4.815,3.062,65.0
67.902,-4.829,2.702,54.0
20.04,-1.429,0.691,6.0
20.008,-1.432,0.583,8.0
20.007,-1.436,0.477,9.0
20.003,-1.441,0.372,9.0
67.924,-4.903,3.152,63.0
67.929,-4.917,2.793,53.0
67.888,-4.929,2.433,43.0
20.019,-1.458,0.61,0.0
20.036,-1.463,0.505,3.0
20.025,-1.467,0.399,2.0
67.93,-4.987,3.243,72.0
67.926,-5.0,2.884,61.0
67.89,-5.012,2.524,43.0
72.073,-5.336,2.292,19.0
72.341,-5.371,1.92,12.0
72.483,-5.397,1.542,10.0
67.916,-5.067,3.334,54.0
67.929,-5.081,2.976,55.0
67.916,-5.094,2.617,43.0
71.791,-5.399,2.381,16.0
71.731,-5.409,2.001,9.0
119.356,-9.025,2.7,88.0
67.92,-5.144,3.427,32.0
79.331,-6.024,3.584,10.0
67.905,-5.17,2.709,9.0
67.91,-5.184,2.344,35.0
67.923,-5.198,1.988,63.0
67.902,-5.21,1.629,58.0
67.938,-5.223,3.522,74.0
67.928,-5.234,3.162,86.0
67.918,-5.245,2.803,84.0
67.896,-5.257,2.438,82.0
67.898,-5.269,2.081,81.0
67.895,-5.283,1.724,72.0
67.957,-5.297,3.617,29.0
67.944,-5.307,3.258,22.0
72.437,-5.671,3.09,10.0
72.115,-5.658,2.689,9.0
72.573,-5.707,2.324,10.0
71.7,-5.652,1.919,20.0
71.442,-5.643,3.902,19.0
70.981,-5.617,3.502,44.0
71.238,-5.65,3.138,29.0
72.204,-5.738,2.794,8.0
72.153,-5.747,2.412,11.0
74.859,-5.976,2.108,3.0
71.741,-5.737,4.019,16.0
71.005,-5.689,3.603,24.0
71.364,-5.73,3.246,14.0
67.91,-5.464,2.724,6.0
67.905,-5.475,2.367,26.0
72.562,-5.862,2.147,3.0
71.52,-5.788,4.109,22.0
71.345,-5.785,3.723,12.0
67.938,-5.518,3.186,43.0
67.945,-5.53,2.822,44.0
67.918,-5.538,2.463,43.0
72.088,-5.889,2.235,19.0
71.704,-5.869,4.223,31.0
71.249,-5.841,3.819,27.0
67.95,-5.581,3.284,46.0
67.95,-5.59,2.92,45.0
67.955,-5.601,2.562,46.0
71.971,-5.943,2.334,9.0
71.64,-5.926,4.321,15.0
71.408,-5.916,3.93,10.0
67.954,-5.639,3.381,53.0
67.951,-5.648,3.017,44.0
67.964,-5.658,2.659,47.0
67.912,-5.663,2.299,20.0
71.637,-5.985,4.424,13.0
71.454,-5.978,4.035,30.0
67.95,-5.693,3.479,42.0
67.97,-5.703,3.115,41.0
67.964,-5.712,2.756,45.0
67.906,-5.716,2.397,41.0
71.444,-6.024,4.515,26.0
71.517,-6.039,4.141,20.0
67.921,-5.743,3.575,7.0
67.963,-5.754,3.212,39.0
67.97,-5.763,2.853,42.0
67.95,-5.769,2.496,37.0
70.7,-6.014,4.57,27.0
71.53,-6.092,4.246,12.0
71.147,-6.068,3.848,33.0
67.962,-5.803,3.311,47.0
67.986,-5.813,2.953,47.0
67.958,-5.818,2.594,46.0
70.097,-6.012,4.633,26.0
71.576,-6.146,4.353,15.0
70.702,-6.078,3.926,36.0
67.958,-5.849,3.409,46.0
67.986,-5.858,3.052,50.0
67.976,-5.864,2.694,46.0
70.282,-6.075,4.748,22.0
71.79,-6.212,4.471,8.0
70.858,-6.136,4.038,11.0
67.954,-5.891,3.508,30.0
67.984,-5.9,3.15,44.0
67.974,-5.905,2.792,45.0
70.208,-6.111,4.845,13.0
74.827,-6.519,4.768,9.0
71.315,-6.218,4.168,18.0
71.149,-6.21,3.775,9.0
67.993,-5.94,3.249,46.0
67.991,-5.946,2.891,51.0
70.303,-6.16,4.955,20.0
70.562,-6.187,4.599,15.0
71.282,-6.255,4.269,23.0
71.037,-6.239,3.872,22.0
67.981,-5.975,3.347,44.0
67.987,-5.981,2.99,47.0
70.012,-6.172,5.037,24.0
70.561,-6.224,4.702,18.0
71.056,-6.272,4.359,24.0
70.74,-6.248,3.959,34.0
67.975,-6.008,3.445,30.0
67.982,-6.013,3.087,19.0
69.925,-6.198,5.132,22.0
70.513,-6.253,4.801,30.0
71.061,-6.305,4.462,9.0
70.667,-6.274,4.057,25.0
71.416,-6.345,3.722,8.0
71.481,-6.354,3.349,9.0
70.55,-6.284,5.279,18.0
70.538,-6.286,4.904,29.0
70.85,-6.316,4.551,22.0
71.449,-6.373,4.204,15.0
71.166,-6.35,3.811,44.0
71.445,-6.379,3.449,19.0
70.675,-6.323,5.39,31.0
70.41,-6.301,4.996,38.0
70.625,-6.322,4.637,10.0
76.271,-6.831,4.597,4.0
70.888,-6.351,3.897,24.0
71.351,-6.395,3.546,21.0
70.872,-6.365,5.507,23.0
70.331,-6.318,5.091,37.0
70.668,-6.35,4.74,16.0
71.262,-6.405,4.395,8.0
71.258,-6.406,4.018,30.0
71.438,-6.425,3.651,12.0
70.953,-6.394,5.614,13.0
70.436,-6.349,5.198,29.0
70.69,-6.372,4.842,16.0
71.155,-6.415,4.49,11.0
71.374,-6.436,4.126,12.0
70.86,-6.391,3.722,14.0
71.238,-6.439,5.738,11.0
70.452,-6.367,5.299,24.0
73.541,-6.647,5.141,7.0
70.598,-6.382,4.554,17.0
70.2,-6.346,4.155,8.0
70.838,-6.405,3.819,13.0
71.186,-6.45,5.834,4.0
70.617,-6.398,5.411,19.0
70.383,-6.376,5.019,37.0
33.185,-3.006,2.187,2.0
70.731,-6.407,4.286,10.0
71.164,-6.447,3.935,24.0
76.496,-6.944,6.375,4.0
70.931,-6.438,5.534,23.0
70.292,-6.379,5.11,36.0
70.723,-6.417,4.759,23.0
71.383,-6.476,4.424,13.0
71.125,-6.453,4.032,26.0
74.144,-6.741,6.284,7.0
71.122,-6.464,5.648,15.0
70.367,-6.394,5.213,30.0
70.811,-6.432,4.862,22.0
71.036,-6.451,4.501,10.0
70.147,-6.37,4.073,11.0
71.344,-6.492,6.145,11.0
71.07,-6.465,5.743,11.0
70.363,-6.398,5.31,22.0
70.048,-6.367,4.906,16.0
70.939,-6.447,4.592,9.0
70.227,-6.38,4.173,12.0
71.366,-6.498,6.244,14.0
73.376,-6.678,6.028,3.0
70.604,-6.422,5.424,20.0
70.029,-6.367,5.0,41.0
33.197,-3.017,2.193,2.0
71.097,-6.459,4.32,10.0
73.523,-6.694,6.533,15.0
76.438,-6.955,6.383,6.0
71.033,-6.46,5.553,21.0
70.319,-6.392,5.114,39.0
70.744,-6.427,4.768,25.0
71.376,-6.482,4.431,14.0
77.037,-7.011,6.948,4.0
74.126,-6.742,6.288,8.0
71.122,-6.464,5.653,14.0
70.396,-6.394,5.212,30.0
70.736,-6.421,4.86,16.0
70.872,-6.43,4.491,11.0
76.819,-6.985,7.028,6.0
71.341,-6.482,6.145,10.0
71.105,-6.456,5.744,8.0
70.413,-6.388,5.304,20.0
70.514,-6.393,4.936,11.0
70.64,-6.4,4.568,14.0
76.823,-6.976,7.128,8.0
71.336,-6.472,6.237,9.0
73.377,-6.651,6.022,5.0
70.702,-6.404,5.418,23.0
70.348,-6.367,5.015,40.0
33.182,-3.0,2.188,2.0
73.655,-6.676,6.93,20.0
73.509,-6.656,6.521,21.0
74.135,-6.706,6.179,9.0
70.774,-6.396,5.512,26.0
70.379,-6.356,5.105,38.0
70.704,-6.379,4.75,18.0
73.647,-6.66,7.022,17.0
73.491,-6.639,6.611,23.0
74.444,-6.718,6.297,11.0
71.056,-6.405,5.623,11.0
70.416,-6.341,5.195,25.0
70.581,-6.35,4.83,23.0
73.73,-6.649,7.122,11.0
73.434,-6.614,6.698,18.0
74.395,-6.694,6.385,6.0
71.137,-6.393,5.716,12.0
70.488,-6.328,5.286,24.0
70.467,-6.32,4.907,33.0
73.724,-6.627,7.21,13.0
73.462,-6.595,6.789,17.0
76.141,-6.827,6.626,4.0
74.508,-6.673,6.076,7.0
70.773,-6.331,5.392,35.0
70.23,-6.275,4.974,15.0
73.864,-6.615,7.313,10.0
73.456,-6.57,6.876,29.0
76.102,-6.797,6.714,10.0
74.093,-6.609,6.13,13.0
70.71,-6.299,5.47,27.0
69.976,-6.227,5.038,21.0
76.71,-6.842,7.685,7.0
73.421,-6.539,6.959,35.0
76.425,-6.797,6.831,8.0
74.288,-6.597,6.233,24.0
70.955,-6.292,5.571,16.0
69.905,-6.192,5.112,12.0
73.107,-6.49,7.408,33.0
73.643,-6.527,7.064,28.0
80.172,-7.095,7.257,7.0
73.286,-6.477,6.231,14.0
74.516,-6.576,5.934,9.0
70.34,-6.199,5.223,9.0
72.95,-6.443,7.475,33.0
73.881,-6.515,7.169,16.0
73.762,-6.494,6.759,9.0
71.155,-6.255,6.128,12.0
74.356,-6.526,6.003,8.0
70.69,-6.195,5.325,11.0
70.555,-6.197,7.307,10.0
73.851,-6.476,7.247,8.0
73.558,-6.44,6.819,25.0
71.293,-6.23,6.217,7.0
71.768,-6.262,5.87,8.0
71.012,-6.187,5.425,16.0
70.585,-6.163,7.385,15.0
70.875,-6.177,7.03,9.0
73.462,-6.392,6.887,14.0
71.481,-6.208,6.307,5.0
71.663,-6.213,5.936,15.0
70.749,-6.124,5.478,18.0
72.991,-6.332,7.713,3.0
70.357,-6.091,7.052,13.0
73.342,-6.339,6.952,20.0
71.399,-6.159,6.373,22.0
71.302,-6.14,5.978,17.0
70.865,-6.091,5.558,13.0
72.992,-6.288,7.787,7.0
70.229,-6.038,7.109,27.0
73.316,-6.291,7.022,13.0
78.009,-6.682,7.039,7.0
71.293,-6.095,6.046,9.0
70.491,-6.016,5.596,28.0
70.584,-6.037,7.598,18.0
70.229,-5.994,7.177,10.0
73.337,-6.246,7.095,16.0
0.0,0.0,0.0,0.0
72.247,-6.129,6.196,19.0
70.681,-5.985,5.678,12.0
70.616,-5.991,7.67,42.0
70.487,-5.968,7.27,9.0
73.242,-6.188,7.154,11.0
0.0,0.0,0.0,0.0
72.262,-6.08,6.263,11.0
74.07,-6.22,6.018,7.0
70.696,-5.949,7.743,47.0
70.337,-5.905,7.318,17.0
73.232,-6.135,7.219,14.0
71.027,-5.937,6.607,7.0
72.21,-6.023,6.323,4.0
76.986,-6.408,6.322,8.0
70.447,-5.877,7.777,32.0
70.923,-5.902,7.441,36.0
73.176,-6.076,7.277,15.0
71.034,-5.884,6.669,9.0
76.062,-6.287,6.725,6.0
70.457,-5.811,5.845,7.0
70.539,-5.83,7.848,13.0
70.704,-5.83,7.477,41.0
73.101,-6.013,7.33,16.0
71.193,-5.842,6.742,6.0
72.633,-5.947,6.481,7.0
75.752,-6.188,6.346,4.0
70.184,-5.744,7.865,23.0
71.841,-5.865,7.656,19.0
73.007,-5.946,7.379,18.0
71.766,-5.831,6.852,8.0
79.43,-6.437,7.15,9.0
75.742,-6.124,6.404,6.0
70.064,-5.676,7.907,17.0
71.603,-5.786,7.686,27.0
72.868,-5.872,7.421,16.0
71.907,-5.781,6.921,17.0
70.904,-5.687,6.435,13.0
70.721,-5.657,6.032,11.0
72.248,-5.791,8.207,22.0
71.441,-5.711,7.721,35.0
71.641,-5.711,7.349,10.0
71.67,-5.699,6.95,36.0
70.864,-5.62,6.482,13.0
70.606,-5.586,6.071,23.0
70.475,-5.585,8.056,23.0
71.087,-5.617,7.734,22.0
71.668,-5.648,7.402,8.0
71.242,-5.599,6.958,32.0
70.738,-5.545,6.519,29.0
72.81,-5.692,6.311,10.0
70.449,-5.517,8.102,22.0
71.423,-5.577,7.818,23.0
71.272,-5.55,7.408,17.0
71.084,-5.519,6.989,10.0
68.031,-5.268,6.314,9.0
68.006,-5.251,5.938,78.0
71.046,-5.495,8.216,43.0
71.292,-5.498,7.849,40.0
70.496,-5.421,7.371,25.0
71.497,-5.483,7.073,6.0
68.016,-5.201,6.353,69.0
72.386,-5.52,6.363,11.0
12.065,-0.993,-0.86,0.0
11.315,-0.934,-0.869,0.0
10.714,-0.887,-0.883,0.0
10.126,-0.841,-0.892,0.0
9.65,-0.804,-0.904,0.0
9.169,-0.767,-0.91,0.0
12.088,-1.01,-0.859,0.0
11.355,-0.952,-0.87,0.0
10.768,-0.906,-0.885,0.0
10.154,-0.857,-0.892,0.0
9.673,-0.819,-0.904,0.0
9.195,-0.781,-0.911,0.0
12.141,-1.03,-0.86,0.0
11.399,-0.97,-0.871,0.0
10.777,-0.92,-0.883,0.0
10.165,-0.871,-0.891,0.0
9.712,-0.835,-0.905,0.0
9.23,-0.796,-0.912,0.0
12.192,-1.05,-0.86,0.0
11.446,-0.989,-0.871,0.0
10.809,-0.936,-0.883,0.0
10.224,-0.888,-0.893,0.0
9.712,-0.847,-0.902,0.0
9.3,-0.813,-0.916,0.0
12.199,-1.066,-0.857,0.0
11.468,-1.005,-0.869,0.0
10.83,-0.952,-0.881,0.0
10.238,-0.902,-0.891,0.0
9.727,-0.86,-0.901,0.0
9.261,-0.821,-0.909,0.0
12.248,-1.085,-0.857,0.0
11.54,-1.025,-0.871,0.0
10.905,-0.971,-0.884,0.0
10.284,-0.919,-0.891,0.0
9.773,-0.876,-0.901,0.0
9.302,-0.836,-0.91,0.0
12.306,-1.105,-0.856,0.0
11.591,-1.043,-0.87,0.0
10.931,-0.987,-0.881,0.0
10.325,-0.934,-0.891,0.0
9.812,-0.891,-0.901,0.0
9.347,-0.851,-0.91,0.0
12.375,-1.125,-0.856,0.0
11.66,-1.063,-0.871,0.0
10.995,-1.005,-0.882,0.0
10.395,-0.953,-0.892,0.0
9.863,-0.907,-0.901,0.0
9.413,-0.868,-0.912,0.0
12.383,-1.14,-0.851,0.0
11.75,-1.085,-0.872,0.0
11.036,-1.021,-0.88,0.0
10.457,-0.97,-0.893,0.0
9.895,-0.921,-0.899,0.0
9.445,-0.881,-0.911,0.0
12.47,-1.162,-0.851,0.0
11.788,-1.101,-0.869,0.0
11.116,-1.041,-0.881,0.0
10.513,-0.987,-0.892,0.0
9.953,-0.937,-0.899,0.0
9.47,-0.894,-0.908,0.0
12.536,-1.182,-0.848,0.0
11.795,-1.114,-0.863,0.0
11.217,-1.062,-0.882,0.0
10.546,-1.001,-0.889,0.0
10.037,-0.955,-0.901,0.0
9.539,-0.91,-0.909,0.0
12.667,-1.207,-0.85,0.0
11.895,-1.136,-0.864,0.0
11.253,-1.077,-0.879,0.0
10.637,-1.021,-0.89,0.0
10.134,-0.975,-0.904,0.0
9.598,-0.926,-0.909,0.0
12.802,-1.233,-0.852,0.0
11.957,-1.154,-0.861,0.0
11.347,-1.098,-0.879,0.0
10.785,-1.046,-0.896,0.0
10.165,-0.988,-0.9,0.0
