X,Y,Z,Reflectivity
33.165,-3.561,1.099,66.0
69.91,-7.515,4.275,7.0
70.187,-7.547,3.917,18.0
69.865,-7.515,3.528,10.0
33.178,-3.57,1.495,30.0
33.177,-3.571,1.319,70.0
33.162,-3.571,1.142,68.0
70.304,-7.582,4.391,8.0
70.172,-7.569,4.009,11.0
33.209,-3.583,1.72,4.0
33.175,-3.58,1.538,54.0
33.192,-3.583,1.362,70.0
33.172,-3.582,1.185,70.0
70.366,-7.609,4.485,20.0
70.071,-7.578,4.093,27.0
33.196,-3.59,1.762,10.0
33.2,-3.592,1.582,65.0
33.179,-3.59,1.404,69.0
33.166,-3.59,1.227,73.0
70.39,-7.629,4.578,17.0
69.862,-7.572,4.171,10.0
33.202,-3.599,1.805,26.0
33.206,-3.599,1.624,66.0
33.183,-3.597,1.447,71.0
33.158,-3.595,1.269,74.0
70.561,-7.662,4.678,13.0
33.219,-3.607,2.025,1.0
33.2,-3.604,1.847,35.0
33.202,-3.605,1.667,65.0
33.184,-3.603,1.489,70.0
33.167,-3.601,1.312,78.0
70.246,-7.639,4.748,38.0
33.209,-3.611,2.067,2.0
33.195,-3.609,1.888,40.0
33.204,-3.609,1.709,67.0
33.188,-3.607,1.531,69.0
33.17,-3.606,1.354,76.0
69.927,-7.612,4.816,26.0
70.352,-7.656,4.469,13.0
33.205,-3.613,1.931,34.0
33.211,-3.613,1.751,65.0
33.181,-3.609,1.573,70.0
33.162,-3.607,1.395,73.0
75.545,-8.229,5.298,10.0
33.257,-3.621,2.154,3.0
33.204,-3.614,1.973,26.0
33.206,-3.614,1.792,66.0
33.187,-3.611,1.614,68.0
33.166,-3.608,1.436,71.0
75.534,-8.23,5.391,14.0
33.297,-3.626,2.198,1.0
33.211,-3.615,2.014,12.0
33.206,-3.613,1.833,64.0
33.196,-3.611,1.655,67.0
33.172,-3.608,1.477,69.0
75.505,-8.224,5.483,9.0
70.333,-7.658,4.73,26.0
33.227,-3.616,2.056,5.0
33.186,-3.61,1.873,49.0
33.194,-3.609,1.696,67.0
33.179,-3.606,1.518,66.0
70.262,-7.649,5.187,22.0
69.945,-7.61,4.789,31.0
70.399,-7.655,4.442,17.0
33.209,-3.609,1.914,19.0
33.206,-3.607,1.736,64.0
33.187,-3.603,1.558,67.0
70.357,-7.652,5.279,19.0
69.842,-7.59,4.866,16.0
70.363,-7.642,4.524,19.0
33.195,-3.603,1.953,3.0
33.198,-3.601,1.775,38.0
33.189,-3.598,1.598,64.0
33.326,-3.619,2.54,20.0
33.327,-3.616,2.361,2.0
33.284,-3.609,2.179,3.0
69.863,-7.571,4.193,12.0
33.206,-3.596,1.815,5.0
33.195,-3.592,1.637,49.0
33.321,-3.612,2.579,47.0
33.317,-3.608,2.399,33.0
33.304,-3.604,2.219,20.0
69.919,-7.561,4.278,6.0
70.165,-7.582,3.916,11.0
33.203,-3.585,1.675,6.0
33.315,-3.603,2.617,52.0
33.318,-3.6,2.438,51.0
33.306,-3.596,2.258,32.0
70.289,-7.582,4.381,9.0
70.109,-7.557,3.993,9.0
69.994,-7.539,3.611,22.0
33.313,-3.593,2.655,53.0
33.31,-3.59,2.475,54.0
33.299,-3.585,2.295,37.0
33.334,-3.585,2.114,6.0
70.011,-7.524,4.065,17.0
70.112,-7.528,3.695,35.0
33.314,-3.583,2.692,54.0
33.315,-3.579,2.513,53.0
33.302,-3.574,2.332,39.0
33.298,-3.57,2.149,27.0
69.982,-7.496,4.141,13.0
70.065,-7.497,3.769,30.0
33.313,-3.571,2.729,52.0
33.303,-3.565,2.548,50.0
33.29,-3.56,2.368,41.0
33.288,-3.556,2.185,45.0
70.195,-7.49,4.229,10.0
70.151,-7.477,3.85,30.0
33.306,-3.556,2.765,50.0
33.295,-3.55,2.584,44.0
33.29,-3.546,2.404,46.0
33.281,-3.54,2.22,47.0
70.261,-7.466,4.308,13.0
70.358,-7.468,3.935,26.0
33.298,-3.54,2.8,51.0
33.287,-3.534,2.618,47.0
33.297,-3.531,2.439,55.0
33.275,-3.524,2.254,48.0
70.311,-7.438,4.383,9.0
70.389,-7.437,4.009,30.0
33.298,-3.524,2.834,55.0
33.295,-3.518,2.653,54.0
33.285,-3.513,2.472,64.0
33.268,-3.506,2.287,50.0
33.298,-3.505,2.109,3.0
70.259,-7.386,4.072,14.0
33.295,-3.506,2.867,53.0
33.29,-3.5,2.686,54.0
33.296,-3.496,2.506,55.0
33.275,-3.488,2.321,49.0
69.02,-7.225,4.442,12.0
69.718,-7.289,4.109,11.0
33.295,-3.487,2.9,53.0
33.286,-3.48,2.719,52.0
33.278,-3.474,2.537,52.0
33.269,-3.468,2.353,49.0
33.274,-3.463,2.173,40.0
69.306,-7.204,4.151,25.0
33.285,-3.465,2.931,54.0
33.279,-3.459,2.75,51.0
33.276,-3.453,2.569,53.0
33.251,-3.444,2.383,48.0
33.27,-3.441,2.204,50.0
69.283,-7.156,4.215,24.0
33.28,-3.443,2.963,53.0
33.27,-3.436,2.78,51.0
33.267,-3.43,2.599,51.0
33.245,-3.422,2.413,48.0
33.272,-3.419,2.234,53.0
69.231,-7.103,4.274,9.0
33.284,-3.42,2.993,51.0
33.269,-3.413,2.81,51.0
33.262,-3.406,2.628,52.0
33.246,-3.399,2.442,49.0
33.264,-3.394,2.263,51.0
69.361,-7.066,4.342,25.0
33.271,-3.395,3.021,52.0
33.264,-3.388,2.838,51.0
33.255,-3.381,2.656,50.0
33.241,-3.373,2.47,48.0
33.258,-3.369,2.29,52.0
69.324,-7.011,4.398,23.0
33.264,-3.369,3.048,50.0
33.258,-3.362,2.866,52.0
33.249,-3.355,2.683,50.0
33.235,-3.347,2.497,48.0
33.249,-3.341,2.318,52.0
69.57,-6.98,4.471,23.0
33.265,-3.343,3.076,53.0
33.248,-3.334,2.892,51.0
33.246,-3.327,2.71,52.0
33.222,-3.318,2.523,52.0
33.244,-3.314,2.343,52.0
33.255,-3.308,2.163,34.0
33.264,-3.315,3.102,53.0
33.239,-3.305,2.917,52.0
33.244,-3.299,2.736,52.0
33.212,-3.289,2.548,52.0
33.228,-3.283,2.368,51.0
33.242,-3.278,2.187,41.0
33.257,-3.285,3.127,53.0
33.239,-3.276,2.943,52.0
33.235,-3.268,2.76,52.0
33.206,-3.258,2.572,53.0
33.228,-3.253,2.392,52.0
33.247,-3.249,2.212,47.0
33.254,-3.255,3.151,54.0
33.234,-3.245,2.966,51.0
33.229,-3.237,2.783,51.0
33.202,-3.228,2.595,53.0
33.217,-3.222,2.414,51.0
33.225,-3.216,2.233,48.0
33.249,-3.223,3.174,54.0
33.236,-3.214,2.989,51.0
33.221,-3.205,2.805,51.0
33.195,-3.195,2.617,52.0
33.207,-3.189,2.436,49.0
33.234,-3.185,2.255,48.0
33.25,-3.191,3.195,54.0
33.228,-3.181,3.01,51.0
33.213,-3.172,2.826,50.0
33.192,-3.162,2.638,52.0
33.201,-3.156,2.456,50.0
33.234,-3.152,2.276,55.0
47.399,-4.502,4.585,8.0
33.225,-3.147,3.03,7.0
33.241,-3.141,2.848,2.0
33.235,-3.133,2.661,1.0
70.819,-6.66,5.281,15.0
69.901,-6.558,4.829,11.0
47.382,-4.452,4.611,24.0
79.35,-7.436,7.283,9.0
76.205,-7.123,6.573,18.0
73.653,-6.867,5.939,23.0
70.471,-6.553,5.295,18.0
70.026,-6.496,4.876,30.0
31.038,-0.009,-0.569,0.0
26.374,-0.009,-0.638,0.0
22.759,-0.008,-0.683,0.0
20.208,-0.008,-0.727,0.0
18.147,-0.008,-0.759,0.0
16.545,-0.008,-0.789,0.0
0.0,0.0,0.0,0.0
25.066,-0.016,-0.658,0.0
21.719,-0.015,-0.697,0.0
19.436,-0.014,-0.74,0.0
17.651,-0.014,-0.775,0.0
15.987,-0.013,-0.796,0.0
0.0,0.0,0.0,0.0
23.911,-0.024,-0.677,0.0
20.873,-0.022,-0.714,0.0
18.788,-0.021,-0.754,0.0
16.954,-0.019,-0.78,0.0
15.454,-0.018,-0.801,0.0
26.349,-0.036,-0.646,0.0
22.474,-0.031,-0.682,0.0
20.159,-0.029,-0.73,0.0
17.865,-0.027,-0.753,0.0
16.489,-0.026,-0.792,0.0
15.082,-0.024,-0.813,0.0
24.778,-0.044,-0.658,0.0
21.819,-0.04,-0.707,0.0
19.351,-0.037,-0.74,0.0
17.621,-0.034,-0.779,0.0
15.847,-0.032,-0.793,0.0
14.604,-0.03,-0.817,0.0
23.578,-0.053,-0.674,0.0
20.77,-0.048,-0.715,0.0
18.564,-0.044,-0.747,0.0
16.863,-0.041,-0.779,0.0
15.39,-0.038,-0.801,0.0
14.242,-0.036,-0.825,0.0
22.468,-0.062,-0.687,0.0
19.993,-0.056,-0.728,0.0
17.965,-0.051,-0.759,0.0
16.375,-0.048,-0.79,0.0
14.943,-0.045,-0.808,0.0
13.887,-0.043,-0.832,0.0
21.868,-0.071,-0.711,0.0
19.219,-0.064,-0.737,0.0
17.454,-0.059,-0.772,0.0
15.933,-0.055,-0.799,0.0
14.507,-0.052,-0.813,0.0
13.555,-0.049,-0.839,0.0
20.777,-0.08,-0.717,0.0
18.515,-0.072,-0.746,0.0
16.87,-0.067,-0.779,0.0
15.409,-0.062,-0.803,0.0
14.258,-0.059,-0.826,0.0
13.188,-0.056,-0.842,0.0
20.043,-0.089,-0.73,0.0
17.924,-0.081,-0.757,0.0
16.361,-0.075,-0.787,0.0
14.977,-0.07,-0.809,0.0
13.85,-0.066,-0.829,0.0
12.834,-0.062,-0.844,0.0
19.238,-0.097,-0.737,0.0
17.434,-0.089,-0.77,0.0
15.913,-0.083,-0.795,0.0
14.592,-0.077,-0.816,0.0
13.555,-0.073,-0.838,0.0
12.481,-0.068,-0.845,0.0
18.585,-0.106,-0.747,0.0
16.933,-0.098,-0.78,0.0
15.461,-0.091,-0.802,0.0
14.225,-0.085,-0.823,0.0
13.25,-0.081,-0.844,0.0
12.188,-0.075,-0.848,0.0
18.043,-0.116,-0.759,0.0
16.368,-0.106,-0.784,0.0
15.027,-0.099,-0.808,0.0
13.854,-0.093,-0.827,0.0
12.908,-0.088,-0.846,0.0
11.841,-0.082,-0.846,0.0
17.411,-0.124,-0.765,0.0
15.974,-0.116,-0.795,0.0
14.664,-0.108,-0.815,0.0
13.581,-0.101,-0.836,0.0
12.56,-0.095,-0.847,0.0
11.631,-0.089,-0.852,0.0
16.928,-0.134,-0.775,0.0
15.486,-0.124,-0.799,0.0
14.265,-0.116,-0.819,0.0
13.23,-0.109,-0.838,0.0
12.275,-0.102,-0.85,0.0
11.403,-0.096,-0.856,0.0
16.561,-0.144,-0.788,0.0
15.104,-0.133,-0.806,0.0
13.878,-0.123,-0.822,0.0
12.971,-0.117,-0.845,0.0
11.919,-0.109,-0.846,0.0
11.223,-0.104,-0.863,0.0
19.988,-1.071,-0.042,19.0
20.024,-1.066,-0.149,25.0
20.069,-1.062,-0.256,2.0
20.023,-1.054,-0.364,10.0
20.047,-1.049,-0.471,24.0
20.063,-1.043,-0.579,30.0
19.985,-1.036,-0.022,19.0
19.978,-1.029,-0.128,28.0
19.999,-1.024,-0.235,27.0
20.011,-1.018,-0.344,22.0
20.032,-1.013,-0.451,31.0
20.069,-1.009,-0.559,25.0
20.007,-1.002,-0.003,14.0
19.978,-0.994,-0.109,29.0
19.987,-0.988,-0.216,30.0
20.006,-0.983,-0.325,27.0
20.039,-0.978,-0.432,25.0
20.063,-0.973,-0.54,13.0
20.023,-0.967,0.015,0.0
19.995,-0.96,-0.09,20.0
19.997,-0.953,-0.197,26.0
19.997,-0.947,-0.306,19.0
20.048,-0.943,-0.414,12.0
26.205,-1.224,-0.681,0.0
0.0,0.0,0.0,0.0
20.041,-0.925,-0.072,0.0
20.013,-0.917,-0.179,3.0
20.02,-0.911,-0.288,2.0
30.725,-1.388,-0.607,0.0
26.653,-1.196,-0.669,0.0
0.0,0.0,0.0,0.0
0.0,0.0,0.0,0.0
47.214,-2.078,-0.381,0.0
38.427,-1.678,-0.52,1.0
0.0,0.0,0.0,0.0
26.691,-1.148,-0.647,0.0
0.0,0.0,0.0,0.0
0.0,0.0,0.0,0.0
0.0,0.0,0.0,0.0
38.883,-1.625,-0.493,0.0
0.0,0.0,0.0,0.0
0.0,0.0,0.0,0.0
0.0,0.0,0.0,0.0
76.507,-3.105,-0.08,0.0
0.0,0.0,0.0,0.0
0.0,0.0,0.0,0.0
0.0,0.0,0.0,0.0
28.485,-1.117,-0.643,0.0
138.446,-5.403,0.706,2.0
0.0,0.0,0.0,0.0
0.0,0.0,0.0,0.0
0.0,0.0,0.0,0.0
0.0,0.0,0.0,0.0
0.0,0.0,0.0,0.0
138.4,-5.136,0.812,9.0
0.0,0.0,0.0,0.0
0.0,0.0,0.0,0.0
43.619,-1.573,-0.451,0.0
35.228,-1.259,-0.553,0.0
29.677,-1.05,-0.625,0.0
138.548,-4.872,0.915,11.0
0.0,0.0,0.0,0.0
0.0,0.0,0.0,0.0
44.493,-1.518,-0.428,0.0
37.973,-1.282,-0.569,0.0
0.0,0.0,0.0,0.0
138.617,-4.602,1.013,17.0
0.0,0.0,0.0,0.0
0.0,0.0,0.0,0.0
47.578,-1.528,-0.425,1.0
38.054,-1.209,-0.545,0.0
30.454,-0.957,-0.6,0.0
138.72,-4.327,1.108,17.0
0.0,0.0,0.0,0.0
0.0,0.0,0.0,0.0
47.425,-1.428,-0.392,0.0
38.146,-1.135,-0.521,0.0
0.0,0.0,0.0,0.0
138.435,-4.038,1.194,24.0
0.0,0.0,0.0,0.0
0.0,0.0,0.0,0.0
47.94,-1.347,-0.366,1.0
38.109,-1.057,-0.497,0.0
31.767,-0.87,-0.586,0.0
138.802,-3.767,1.281,22.0
0.0,0.0,0.0,0.0
0.0,0.0,0.0,0.0
0.0,0.0,0.0,0.0
0.0,0.0,0.0,0.0
0.0,0.0,0.0,0.0
138.852,-3.487,1.36,20.0
0.0,0.0,0.0,0.0
0.0,0.0,0.0,0.0
0.0,0.0,0.0,0.0
0.0,0.0,0.0,0.0
33.596,-0.783,-0.582,0.0
10.805,0.912,-0.863,0.0
10.266,0.865,-0.879,0.0
9.779,0.823,-0.893,0.0
0.0,0.0,0.0,0.0
8.886,0.746,-0.914,0.0
8.531,0.715,-0.926,0.0
10.743,0.895,-0.864,0.0
10.226,0.851,-0.88,0.0
9.797,0.814,-0.899,0.0
0.0,0.0,0.0,0.0
8.873,0.735,-0.917,0.0
8.485,0.702,-0.925,0.0
10.715,0.881,-0.867,0.0
10.188,0.837,-0.882,0.0
9.684,0.794,-0.893,0.0
0.0,0.0,0.0,0.0
8.844,0.723,-0.918,0.0
8.398,0.686,-0.919,0.0
10.693,0.868,-0.87,0.0
10.137,0.822,-0.882,0.0
9.644,0.78,-0.894,0.0
0.0,0.0,0.0,0.0
8.789,0.709,-0.916,0.0
8.383,0.675,-0.921,0.0
10.609,0.849,-0.867,0.0
10.079,0.805,-0.881,0.0
9.642,0.769,-0.897,0.0
9.153,0.729,-0.905,0.0
8.815,0.701,-0.922,0.0
8.421,0.668,-0.928,0.0
10.607,0.837,-0.871,0.0
10.109,0.796,-0.887,0.0
9.625,0.757,-0.899,0.0
9.085,0.713,-0.901,0.0
8.767,0.687,-0.919,0.0
8.367,0.654,-0.925,0.0
10.556,0.82,-0.87,0.0
10.092,0.783,-0.889,0.0
9.601,0.743,-0.9,0.0
9.135,0.706,-0.909,0.0
8.76,0.676,-0.921,0.0
8.35,0.643,-0.926,0.0
10.535,0.806,-0.871,0.0
10.031,0.766,-0.886,0.0
9.556,0.728,-0.898,0.0
0.0,0.0,0.0,0.0
8.653,0.657,-0.912,0.0
8.342,0.632,-0.927,0.0
10.489,0.79,-0.869,0.0
10.02,0.753,-0.887,0.0
9.514,0.714,-0.896,0.0
9.142,0.684,-0.914,0.0
8.673,0.648,-0.916,0.0
8.275,0.617,-0.921,0.0
10.485,0.777,-0.871,0.0
10.027,0.741,-0.89,0.0
9.565,0.706,-0.903,0.0
9.054,0.666,-0.907,0.0
8.671,0.637,-0.917,0.0
8.307,0.609,-0.926,0.0
10.474,0.763,-0.872,0.0
9.98,0.725,-0.887,0.0
9.549,0.693,-0.902,0.0
9.032,0.654,-0.906,0.0
8.682,0.627,-0.92,0.0
8.341,0.601,-0.931,0.0
10.48,0.75,-0.873,0.0
9.999,0.714,-0.89,0.0
9.543,0.68,-0.903,0.0
9.16,0.651,-0.919,0.0
8.683,0.616,-0.92,0.0
8.352,0.591,-0.932,0.0
10.505,0.739,-0.876,0.0
9.994,0.701,-0.89,0.0
9.515,0.666,-0.901,0.0
9.069,0.633,-0.91,0.0
8.679,0.604,-0.92,0.0
8.288,0.576,-0.926,0.0
10.465,0.722,-0.873,0.0
9.979,0.687,-0.888,0.0
9.58,0.658,-0.907,0.0
9.069,0.621,-0.91,0.0
8.686,0.594,-0.921,0.0
8.303,0.566,-0.927,0.0
10.47,0.709,-0.873,0.0
10.006,0.676,-0.891,0.0
9.495,0.639,-0.898,0.0
9.029,0.606,-0.906,0.0
8.699,0.583,-0.922,0.0
8.325,0.556,-0.929,0.0
10.493,0.697,-0.874,0.0
10.011,0.663,-0.89,0.0
9.492,0.627,-0.897,0.0
9.057,0.596,-0.908,0.0
8.704,0.571,-0.922,0.0
8.286,0.543,-0.924,0.0
10.514,0.684,-0.875,0.0
10.017,0.65,-0.89,0.0
9.566,0.619,-0.903,0.0
9.022,0.582,-0.903,0.0
8.727,0.561,-0.923,0.0
8.32,0.534,-0.926,0.0
10.532,0.671,-0.875,0.0
10.04,0.638,-0.89,0.0
9.548,0.605,-0.9,0.0
9.098,0.574,-0.909,0.0
8.732,0.55,-0.922,0.0
8.289,0.52,-0.921,0.0
10.534,0.657,-0.873,0.0
10.071,0.626,-0.891,0.0
9.611,0.595,-0.904,0.0
9.099,0.562,-0.907,0.0
8.741,0.538,-0.921,0.0
8.344,0.512,-0.926,0.0
10.553,0.644,-0.872,0.0
10.064,0.612,-0.888,0.0
9.564,0.579,-0.897,0.0
9.163,0.554,-0.911,0.0
8.762,0.528,-0.92,0.0
8.378,0.503,-0.927,0.0
10.592,0.632,-0.872,0.0
10.109,0.601,-0.889,0.0
9.642,0.571,-0.901,0.0
9.21,0.544,-0.913,0.0
8.76,0.515,-0.917,0.0
8.424,0.494,-0.929,0.0
10.61,0.618,-0.87,0.0
10.111,0.587,-0.885,0.0
9.669,0.559,-0.9,0.0
9.222,0.532,-0.911,0.0
8.807,0.506,-0.919,0.0
8.414,0.482,-0.925,0.0
10.655,0.606,-0.87,0.0
10.139,0.575,-0.884,0.0
9.721,0.549,-0.901,0.0
9.222,0.519,-0.907,0.0
8.839,0.496,-0.919,0.0
8.448,0.472,-0.925,0.0
10.674,0.592,-0.867,0.0
10.162,0.562,-0.881,0.0
9.737,0.536,-0.899,0.0
9.176,0.503,-0.899,0.0
8.844,0.483,-0.915,0.0
8.468,0.461,-0.923,0.0
10.758,0.582,-0.869,0.0
10.248,0.552,-0.884,0.0
9.768,0.524,-0.897,0.0
9.322,0.498,-0.908,0.0
8.931,0.476,-0.92,0.0
8.512,0.452,-0.924,0.0
10.81,0.57,-0.867,0.0
10.273,0.539,-0.881,0.0
9.806,0.513,-0.895,0.0
9.277,0.483,-0.899,0.0
8.904,0.462,-0.912,0.0
8.559,0.442,-0.924,0.0
10.871,0.558,-0.866,0.0
10.337,0.528,-0.881,0.0
9.889,0.503,-0.897,0.0
9.442,0.478,-0.91,0.0
9.038,0.456,-0.921,0.0
8.58,0.431,-0.922,0.0
10.987,0.549,-0.869,0.0
10.394,0.517,-0.879,0.0
9.941,0.492,-0.896,0.0
9.46,0.466,-0.905,0.0
9.019,0.443,-0.913,0.0
8.648,0.423,-0.923,0.0
11.041,0.536,-0.866,0.0
10.449,0.505,-0.877,0.0
9.967,0.48,-0.892,0.0
9.524,0.456,-0.905,0.0
9.051,0.432,-0.91,0.0
8.644,0.41,-0.917,0.0
11.13,0.525,-0.866,0.0
10.492,0.493,-0.874,0.0
10.032,0.469,-0.89,0.0
9.555,0.444,-0.901,0.0
9.103,0.421,-0.909,0.0
8.766,0.404,-0.924,0.0
11.207,0.513,-0.864,0.0
10.583,0.482,-0.873,0.0
10.101,0.458,-0.889,0.0
9.672,0.437,-0.905,0.0
9.208,0.414,-0.912,0.0
8.798,0.393,-0.92,0.0
11.283,0.501,-0.861,0.0
10.654,0.471,-0.871,0.0
10.166,0.447,-0.887,0.0
9.735,0.426,-0.903,0.0
9.236,0.402,-0.908,0.0
8.873,0.384,-0.921,0.0
11.329,0.487,-0.855,0.0
10.776,0.461,-0.872,0.0
10.248,0.436,-0.885,0.0
9.766,0.414,-0.898,0.0
9.404,0.396,-0.916,0.0
8.915,0.374,-0.918,0.0
11.407,0.475,-0.851,0.0
10.917,0.452,-0.874,0.0
10.344,0.426,-0.885,0.0
9.828,0.403,-0.895,0.0
9.406,0.383,-0.908,0.0
8.977,0.364,-0.916,0.0
11.553,0.465,-0.852,0.0
10.993,0.44,-0.87,0.0
10.382,0.414,-0.878,0.0
9.923,0.393,-0.895,0.0
9.443,0.372,-0.903,0.0
9.034,0.354,-0.913,0.0
11.674,0.454,-0.85,0.0
11.098,0.43,-0.868,1.0
10.464,0.403,-0.875,0.0
9.989,0.382,-0.891,0.0
9.57,0.364,-0.906,0.0
9.084,0.344,-0.909,0.0
11.795,0.443,-0.847,0.0
11.186,0.418,-0.864,1.0
10.584,0.393,-0.875,0.0
10.081,0.372,-0.889,0.0
9.661,0.355,-0.904,0.0
9.182,0.335,-0.91,0.0
11.974,0.434,-0.848,0.0
11.32,0.408,-0.862,0.0
10.741,0.385,-0.876,0.0
10.184,0.362,-0.887,0.0
9.768,0.345,-0.904,0.0
9.226,0.324,-0.904,0.0
12.155,0.424,-0.847,0.0
11.4,0.396,-0.856,0.0
10.873,0.375,-0.875,0.0
10.292,0.353,-0.885,0.0
9.817,0.334,-0.898,0.0
9.402,0.318,-0.911,0.0
12.335,0.414,-0.846,0.0
11.523,0.385,-0.853,0.0
10.966,0.364,-0.871,1.0
10.382,0.342,-0.882,0.0
9.942,0.325,-0.898,0.0
9.446,0.307,-0.904,0.0
12.626,0.408,-0.852,0.0
11.683,0.375,-0.851,0.0
11.107,0.354,-0.869,1.0
10.462,0.331,-0.876,0.0
10.06,0.316,-0.897,0.0
9.556,0.298,-0.903,0.0
12.87,0.399,-0.853,0.0
11.833,0.364,-0.848,0.0
11.225,0.343,-0.865,0.0
10.619,0.322,-0.876,0.0
10.129,0.305,-0.89,0.0
9.663,0.289,-0.901,0.0
12.949,0.385,-0.842,0.0
12.041,0.355,-0.848,0.0
11.372,0.333,-0.862,0.0
10.806,0.314,-0.878,0.0
10.258,0.296,-0.889,0.0
9.786,0.28,-0.9,0.0
13.26,0.378,-0.846,0.0
12.291,0.347,-0.85,0.0
11.465,0.322,-0.854,0.0
10.92,0.304,-0.873,0.0
10.359,0.286,-0.884,0.0
9.892,0.271,-0.897,0.0
13.49,0.368,-0.843,0.0
12.451,0.337,-0.844,0.0
11.632,0.312,-0.851,0.0
11.087,0.295,-0.872,1.0
10.487,0.277,-0.881,0.0
10.036,0.263,-0.897,0.0
13.728,0.357,-0.839,0.0
12.805,0.33,-0.851,0.0
11.813,0.302,-0.848,0.0
11.233,0.285,-0.868,1.0
10.662,0.268,-0.881,0.0
10.154,0.253,-0.893,0.0
13.868,0.344,-0.829,0.0
13.063,0.321,-0.85,0.0
12.074,0.295,-0.85,0.0
11.374,0.275,-0.863,1.0
10.821,0.259,-0.879,0.0
10.27,0.244,-0.889,0.0
14.198,0.335,-0.828,0.0
13.294,0.311,-0.846,0.0
12.342,0.287,-0.851,0.0
11.491,0.264,-0.855,0.0
10.991,0.251,-0.876,0.0
10.386,0.235,-0.884,0.0
44.083,4.49,3.744,33.0
44.22,4.503,3.5,21.0
43.491,4.428,3.191,19.0
43.711,4.45,2.951,20.0
58.188,5.924,3.594,22.0
88.542,9.014,4.96,28.0
44.118,4.502,3.693,33.0
43.546,4.442,3.394,20.0
42.922,4.378,3.098,28.0
0.0,0.0,0.0,0.0
58.301,5.945,3.531,22.0
88.526,9.026,4.852,25.0
44.09,4.506,3.637,34.0
42.834,4.376,3.286,21.0
43.181,4.41,3.063,18.0
44.679,4.562,2.907,15.0
58.262,5.948,3.456,8.0
88.513,9.035,4.742,24.0
44.155,4.516,3.587,19.0
43.07,4.404,3.25,18.0
43.455,4.442,3.029,19.0
57.907,5.917,3.696,21.0
88.505,9.042,5.141,23.0
88.469,9.038,4.629,28.0
44.348,4.539,3.547,17.0
43.554,4.455,3.232,20.0
43.574,4.456,2.982,19.0
58.23,5.953,3.643,32.0
88.493,9.044,5.028,24.0
88.459,9.039,4.517,27.0
44.102,4.514,3.471,19.0
43.028,4.402,3.138,18.0
44.034,4.503,2.957,21.0
58.296,5.96,3.573,17.0
88.493,9.044,4.915,26.0
88.452,9.037,4.405,26.0
42.857,4.385,3.318,8.0
42.992,4.397,3.08,20.0
44.68,4.567,2.943,29.0
58.256,5.953,3.495,11.0
88.471,9.037,4.8,25.0
88.464,9.033,4.29,25.0
42.817,4.378,3.258,25.0
43.455,4.441,3.056,19.0
57.919,5.916,3.739,9.0
88.5,9.035,5.195,19.0
88.479,9.029,4.683,26.0
88.489,9.026,4.176,22.0
43.52,4.444,3.255,18.0
43.116,4.4,2.975,25.0
58.009,5.917,3.669,25.0
88.53,9.026,5.081,29.0
88.52,9.02,4.57,24.0
88.493,9.014,4.059,17.0
43.316,4.416,3.182,18.0
43.734,4.456,2.96,20.0
58.183,5.925,3.604,22.0
88.546,9.011,4.966,30.0
88.534,9.006,4.455,29.0
88.533,9.001,3.946,19.0
42.872,4.362,3.093,30.0
0.0,0.0,0.0,0.0
58.24,5.918,3.529,10.0
88.535,8.991,4.847,40.0
88.548,8.986,4.338,31.0
88.535,8.981,3.829,21.0
42.859,4.35,3.034,25.0
44.734,4.537,2.909,36.0
88.508,8.97,5.246,19.0
88.535,8.967,4.729,42.0
88.544,8.962,4.22,35.0
88.555,8.957,3.71,25.0
43.005,4.352,2.987,30.0
57.953,5.86,3.691,15.0
88.535,8.945,5.128,37.0
88.536,8.938,4.609,37.0
88.557,8.935,4.101,37.0
88.562,8.929,3.593,30.0
43.104,4.347,2.936,32.0
73.439,7.401,4.578,11.0
88.528,8.913,5.008,34.0
88.525,8.906,4.49,34.0
88.561,8.903,3.982,36.0
88.526,8.893,3.472,17.0
42.902,4.31,2.864,17.0
73.318,7.36,4.472,22.0
88.535,8.879,4.889,30.0
88.546,8.872,4.371,35.0
88.54,8.864,3.862,35.0
88.4,8.844,3.348,5.0
42.853,4.287,2.802,6.0
73.161,7.311,4.363,30.0
73.21,7.309,3.943,10.0
88.525,8.83,4.249,38.0
88.559,8.826,3.743,32.0
88.01,8.764,3.215,3.0
74.293,-6.687,6.194,11.0
70.883,-6.379,5.532,20.0
70.434,-6.338,5.123,29.0
70.7,-6.361,4.76,18.0
71.358,-6.42,4.425,17.0
69.755,-6.276,3.956,25.0
74.472,-6.714,6.314,9.0
71.248,-6.422,5.661,11.0
70.373,-6.342,5.217,31.0
70.735,-6.373,4.861,12.0
71.289,-6.422,4.52,9.0
69.818,-6.288,4.056,27.0
71.323,-6.437,6.146,8.0
71.171,-6.422,5.753,8.0
70.423,-6.352,5.317,25.0
70.519,-6.359,4.941,20.0
71.15,-6.414,4.607,7.0
70.222,-6.328,4.174,9.0
71.318,-6.441,6.242,8.0
73.4,-6.626,6.033,4.0
70.726,-6.382,5.435,29.0
70.429,-6.353,5.031,42.0
33.184,-2.992,2.194,2.0
71.297,-6.426,4.335,12.0
73.497,-6.639,6.533,21.0
74.103,-6.69,6.191,8.0
71.057,-6.412,5.557,18.0
70.39,-6.349,5.123,34.0
70.704,-6.374,4.769,19.0
71.356,-6.43,4.434,18.0
73.497,-6.637,6.633,19.0
74.406,-6.715,6.317,8.0
71.189,-6.421,5.663,11.0
70.373,-6.343,5.216,26.0
70.683,-6.368,4.862,10.0
71.118,-6.404,4.513,10.0
73.496,-6.632,6.731,9.0
71.349,-6.433,6.152,7.0
71.22,-6.417,5.759,7.0
70.456,-6.344,5.314,28.0
70.267,-6.323,4.924,22.0
70.715,-6.359,4.58,8.0
73.642,-6.637,6.84,10.0
71.33,-6.423,6.243,7.0
73.727,-6.633,6.057,8.0
70.709,-6.357,5.424,38.0
70.267,-6.313,5.015,31.0
70.722,-6.349,4.67,11.0
73.725,-6.633,6.943,25.0
73.526,-6.609,6.529,8.0
74.482,-6.689,6.215,12.0
70.789,-6.352,5.521,25.0
70.381,-6.309,5.113,23.0
70.727,-6.335,4.76,20.0
73.762,-6.622,7.041,19.0
73.433,-6.586,6.615,11.0
74.494,-6.674,6.311,15.0
71.056,-6.36,5.631,9.0
70.435,-6.298,5.205,25.0
70.678,-6.314,4.846,28.0
73.764,-6.605,7.135,12.0
73.45,-6.569,6.709,16.0
74.429,-6.649,6.399,10.0
71.161,-6.35,5.729,9.0
70.514,-6.286,5.298,35.0
70.414,-6.271,4.914,26.0
73.658,-6.575,7.216,16.0
73.428,-6.545,6.798,23.0
0.0,0.0,0.0,0.0
71.236,-6.335,5.821,5.0
70.761,-6.286,5.403,38.0
70.238,-6.232,4.987,36.0
73.459,-6.533,7.286,13.0
73.427,-6.522,6.887,28.0
76.202,-6.759,6.736,6.0
74.463,-6.596,6.174,19.0
70.745,-6.259,5.486,28.0
70.405,-6.222,5.082,14.0
73.274,-6.49,7.355,28.0
73.717,-6.52,7.0,29.0
76.435,-6.751,6.846,2.0
0.0,0.0,0.0,0.0
74.593,-6.57,5.871,9.0
73.378,-6.455,5.382,7.0
73.07,-6.443,7.42,39.0
73.868,-6.503,7.101,22.0
79.835,-7.018,7.243,7.0
71.207,-6.251,6.068,10.0
71.211,-6.242,5.685,8.0
70.783,-6.196,5.27,9.0
0.0,0.0,0.0,0.0
73.926,-6.475,7.189,10.0
73.615,-6.438,6.76,14.0
71.2,-6.218,6.146,13.0
71.524,-6.236,5.789,5.0
70.79,-6.163,5.348,15.0
42.026,-0.684,3.931,38.0
42.079,-0.678,3.69,36.0
42.684,-0.681,3.494,41.0
42.758,-0.676,3.247,44.0
48.383,-0.757,3.392,38.0
0.0,0.0,0.0,0.0
41.949,-0.639,3.86,45.0
42.154,-0.636,3.633,30.0
42.372,-0.633,3.404,30.0
42.571,-0.63,3.168,41.0
48.473,-0.709,3.325,32.0
61.521,-0.892,3.863,12.0
41.929,-0.597,3.794,45.0
42.522,-0.6,3.6,21.0
42.236,-0.589,3.328,50.0
42.587,-0.588,3.103,49.0
48.476,-0.662,3.25,34.0
61.633,-0.834,3.774,9.0
41.96,-0.557,3.731,47.0
42.356,-0.556,3.519,18.0
42.138,-0.547,3.254,44.0
42.516,-0.546,3.031,34.0
48.366,-0.615,3.167,37.0
73.49,-0.925,4.384,16.0
41.995,-0.517,3.667,27.0
42.819,-0.522,3.488,30.0
42.137,-0.508,3.186,49.0
42.481,-0.506,2.96,31.0
48.432,-0.571,3.092,41.0
60.689,-0.707,3.522,19.0
41.599,-0.475,3.564,48.0
42.138,-0.475,3.364,40.0
42.27,-0.471,3.127,46.0
48.104,-0.53,3.273,22.0
60.213,-0.655,3.746,13.0
60.501,-0.651,3.411,30.0
41.735,-0.438,3.506,36.0
41.969,-0.435,3.28,43.0
45.975,-0.471,3.324,5.0
48.157,-0.487,3.195,22.0
68.507,-0.685,4.146,8.0
60.564,-0.598,3.312,9.0
41.8,-0.402,3.439,36.0
42.034,-0.399,3.213,40.0
45.959,-0.431,3.243,17.0
48.738,-0.451,3.15,22.0
60.673,-0.555,3.568,4.0
77.815,-0.703,4.122,10.0
41.908,-0.368,3.376,46.0
42.111,-0.365,3.145,43.0
48.149,-0.411,3.314,21.0
48.336,-0.407,3.039,19.0
60.637,-0.504,3.459,12.0
86.286,-0.708,4.42,6.0
41.993,-0.335,3.308,43.0
42.488,-0.334,3.098,20.0
48.171,-0.373,3.231,17.0
60.589,-0.463,3.703,21.0
60.768,-0.457,3.36,26.0
81.143,-0.602,4.014,11.0
42.091,-0.302,3.24,41.0
48.165,-0.341,3.426,5.0
48.144,-0.336,3.142,38.0
60.732,-0.417,3.603,12.0
78.043,-0.528,4.174,3.0
95.726,-0.638,4.562,9.0
42.319,-0.272,3.181,50.0
48.343,-0.306,3.351,20.0
48.132,-0.3,3.054,21.0
60.616,-0.372,3.485,5.0
77.809,-0.469,4.019,12.0
95.96,-0.569,4.397,11.0
45.869,-0.262,3.363,30.0
48.381,-0.271,3.263,22.0
60.441,-0.333,3.723,20.0
78.358,-0.425,4.361,11.0
81.208,-0.433,4.045,6.0
95.487,-0.501,4.199,18.0
48.262,-0.242,3.449,7.0
60.312,-0.297,3.956,8.0
60.614,-0.293,3.621,6.0
77.678,-0.369,4.178,12.0
80.73,-0.376,3.87,13.0
95.672,-0.438,4.028,17.0
48.518,-0.211,3.376,23.0
60.262,-0.258,3.839,21.0
60.693,-0.254,3.51,29.0
77.744,-0.319,4.034,14.0
81.129,-0.327,3.735,10.0
117.333,-0.463,4.718,25.0
48.046,-0.18,3.251,37.0
60.313,-0.221,3.727,34.0
60.608,-0.217,3.39,19.0
81.014,-0.283,4.049,8.0
95.441,-0.326,4.211,10.0
117.38,-0.392,4.493,33.0
60.189,-0.189,3.954,10.0
60.54,-0.185,3.623,14.0
60.314,-0.18,3.256,21.0
80.96,-0.236,3.888,8.0
117.374,-0.334,4.951,16.0
117.428,-0.326,4.268,34.0
60.446,-0.156,3.854,10.0
60.636,-0.152,3.511,11.0
77.698,-0.19,4.043,14.0
80.734,-0.192,3.719,14.0
117.38,-0.272,4.722,25.0
117.412,-0.264,4.039,29.0
60.382,-0.124,3.731,9.0
60.219,-0.12,3.368,21.0
80.565,-0.156,4.034,17.0
95.305,-0.178,4.203,15.0
117.429,-0.213,4.493,21.0
117.431,-0.205,3.807,27.0
60.575,-0.095,3.623,7.0
77.921,-0.118,4.202,9.0
80.604,-0.117,3.874,3.0
95.412,-0.134,4.018,6.0
117.477,-0.157,4.26,14.0
70.179,-0.09,2.135,14.0
60.353,-0.067,3.487,19.0
80.712,-0.086,4.19,12.0
103.546,-0.104,4.768,6.0
70.079,-0.067,2.81,6.0
69.963,-0.064,2.396,11.0
117.421,-0.101,3.335,20.0
60.122,-0.042,3.352,11.0
80.444,-0.052,4.013,17.0
226.881,-0.137,9.986,10.0
70.1,-0.039,2.667,25.0
70.044,-0.035,2.256,22.0
117.42,-0.055,3.096,27.0
77.922,-0.024,4.184,25.0
80.729,-0.022,3.863,12.0
189.781,-0.044,7.967,24.0
69.868,-0.013,2.517,36.0
70.033,-0.01,2.113,26.0
117.373,-0.012,2.854,9.0
82.154,0.002,4.243,5.0
103.136,0.006,4.724,11.0
70.116,0.007,2.8,10.0
69.936,0.009,2.375,33.0
70.145,0.012,1.972,15.0
117.405,0.024,2.615,12.0
80.451,0.027,3.989,24.0
70.231,0.026,3.07,11.0
69.968,0.028,2.648,24.0
69.899,0.03,2.229,23.0
117.394,0.055,3.056,20.0
117.389,0.058,2.37,22.0
80.636,0.049,3.829,10.0
117.68,0.075,4.899,17.0
69.919,0.046,2.501,29.0
70.056,0.048,2.088,29.0
117.427,0.084,2.811,7.0
117.395,0.087,2.125,19.0
70.185,0.06,3.186,8.0
70.15,0.061,2.773,24.0
69.824,0.062,2.352,28.0
70.244,0.064,1.947,9.0
117.405,0.11,2.566,19.0
117.404,0.112,1.881,10.0
70.215,0.073,3.041,24.0
70.042,0.075,2.621,24.0
69.863,0.075,2.205,31.0
117.414,0.129,3.009,10.0
117.443,0.131,2.321,18.0
111.096,0.125,1.547,21.0
70.338,0.085,2.898,7.0
69.982,0.086,2.473,24.0
70.173,0.087,2.069,31.0
117.442,0.146,2.763,12.0
117.434,0.147,2.076,12.0
111.134,0.14,1.315,23.0
70.183,0.094,2.744,30.0
69.777,0.094,2.318,38.0
117.559,0.159,3.216,11.0
117.527,0.16,2.517,12.0
111.138,0.151,1.729,14.0
111.184,0.152,1.078,11.0
70.174,0.1,2.593,25.0
69.96,0.1,2.175,26.0
117.528,0.168,2.965,8.0
117.441,0.168,2.262,8.0
111.105,0.159,1.489,22.0
110.788,0.158,0.836,7.0
69.852,0.103,2.432,27.0
70.197,0.104,2.032,13.0
117.505,0.173,2.714,7.0
117.511,0.172,2.014,5.0
111.129,0.162,1.255,21.0
103.469,0.15,0.562,5.0
19.866,-2.142,-0.534,19.0
18.115,-1.952,-0.583,22.0
16.347,-1.76,-0.613,14.0
15.183,-1.633,-0.651,11.0
14.19,-1.525,-0.684,1.0
13.482,-1.448,-0.722,1.0
20.385,-2.187,-0.522,19.0
18.413,-1.974,-0.569,18.0
16.913,-1.811,-0.613,15.0
15.516,-1.66,-0.646,13.0
14.391,-1.539,-0.676,1.0
13.669,-1.46,-0.714,0.0
21.119,-2.254,-0.514,21.0
18.872,-2.012,-0.559,18.0
17.388,-1.852,-0.608,16.0
15.848,-1.687,-0.64,14.0
14.719,-1.565,-0.672,1.0
13.836,-1.47,-0.706,1.0
21.756,-2.309,-0.502,22.0
19.411,-2.058,-0.551,20.0
17.773,-1.882,-0.598,17.0
16.182,-1.712,-0.632,14.0
15.155,-1.601,-0.673,1.0
14.052,-1.483,-0.699,1.0
22.403,-2.363,-0.488,21.0
19.986,-2.105,-0.542,21.0
18.167,-1.912,-0.589,16.0
16.507,-1.735,-0.624,14.0
15.394,-1.616,-0.664,4.0
14.309,-1.5,-0.693,2.0
23.021,-2.412,-0.473,14.0
20.632,-2.159,-0.533,19.0
18.623,-1.946,-0.58,18.0
16.892,-1.763,-0.617,15.0
15.765,-1.643,-0.66,2.0
14.491,-1.509,-0.684,1.0
23.526,-2.447,-0.454,7.0
21.292,-2.212,-0.523,23.0
19.101,-1.982,-0.571,19.0
17.245,-1.787,-0.609,16.0
16.238,-1.68,-0.659,4.0
14.809,-1.53,-0.68,1.0
23.56,-2.432,-0.425,8.0
21.798,-2.247,-0.508,22.0
19.637,-2.021,-0.562,18.0
17.606,-1.81,-0.599,16.0
16.408,-1.684,-0.646,11.0
15.142,-1.552,-0.676,1.0
23.57,-2.414,-0.395,0.0
22.462,-2.297,-0.496,19.0
20.113,-2.053,-0.551,17.0
18.141,-1.849,-0.595,17.0
16.777,-1.707,-0.639,7.0
15.452,-1.57,-0.671,1.0
29.649,-3.011,-0.46,2.0
23.228,-2.354,-0.484,26.0
20.782,-2.103,-0.544,18.0
18.559,-1.875,-0.586,16.0
17.364,-1.751,-0.64,6.0
15.809,-1.592,-0.667,1.0
29.876,-3.006,-0.427,19.0
23.545,-2.365,-0.462,15.0
21.569,-2.162,-0.538,18.0
18.96,-1.897,-0.575,16.0
17.731,-1.771,-0.632,8.0
16.186,-1.614,-0.663,2.0
30.203,-3.01,-0.395,24.0
23.571,-2.344,-0.434,5.0
21.608,-2.145,-0.512,19.0
19.502,-1.932,-0.568,17.0
18.205,-1.8,-0.627,9.0
16.512,-1.63,-0.656,1.0
30.273,-2.986,-0.359,11.0
23.593,-2.322,-0.405,0.0
22.644,-2.225,-0.509,21.0
20.066,-1.967,-0.56,15.0
18.615,-1.822,-0.619,9.0
16.91,-1.651,-0.652,1.0
35.359,-3.451,-0.378,16.0
23.705,-2.309,-0.379,0.0
23.404,-2.274,-0.499,21.0
20.4,-1.978,-0.545,19.0
19.108,-1.849,-0.612,9.0
17.358,-1.676,-0.649,2.0
35.886,-3.463,-0.341,13.0
29.459,-2.837,-0.437,8.0
23.565,-2.264,-0.474,17.0
20.901,-2.003,-0.534,17.0
19.318,-1.848,-0.596,4.0
17.759,-1.695,-0.643,2.0
37.507,-3.578,-0.313,16.0
29.74,-2.83,-0.406,5.0
23.581,-2.239,-0.448,3.0
21.892,-2.073,-0.534,18.0
20.142,-1.903,-0.599,4.0
18.234,-1.719,-0.639,2.0
13.497,1.067,-0.836,0.0
12.52,0.991,-0.848,0.0
11.565,0.916,-0.85,0.0
10.843,0.859,-0.861,0.0
10.334,0.819,-0.88,0.0
9.878,0.784,-0.898,0.0
13.213,1.046,-0.837,0.0
12.228,0.969,-0.846,0.0
11.366,0.901,-0.852,0.0
10.717,0.85,-0.866,0.0
10.189,0.809,-0.883,0.0
9.738,0.773,-0.9,0.0
13.001,1.03,-0.843,0.0
12.027,0.953,-0.849,0.0
11.231,0.891,-0.858,0.0
10.584,0.84,-0.871,0.0
10.108,0.803,-0.89,0.0
9.6,0.763,-0.901,0.0
12.771,1.012,-0.846,0.0
11.801,0.936,-0.85,0.0
11.028,0.875,-0.858,0.0
10.457,0.83,-0.875,0.0
9.991,0.793,-0.894,0.0
9.486,0.754,-0.904,0.0
12.525,0.992,-0.847,0.0
11.585,0.918,-0.851,0.0
10.903,0.864,-0.863,0.0
10.304,0.817,-0.877,0.0
9.805,0.778,-0.891,0.0
9.355,0.743,-0.905,0.0
12.199,0.966,-0.842,0.0
11.385,0.901,-0.852,0.0
10.754,0.852,-0.867,0.0
10.2,0.808,-0.882,0.0
9.781,0.775,-0.903,0.0
9.17,0.727,-0.899,0.0
11.999,0.949,-0.845,0.0
11.244,0.889,-0.857,0.0
10.572,0.836,-0.866,0.0
10.069,0.796,-0.884,0.0
9.583,0.758,-0.897,0.0
9.115,0.721,-0.906,0.0
11.838,0.934,-0.849,0.0
11.058,0.873,-0.857,0.0
10.442,0.824,-0.87,0.0
9.952,0.786,-0.887,0.0
9.511,0.751,-0.903,0.0
9.002,0.711,-0.907,0.0
11.661,0.918,-0.852,0.0
10.927,0.86,-0.861,0.0
10.34,0.814,-0.875,0.0
9.862,0.776,-0.893,0.0
9.374,0.738,-0.903,0.0
8.926,0.703,-0.911,0.0
11.432,0.897,-0.85,0.0
10.775,0.846,-0.864,0.0
10.246,0.804,-0.88,0.0
9.749,0.765,-0.895,0.0
9.289,0.729,-0.907,0.0
8.845,0.694,-0.915,0.0
11.28,0.882,-0.854,0.0
10.667,0.834,-0.869,0.0
10.138,0.793,-0.884,0.0
9.595,0.75,-0.893,0.0
9.158,0.716,-0.906,0.0
8.769,0.686,-0.918,0.0
11.146,0.868,-0.857,0.0
10.527,0.82,-0.87,0.0
10.036,0.782,-0.888,0.0
9.499,0.74,-0.896,0.0
9.086,0.708,-0.91,0.0
8.69,0.677,-0.921,0.0
11.002,0.853,-0.86,0.0
10.419,0.808,-0.875,0.0
9.911,0.768,-0.889,0.0
9.442,0.732,-0.903,0.0
8.981,0.696,-0.911,0.0
8.619,0.668,-0.924,0.0
10.851,0.838,-0.861,0.0
10.308,0.795,-0.878,0.0
9.781,0.754,-0.889,0.0
0.0,0.0,0.0,0.0
8.921,0.688,-0.915,0.0
8.469,0.653,-0.918,0.0
10.762,0.826,-0.867,0.0
10.206,0.783,-0.881,0.0
9.755,0.748,-0.898,0.0
0.0,0.0,0.0,0.0
8.85,0.678,-0.918,0.0
8.383,0.643,-0.918,0.0
10.639,0.812,-0.869,0.0
10.133,0.773,-0.886,0.0
9.66,0.737,-0.901,0.0
0.0,0.0,0.0,0.0
8.751,0.667,-0.918,0.0
8.355,0.636,-0.925,0.0
10.499,0.796,-0.87,0.0
10.028,0.76,-0.889,0.0
9.603,0.727,-0.906,0.0
0.0,0.0,0.0,0.0
8.657,0.655,-0.918,0.0
8.297,0.628,-0.928,0.0
10.381,0.782,-0.872,0.0
9.925,0.747,-0.89,0.0
9.423,0.709,-0.9,0.0
9.002,0.677,-0.912,0.0
8.656,0.65,-0.927,0.0
8.193,0.615,-0.925,0.0
10.28,0.768,-0.874,0.0
9.881,0.738,-0.897,0.0
9.348,0.698,-0.902,0.0
8.912,0.665,-0.913,0.0
8.542,0.637,-0.924,0.0
8.17,0.609,-0.931,0.0
10.218,0.757,-0.879,0.0
9.735,0.721,-0.894,0.0
9.268,0.686,-0.904,0.0
8.827,0.653,-0.913,0.0
0.0,0.0,0.0,0.0
8.081,0.597,-0.93,0.0
10.114,0.743,-0.881,0.0
9.672,0.71,-0.898,0.0
9.268,0.68,-0.914,0.0
8.743,0.641,-0.913,0.0
8.366,0.613,-0.922,0.0
7.993,0.585,-0.927,0.0
10.051,0.732,-0.885,0.0
9.607,0.699,-0.901,0.0
9.106,0.662,-0.907,0.0
8.672,0.63,-0.914,0.0
8.341,0.605,-0.928,0.0
8.0,0.58,-0.936,0.0
9.979,0.72,-0.888,0.0
9.481,0.683,-0.898,0.0
8.996,0.647,-0.904,0.0
8.659,0.623,-0.921,0.0
8.25,0.593,-0.925,0.0
7.902,0.567,-0.932,0.0
9.882,0.706,-0.889,0.0
9.485,0.676,-0.907,0.0
8.917,0.635,-0.904,0.0
0.0,0.0,0.0,0.0
8.224,0.585,-0.93,0.0
7.851,0.558,-0.933,0.0
9.832,0.694,-0.893,0.0
9.338,0.659,-0.901,0.0
8.89,0.626,-0.909,0.0
8.481,0.597,-0.917,0.0
8.185,0.576,-0.932,0.0
7.792,0.547,-0.933,0.0
9.787,0.684,-0.897,0.0
9.274,0.647,-0.903,0.0
8.871,0.618,-0.915,0.0
8.385,0.583,-0.914,0.0
8.107,0.563,-0.93,0.0
7.747,0.538,-0.934,0.0
9.691,0.669,-0.896,0.0
9.225,0.636,-0.906,0.0
8.77,0.604,-0.911,0.0
8.415,0.579,-0.924,0.0
8.08,0.555,-0.933,0.0
7.719,0.529,-0.936,0.0
9.632,0.657,-0.898,0.0
9.199,0.626,-0.91,0.0
8.724,0.593,-0.913,0.0
0.0,0.0,0.0,0.0
7.998,0.542,-0.93,0.0
7.668,0.519,-0.936,0.0
9.601,0.646,-0.902,0.0
9.142,0.614,-0.911,0.0
8.657,0.581,-0.912,0.0
0.0,0.0,0.0,0.0
7.985,0.534,-0.934,0.0
7.703,0.515,-0.946,0.0
9.524,0.632,-0.901,0.0
9.095,0.603,-0.913,0.0
8.639,0.572,-0.916,0.0
0.0,0.0,0.0,0.0
7.942,0.524,-0.935,0.0
7.595,0.5,-0.938,0.0
9.398,0.615,-0.895,0.0
9.01,0.589,-0.91,0.0
8.615,0.562,-0.919,0.0
0.0,0.0,0.0,0.0
7.886,0.513,-0.933,0.0
7.548,0.49,-0.936,0.0
9.383,0.605,-0.9,0.0
8.973,0.578,-0.912,0.0
8.599,0.553,-0.923,0.0
0.0,0.0,0.0,0.0
7.9,0.506,-0.939,0.0
7.525,0.481,-0.938,0.0
11.63,0.099,-0.85,0.0
11.078,0.092,-0.868,0.0
10.481,0.085,-0.877,0.0
10.026,0.08,-0.894,0.0
9.611,0.075,-0.908,0.0
9.174,0.07,-0.916,0.0
11.854,0.09,-0.848,0.0
11.285,0.084,-0.867,0.0
10.662,0.077,-0.876,0.0
10.176,0.072,-0.891,0.0
9.72,0.067,-0.903,0.0
9.284,0.062,-0.912,0.0
12.153,0.081,-0.851,0.0
11.396,0.074,-0.858,0.0
10.796,0.069,-0.871,0.0
10.269,0.064,-0.884,0.0
9.862,0.059,-0.901,0.0
9.382,0.055,-0.907,0.0
12.414,0.073,-0.85,0.0
11.583,0.066,-0.854,0.0
11.001,0.061,-0.87,0.0
10.426,0.056,-0.881,0.0
9.988,0.052,-0.897,0.0
9.538,0.048,-0.907,0.0
12.791,0.064,-0.856,0.0
11.783,0.057,-0.85,0.0
11.222,0.053,-0.869,0.0
10.598,0.048,-0.878,0.0
10.117,0.044,-0.892,0.0
9.659,0.041,-0.903,0.0
12.979,0.055,-0.847,0.0
12.072,0.049,-0.852,0.0
11.382,0.044,-0.863,0.0
10.763,0.04,-0.874,0.0
10.253,0.037,-0.887,0.0
9.818,0.034,-0.901,0.0
13.292,0.046,-0.846,0.0
12.386,0.041,-0.853,0.0
11.556,0.036,-0.857,0.0
10.998,0.033,-0.875,0.0
10.411,0.03,-0.883,0.0
9.971,0.027,-0.899,0.0
13.485,0.037,-0.835,0.0
12.629,0.033,-0.849,0.0
11.757,0.029,-0.852,0.0
11.16,0.025,-0.869,0.0
10.551,0.022,-0.877,0.0
10.134,0.02,-0.896,0.0
13.865,0.028,-0.835,0.0
13.097,0.024,-0.858,0.0
12.047,0.021,-0.852,0.0
11.338,0.018,-0.863,0.0
10.762,0.015,-0.876,0.0
10.267,0.013,-0.89,0.0
14.236,0.019,-0.833,0.0
13.266,0.016,-0.845,0.0
12.356,0.013,-0.852,0.0
11.532,0.01,-0.857,0.0
10.953,0.008,-0.872,0.0
10.395,0.007,-0.882,0.0
14.536,0.01,-0.824,0.0
13.52,0.007,-0.838,0.0
12.631,0.005,-0.849,0.0
11.744,0.003,-0.852,0.0
11.209,0.001,-0.872,0.0
10.598,0.0,-0.88,0.0
14.956,0.001,-0.821,0.0
13.874,0.0,-0.834,0.0
13.076,-0.002,-0.855,0.0
12.07,-0.003,-0.854,0.0
11.377,-0.004,-0.864,0.0
10.808,-0.005,-0.878,0.0
15.288,-0.007,-0.812,0.0
14.266,-0.009,-0.832,0.0
13.297,-0.01,-0.845,0.0
12.383,-0.01,-0.853,0.0
11.589,-0.011,-0.859,0.0
10.988,-0.012,-0.872,0.0
15.803,-0.016,-0.81,2.0
14.613,-0.017,-0.825,0.0
13.667,-0.017,-0.843,0.0
12.722,-0.017,-0.852,0.0
11.833,-0.018,-0.855,0.0
11.241,-0.018,-0.871,0.0
16.18,-0.025,-0.799,0.0
15.015,-0.025,-0.819,0.0
14.026,-0.025,-0.839,0.0
13.138,-0.025,-0.856,0.0
12.197,-0.024,-0.858,0.0
11.452,-0.024,-0.865,0.0
16.676,-0.034,-0.792,0.0
15.412,-0.033,-0.812,0.0
14.371,-0.032,-0.832,0.0
13.416,-0.032,-0.848,0.0
12.459,-0.031,-0.853,0.0
11.649,-0.03,-0.858,0.0
17.179,-0.043,-0.783,0.0
15.832,-0.041,-0.804,0.0
14.765,-0.04,-0.827,0.0
13.711,-0.038,-0.84,0.0
12.914,-0.037,-0.859,0.0
11.919,-0.035,-0.855,0.0
17.675,-0.052,-0.772,0.0
16.366,-0.049,-0.8,0.0
15.171,-0.047,-0.82,0.0
14.115,-0.045,-0.838,0.0
13.213,-0.043,-0.853,0.0
12.289,-0.041,-0.858,0.0
18.369,-0.061,-0.767,0.0
16.902,-0.058,-0.793,0.0
15.559,-0.054,-0.811,0.0
14.432,-0.051,-0.828,0.0
13.55,-0.049,-0.848,0.0
12.633,-0.047,-0.857,0.0
19.03,-0.07,-0.757,0.0
17.414,-0.065,-0.782,0.0
16.025,-0.061,-0.803,0.0
14.848,-0.058,-0.823,0.0
13.859,-0.055,-0.84,0.0
12.969,-0.052,-0.853,0.0
19.815,-0.079,-0.748,0.0
17.932,-0.073,-0.77,0.0
16.7,-0.069,-0.804,0.0
15.391,-0.065,-0.822,0.0
14.323,-0.061,-0.839,0.0
13.377,-0.058,-0.853,0.0
20.45,-0.087,-0.731,0.0
18.585,-0.081,-0.761,0.0
17.148,-0.075,-0.791,0.0
15.705,-0.07,-0.807,0.0
14.646,-0.066,-0.829,0.0
13.672,-0.063,-0.845,0.0
21.541,-0.097,-0.727,0.0
19.353,-0.089,-0.753,0.0
17.675,-0.082,-0.779,0.0
16.236,-0.076,-0.802,0.0
15.064,-0.071,-0.822,0.0
14.063,-0.067,-0.84,0.0
22.369,-0.106,-0.71,0.0
20.204,-0.097,-0.746,0.0
18.344,-0.089,-0.772,0.0
16.835,-0.082,-0.797,0.0
15.568,-0.077,-0.817,0.0
14.456,-0.072,-0.834,0.0
23.38,-0.115,-0.694,0.0
20.976,-0.104,-0.731,0.0
19.033,-0.095,-0.761,0.0
17.387,-0.087,-0.787,0.0
15.969,-0.081,-0.806,0.0
14.835,-0.076,-0.825,0.0
24.532,-0.124,-0.678,0.0
21.951,-0.111,-0.72,0.0
19.708,-0.101,-0.748,0.0
17.926,-0.092,-0.775,0.0
16.6,-0.086,-0.803,0.0
15.276,-0.079,-0.818,0.0
25.836,-0.133,-0.661,0.0
22.9,-0.118,-0.704,0.0
20.518,-0.107,-0.736,0.0
18.603,-0.097,-0.765,0.0
17.226,-0.09,-0.798,0.0
15.713,-0.083,-0.809,0.0
27.103,-0.141,-0.637,0.0
24.209,-0.126,-0.694,0.0
21.542,-0.113,-0.729,0.0
19.344,-0.102,-0.756,0.0
17.565,-0.093,-0.777,0.0
16.281,-0.086,-0.804,0.0
29.21,-0.153,-0.626,0.0
25.493,-0.133,-0.677,0.0
22.46,-0.118,-0.713,0.0
20.173,-0.106,-0.746,0.0
18.354,-0.097,-0.774,0.0
16.949,-0.089,-0.802,0.0
30.876,-0.161,-0.597,0.0
26.644,-0.139,-0.652,0.0
23.456,-0.122,-0.695,0.0
21.157,-0.11,-0.738,0.0
18.995,-0.099,-0.761,0.0
17.436,-0.091,-0.788,0.0
32.816,-0.169,-0.566,0.0
0.0,0.0,0.0,0.0
24.659,-0.127,-0.679,0.0
22.06,-0.114,-0.724,0.0
19.764,-0.102,-0.75,0.0
18.014,-0.093,-0.777,0.0
0.0,0.0,0.0,0.0
29.925,-0.151,-0.608,0.0
25.997,-0.131,-0.662,0.0
22.863,-0.115,-0.702,0.0
20.62,-0.104,-0.739,0.0
18.831,-0.094,-0.772,0.0
0.0,0.0,0.0,0.0
0.0,0.0,0.0,0.0
27.569,-0.135,-0.644,0.0
24.117,-0.118,-0.69,0.0
21.334,-0.104,-0.72,0.0
19.635,-0.095,-0.764,0.0
0.0,0.0,0.0,0.0
0.0,0.0,0.0,0.0
29.425,-0.139,-0.626,0.0
25.56,-0.12,-0.678,0.0
22.506,-0.105,-0.713,0.0
20.333,-0.095,-0.749,0.0
0.0,0.0,0.0,0.0
0.0,0.0,0.0,0.0
31.411,-0.142,-0.602,0.0
26.753,-0.12,-0.653,0.0
23.739,-0.106,-0.702,0.0
21.181,-0.094,-0.735,0.0
51.043,-0.222,-0.346,0.0
40.173,-0.173,-0.479,0.0
33.595,-0.143,-0.573,0.0
0.0,0.0,0.0,0.0
25.107,-0.105,-0.689,0.0
22.164,-0.092,-0.723,0.0
0.0,0.0,0.0,0.0
45.126,-0.181,-0.443,1.0
35.531,-0.141,-0.532,0.0
30.314,-0.119,-0.612,0.0
26.368,-0.102,-0.668,0.0
23.272,-0.089,-0.71,0.0
0.0,0.0,0.0,0.0
0.0,0.0,0.0,0.0
39.801,-0.145,-0.512,0.0
32.375,-0.116,-0.586,0.0
0.0,0.0,0.0,0.0
24.477,-0.085,-0.695,0.0
74.829,-0.254,-0.035,0.0
0.0,0.0,0.0,0.0
45.056,-0.148,-0.484,1.0
35.246,-0.113,-0.564,0.0
29.771,-0.094,-0.629,0.0
25.628,-0.079,-0.674,0.0
0.0,0.0,0.0,0.0
0.0,0.0,0.0,0.0
45.276,-0.13,-0.391,0.0
0.0,0.0,0.0,0.0
30.939,-0.085,-0.589,0.0
26.837,-0.072,-0.649,0.0
101.704,-0.263,0.379,2.0
0.0,0.0,0.0,0.0
0.0,0.0,0.0,0.0
41.328,-0.097,-0.488,0.0
33.918,-0.077,-0.575,0.0
29.213,-0.064,-0.645,0.0
110.816,-0.235,0.645,8.0
0.0,0.0,0.0,0.0
0.0,0.0,0.0,0.0
45.377,-0.085,-0.44,1.0
0.0,0.0,0.0,0.0
30.647,-0.052,-0.613,0.0
111.248,-0.18,0.879,8.0
0.0,0.0,0.0,0.0
0.0,0.0,0.0,0.0
0.0,0.0,0.0,0.0
40.882,-0.051,-0.522,0.0
32.516,-0.038,-0.583,0.0
117.427,-0.126,1.173,16.0
110.375,-0.109,0.534,3.0
0.0,0.0,0.0,0.0
0.0,0.0,0.0,0.0
44.807,-0.031,-0.48,0.0
35.402,-0.021,-0.562,0.0
111.174,-0.056,1.34,15.0
111.017,-0.044,0.767,13.0
95.523,-0.029,0.167,1.0
0.0,0.0,0.0,0.0
45.7,-0.004,-0.395,1.0
0.0,0.0,0.0,0.0
117.307,0.012,1.655,18.0
111.112,0.023,0.996,8.0
95.667,0.03,0.364,4.0
0.0,0.0,0.0,0.0
0.0,0.0,0.0,0.0
0.0,0.0,0.0,0.0
117.302,0.088,1.897,18.0
111.163,0.096,1.223,21.0
110.706,0.108,0.645,7.0
0.0,0.0,0.0,0.0
0.0,0.0,0.0,0.0
45.34,0.06,-0.441,2.0
117.446,0.168,2.138,18.0
111.063,0.172,1.448,21.0
111.045,0.186,0.876,11.0
93.239,0.168,0.244,3.0
0.0,0.0,0.0,0.0
49.645,0.101,-0.382,0.0
0.0,0.0,0.0,0.0
119.839,0.273,1.805,24.0
111.105,0.267,1.099,15.0
103.655,0.263,0.481,7.0
0.0,0.0,0.0,0.0
0.0,0.0,0.0,0.0
119.86,0.349,2.667,9.0
119.853,0.365,2.048,8.0
111.257,0.353,1.324,9.0
110.84,0.366,0.735,9.0
91.175,0.314,0.133,1.0
0.0,0.0,0.0,0.0
119.86,0.443,2.906,41.0
119.875,0.459,2.286,31.0
119.844,0.476,1.666,23.0
111.067,0.457,0.957,18.0
94.741,0.403,0.326,3.0
0.0,0.0,0.0,0.0
119.862,0.542,3.144,14.0
111.185,0.519,2.341,14.0
111.143,0.535,1.766,26.0
111.042,0.551,1.177,29.0
104.465,0.534,0.567,6.0
88.023,0.463,0.021,1.0
111.108,0.598,3.135,23.0
111.086,0.615,2.559,26.0
111.084,0.631,1.981,32.0
111.054,0.648,1.395,33.0
104.977,0.629,0.774,15.0
86.964,0.534,0.189,5.0
111.031,0.696,3.347,33.0
111.075,0.714,2.772,32.0
111.052,0.73,2.194,29.0
110.956,0.747,1.605,4.0
104.959,0.724,0.974,14.0
97.181,0.685,0.397,5.0
104.762,0.753,3.359,22.0
104.825,0.77,2.817,23.0
104.812,0.787,2.272,30.0
100.856,0.774,1.652,1.0
100.524,0.788,1.124,2.0
98.232,0.787,0.59,11.0
104.645,0.853,3.558,17.0
104.718,0.871,3.014,33.0
104.742,0.888,2.47,16.0
100.196,0.867,1.832,4.0
99.854,0.88,1.306,4.0
98.616,0.886,0.777,11.0
104.552,0.954,3.749,31.0
104.668,0.974,3.209,31.0
104.707,0.992,2.665,43.0
104.734,1.011,2.111,17.0
98.731,0.97,1.475,15.0
98.631,0.986,0.96,26.0
98.086,0.995,3.701,28.0
98.77,1.019,3.21,13.0
98.739,1.036,2.695,24.0
98.653,1.053,2.169,32.0
98.601,1.07,1.653,25.0
98.57,1.088,1.14,31.0
98.59,1.102,3.9,21.0
69.81,0.793,2.397,9.0
98.663,1.139,2.873,24.0
98.59,1.156,2.345,27.0
98.549,1.174,1.831,38.0
98.528,1.193,1.317,31.0
98.645,1.209,4.081,23.0
69.789,0.868,2.522,15.0
98.508,1.243,3.045,19.0
98.524,1.263,2.521,35.0
98.563,1.282,2.007,30.0
98.524,1.301,1.493,30.0
98.214,1.312,4.239,28.0
98.291,1.331,3.727,15.0
69.841,0.96,2.283,18.0
98.497,1.373,2.696,33.0
98.613,1.393,2.183,27.0
98.64,1.414,1.669,28.0
78.744,1.142,3.538,11.0
98.262,1.444,3.901,17.0
70.068,1.043,2.414,14.0
98.524,1.486,2.869,21.0
189.6,2.899,4.53,18.0
99.212,1.536,1.851,7.0
78.752,1.232,3.675,5.0
120.463,1.91,4.99,22.0
120.256,1.931,4.352,13.0
120.358,1.958,3.713,18.0
91.936,1.514,2.353,22.0
91.903,1.532,1.872,35.0
85.544,1.442,4.141,11.0
78.735,1.343,3.396,19.0
120.525,2.08,4.566,12.0
91.962,1.606,2.993,18.0
91.798,1.622,2.504,28.0
91.853,1.642,2.024,37.0
91.447,1.651,4.579,18.0
91.498,1.671,4.1,27.0
91.629,1.693,3.624,12.0
91.782,1.715,3.139,30.0
91.808,1.736,2.658,30.0
89.506,1.711,2.12,3.0
91.451,1.766,4.732,14.0
85.443,1.667,3.971,23.0
78.779,1.554,3.245,20.0
91.666,1.828,3.285,30.0
91.842,1.851,2.808,32.0
86.987,1.772,2.201,25.0
84.642,1.741,4.517,7.0
85.322,1.774,4.104,22.0
85.32,1.792,3.653,32.0
85.331,1.81,3.194,24.0
85.293,1.828,2.744,38.0
85.296,1.847,2.296,37.0
82.829,1.811,4.554,7.0
85.297,1.884,4.238,35.0
85.287,1.902,3.787,36.0
78.879,1.777,3.079,14.0
85.254,1.939,2.877,34.0
85.232,1.958,2.427,35.0
72.9,1.69,4.122,5.0
85.302,1.996,4.371,13.0
85.373,2.017,3.924,31.0
85.334,2.035,3.462,29.0
78.886,1.899,2.784,24.0
85.296,2.073,2.559,27.0
78.829,1.933,4.578,10.0
83.357,2.062,4.399,9.0
115.924,2.895,5.505,9.0
78.902,1.988,3.321,12.0
78.857,2.005,2.902,23.0
78.928,2.025,2.487,24.0
78.728,2.037,4.69,9.0
78.801,2.057,4.276,26.0
78.789,2.075,3.858,33.0
78.804,2.093,3.433,34.0
78.801,2.111,3.015,31.0
78.817,2.13,2.598,30.0
0.0,0.0,0.0,0.0
78.83,2.167,4.393,8.0
78.843,2.186,3.975,26.0
78.831,2.204,3.549,26.0
78.843,2.222,3.13,20.0
78.792,2.24,2.71,26.0
78.4,2.247,4.899,6.0
81.059,2.342,4.634,17.0
82.187,2.394,4.26,12.0
65.487,1.922,3.04,19.0
117.961,3.491,4.849,8.0
78.814,2.351,2.821,23.0
65.501,1.97,4.185,17.0
72.085,2.185,4.221,31.0
72.755,2.222,3.872,13.0
82.335,2.535,3.935,10.0
117.744,3.652,5.001,9.0
78.825,2.464,2.928,27.0
65.543,2.065,4.277,12.0
71.013,2.254,4.254,7.0
72.282,2.312,3.944,21.0
72.542,2.337,3.563,22.0
72.456,2.352,3.173,30.0
72.486,2.37,2.789,29.0
66.584,2.195,4.433,19.0
65.661,2.18,4.02,14.0
72.374,2.42,4.044,25.0
72.308,2.435,3.646,29.0
72.368,2.455,3.263,36.0
72.404,2.474,2.879,36.0
45.284,1.56,3.074,23.0
65.728,2.28,4.109,16.0
66.432,2.32,3.797,24.0
72.227,2.54,3.735,35.0
72.364,2.562,3.355,33.0
72.421,2.582,2.97,33.0
45.166,1.623,3.123,8.0
66.408,2.403,4.235,10.0
66.149,2.409,3.864,31.0
66.287,2.431,3.51,24.0
66.296,2.447,3.155,23.0
72.527,2.695,3.063,26.0
40.751,1.526,2.868,43.0
44.853,1.691,2.915,32.0
65.318,2.478,3.894,33.0
64.658,2.468,3.501,24.0
65.953,2.534,3.217,40.0
66.164,2.559,2.873,20.0
40.71,1.587,2.913,46.0
44.901,1.761,2.971,30.0
64.869,2.56,3.943,7.0
65.376,2.596,3.616,42.0
65.188,2.604,3.255,9.0
66.191,2.661,2.95,10.0
40.899,1.657,2.974,41.0
44.707,1.822,3.009,5.0
41.407,1.698,2.563,33.0
65.864,2.717,3.716,29.0
65.568,2.721,3.347,40.0
65.97,2.753,3.013,22.0
40.556,1.706,2.993,40.0
41.347,1.749,2.828,30.0
41.315,1.758,2.603,16.0
65.844,2.817,3.787,13.0
65.931,2.837,3.436,25.0
65.968,2.855,3.082,13.0
40.416,1.763,3.026,44.0
40.864,1.792,2.839,31.0
41.056,1.81,2.629,45.0
41.846,1.855,2.449,5.0
64.496,2.875,3.427,12.0
65.919,2.955,3.147,13.0
40.397,1.825,3.066,42.0
40.711,1.849,2.869,38.0
41.057,1.874,2.67,36.0
41.584,1.908,2.475,23.0
59.472,2.744,3.218,14.0
59.541,2.761,2.9,7.0
40.405,1.888,3.106,39.0
40.707,1.912,2.908,38.0
40.912,1.932,2.701,46.0
41.239,1.957,2.494,39.0
41.706,1.989,2.296,16.0
59.46,2.851,2.952,14.0
40.254,1.944,3.132,49.0
40.751,1.978,2.949,39.0
40.813,1.991,2.731,46.0
40.947,2.007,2.514,45.0
41.708,2.055,2.334,14.0
59.474,2.945,3.006,10.0
40.348,2.013,3.176,31.0
40.598,2.035,2.974,44.0
40.823,2.056,2.768,41.0
40.899,2.07,2.546,42.0
41.666,2.118,2.368,40.0
52.78,2.696,2.713,26.0
40.448,2.082,3.218,41.0
40.565,2.098,3.006,45.0
40.903,2.125,2.808,40.0
40.92,2.135,2.582,39.0
41.124,2.156,2.37,24.0
59.341,3.126,3.098,11.0
40.509,2.15,3.256,38.0
40.495,2.158,3.033,41.0
40.985,2.194,2.846,42.0
40.967,2.203,2.617,41.0
41.033,2.216,2.397,43.0
41.945,2.276,2.222,21.0
44.611,2.438,3.62,10.0
40.454,2.22,3.061,42.0
40.878,2.253,2.869,44.0
41.165,2.279,2.66,31.0
41.602,2.313,2.461,34.0
41.901,2.34,2.25,29.0
40.61,2.284,3.325,40.0
40.55,2.291,3.098,41.0
41.036,2.327,2.91,36.0
41.101,2.341,2.685,36.0
41.375,2.367,2.477,40.0
52.505,3.016,2.856,7.0
40.866,2.364,3.374,32.0
40.753,2.367,3.141,42.0
41.449,2.417,2.967,31.0
42.024,2.461,2.774,26.0
41.5,2.44,2.511,21.0
41.656,2.459,2.293,39.0
41.09,2.443,3.42,38.0
41.53,2.478,3.227,16.0
41.396,2.48,2.989,43.0
42.016,2.527,2.799,37.0
41.491,2.505,2.536,40.0
41.528,2.517,2.311,41.0
41.609,2.54,3.488,44.0
41.727,2.556,3.267,16.0
41.397,2.545,3.014,34.0
41.988,2.592,2.822,29.0
41.514,2.572,2.562,34.0
41.569,2.586,2.336,34.0
41.739,2.615,3.522,42.0
41.845,2.631,3.3,18.0
41.667,2.629,3.056,39.0
52.273,3.31,3.541,14.0
41.6,2.644,2.589,29.0
41.625,2.655,2.362,40.0
42.002,2.698,3.566,31.0
41.924,2.702,3.328,12.0
51.348,3.321,3.792,8.0
52.235,3.391,3.564,20.0
41.508,2.703,2.603,40.0
41.644,2.722,2.382,40.0
41.948,2.761,3.582,38.0
41.963,2.771,3.35,32.0
41.973,2.782,3.119,16.0
52.259,3.476,3.589,11.0
41.615,2.777,2.628,42.0
41.663,2.789,2.401,40.0
41.625,2.806,3.572,45.0
42.051,2.844,3.375,18.0
41.86,2.84,3.128,29.0
42.184,2.871,2.914,29.0
41.697,2.848,2.65,33.0
41.654,2.854,2.418,42.0
41.634,2.872,3.589,31.0
41.812,2.894,3.372,16.0
41.775,2.9,3.137,32.0
42.114,2.933,2.925,31.0
41.83,2.922,2.673,38.0
41.622,2.917,2.43,39.0
41.59,2.935,3.6,36.0
41.458,2.934,3.357,39.0
41.616,2.954,3.139,39.0
41.726,2.97,2.911,35.0
41.953,2.996,2.694,29.0
41.643,2.982,2.444,26.0
41.438,2.988,3.599,37.0
41.459,2.998,3.37,38.0
41.655,3.021,3.154,36.0
41.678,3.031,2.919,40.0
41.957,3.06,2.706,37.0
80.827,5.913,4.765,6.0
41.323,3.043,3.6,42.0
41.518,3.066,3.385,35.0
41.575,3.078,3.158,45.0
41.678,3.095,2.93,43.0
46.004,3.426,2.978,7.0
74.078,5.533,4.384,13.0
41.201,3.098,3.598,45.0
41.569,3.134,3.398,16.0
41.61,3.145,3.169,28.0
41.702,3.161,2.939,40.0
45.945,3.492,2.983,39.0
46.064,3.511,2.734,4.0
41.28,3.167,3.612,43.0
41.511,3.193,3.4,40.0
41.716,3.217,3.184,30.0
41.744,3.227,2.948,48.0
45.91,3.559,2.987,21.0
45.916,3.569,2.732,16.0
41.549,3.251,3.641,37.0
41.561,3.259,3.409,47.0
41.654,3.275,3.184,29.0
41.795,3.294,2.957,44.0
45.94,3.631,2.994,9.0
45.834,3.631,2.731,25.0
41.368,3.299,3.629,33.0
41.769,3.338,3.43,16.0
41.749,3.345,3.194,31.0
41.768,3.354,2.958,47.0
45.731,3.682,2.983,30.0
45.788,3.695,2.731,37.0
41.291,3.354,3.624,30.0
41.301,3.362,3.393,35.0
41.462,3.383,3.174,45.0
41.74,3.414,2.957,41.0
41.842,3.43,2.73,35.0
45.75,3.759,2.729,37.0
41.318,3.416,3.627,32.0
41.333,3.425,3.396,38.0
41.404,3.438,3.169,31.0
41.772,3.477,2.958,22.0
45.743,3.816,2.983,7.0
45.77,3.827,2.729,38.0
41.329,3.477,3.626,34.0
41.466,3.496,3.405,40.0
41.47,3.504,3.172,39.0
41.771,3.537,2.956,34.0
45.765,3.884,2.982,21.0
45.806,3.896,2.728,33.0
41.551,3.555,3.643,31.0
41.582,3.565,3.411,27.0
41.423,3.559,3.164,40.0
41.797,3.599,2.954,18.0
45.81,3.953,2.98,6.0
45.859,3.966,2.726,32.0
41.325,3.595,3.618,21.0
44.435,3.873,3.639,4.0
41.455,3.62,3.162,37.0
41.628,3.643,2.936,43.0
