X,Y,Z,Reflectivity
111.047,6.823,4.526,45.0
41.843,2.59,2.88,38.0
41.524,2.581,2.63,31.0
41.499,2.589,2.4,42.0
52.315,3.277,2.733,26.0
52.396,3.295,2.45,3.0
110.949,7.006,4.581,12.0
52.262,3.324,3.624,10.0
41.577,2.655,2.654,28.0
41.606,2.667,2.428,43.0
52.268,3.363,2.757,40.0
52.275,3.377,2.471,43.0
52.306,3.392,2.185,35.0
52.256,3.414,3.65,15.0
41.718,2.736,2.684,26.0
52.252,3.44,3.074,16.0
52.25,3.452,2.78,34.0
52.248,3.465,2.493,45.0
52.232,3.477,2.205,46.0
52.326,3.509,3.678,5.0
41.632,2.801,2.697,38.0
41.613,2.81,2.466,37.0
52.265,3.542,2.803,25.0
52.249,3.553,2.514,24.0
52.239,3.565,2.226,36.0
42.206,2.901,2.984,17.0
41.691,2.876,2.717,16.0
41.597,2.879,2.481,45.0
52.354,3.636,2.828,22.0
52.37,3.65,2.54,17.0
52.332,3.66,2.249,20.0
41.799,2.944,2.97,16.0
41.835,2.956,2.741,40.0
41.592,2.949,2.494,33.0
71.462,5.083,3.884,12.0
71.709,5.118,3.502,7.0
90.292,6.466,3.91,16.0
41.681,3.006,2.975,25.0
41.881,3.029,2.756,44.0
80.688,5.855,4.864,13.0
80.264,5.843,4.386,11.0
90.784,6.63,4.459,16.0
71.308,5.224,3.108,17.0
41.668,3.074,2.985,48.0
45.995,3.403,3.04,6.0
74.153,5.504,4.489,10.0
79.317,5.905,4.355,16.0
71.562,5.344,3.533,11.0
71.345,5.345,3.126,16.0
41.764,3.15,3.002,33.0
45.941,3.475,3.046,37.0
46.022,3.492,2.796,4.0
79.563,6.055,4.385,26.0
91.322,6.97,4.527,14.0
71.628,5.484,3.154,7.0
41.731,3.217,3.008,51.0
45.932,3.551,3.055,13.0
45.911,3.559,2.798,16.0
45.962,3.573,2.541,27.0
45.924,3.581,2.283,25.0
45.988,3.596,2.032,12.0
41.726,3.285,3.014,44.0
45.937,3.626,3.062,12.0
45.819,3.627,2.798,28.0
45.862,3.64,2.541,17.0
45.832,3.648,2.284,36.0
45.869,3.661,2.032,29.0
59.374,-3.024,4.838,36.0
56.895,-2.899,4.338,30.0
60.126,-3.066,4.269,12.0
58.605,-2.99,3.849,33.0
58.503,-2.987,3.537,31.0
58.87,-3.008,3.252,32.0
60.218,-3.089,5.012,28.0
57.02,-2.926,4.447,28.0
60.052,-3.083,4.369,9.0
58.929,-3.026,3.973,25.0
58.543,-3.008,3.641,32.0
58.626,-3.014,3.34,32.0
60.283,-3.111,5.123,26.0
0.0,0.0,0.0,0.0
57.123,-2.95,4.254,30.0
63.641,-3.287,4.399,32.0
58.323,-3.013,3.726,31.0
58.438,-3.02,3.428,30.0
60.3,-3.128,5.227,11.0
58.747,-3.048,4.784,33.0
56.996,-2.958,4.342,30.0
63.82,-3.313,4.521,18.0
58.521,-3.037,3.839,32.0
58.439,-3.034,3.528,30.0
56.97,-2.969,5.036,28.0
60.066,-3.13,4.993,34.0
57.033,-2.972,4.442,24.0
60.048,-3.129,4.355,9.0
63.566,-3.312,4.277,8.0
58.337,-3.04,3.62,32.0
56.949,-2.979,5.13,31.0
60.328,-3.155,5.117,28.0
0.0,0.0,0.0,0.0
57.129,-2.987,4.239,23.0
63.598,-3.324,4.386,33.0
58.25,-3.044,3.712,31.0
56.944,-2.988,5.227,31.0
56.992,-2.989,4.931,20.0
58.53,-3.068,4.756,32.0
57.105,-2.992,4.334,25.0
63.8,-3.342,4.507,27.0
58.525,-3.065,3.827,32.0
56.832,-2.988,5.312,28.0
57.015,-2.996,5.028,29.0
0.0,0.0,0.0,0.0
57.038,-2.994,4.423,22.0
60.046,-3.15,4.341,16.0
63.503,-3.33,4.258,7.0
56.728,-2.987,5.397,32.0
57.013,-2.999,5.122,30.0
60.346,-3.172,5.104,34.0
0.0,0.0,0.0,0.0
60.067,-3.154,4.441,6.0
63.544,-3.334,4.365,33.0
57.001,-3.003,5.517,32.0
56.949,-2.997,5.21,31.0
57.02,-2.998,4.915,15.0
58.551,-3.076,4.733,33.0
57.145,-3.001,4.318,22.0
63.789,-3.346,4.485,27.0
57.859,-3.047,5.694,33.0
56.846,-2.991,5.293,31.0
57.013,-2.997,5.007,28.0
58.524,-3.073,4.825,9.0
57.028,-2.992,4.401,21.0
63.927,-3.351,4.598,9.0
58.281,-3.067,5.83,33.0
56.707,-2.98,5.372,30.0
56.98,-2.991,5.096,30.0
60.293,-3.162,5.068,34.0
0.0,0.0,0.0,0.0
57.136,-2.99,4.199,15.0
58.702,-3.083,5.966,34.0
56.83,-2.981,5.473,31.0
56.914,-2.982,5.179,30.0
60.387,-3.16,5.17,11.0
58.493,-3.057,4.699,32.0
57.063,-2.978,4.283,24.0
58.591,-3.07,6.047,32.0
57.511,-3.009,5.629,32.0
56.869,-2.972,5.265,30.0
56.974,-2.973,4.966,28.0
59.024,-3.075,4.833,32.0
57.017,-2.967,4.367,24.0
58.807,-3.071,6.16,34.0
58.05,-3.027,5.772,32.0
56.728,-2.954,5.339,30.0
56.95,-2.961,5.052,30.0
60.248,-3.127,5.025,30.0
56.992,-2.954,4.452,23.0
58.923,-3.066,6.263,34.0
58.625,-3.044,5.919,33.0
56.686,-2.939,5.421,30.0
56.965,-2.948,5.138,31.0
60.32,-3.117,5.121,30.0
0.0,0.0,0.0,0.0
58.565,-3.033,6.313,34.0
59.53,-3.077,6.1,34.0
57.226,-2.952,5.559,32.0
56.897,-2.93,5.218,31.0
60.301,-3.1,5.209,24.0
59.15,-3.035,4.796,33.0
58.207,-2.998,6.361,26.0
58.343,-2.999,6.064,8.0
57.795,-2.964,5.698,32.0
56.688,-2.902,5.281,37.0
56.995,-2.912,5.006,29.0
60.152,-3.067,4.963,28.0
51.784,-2.65,5.734,21.0
59.459,-3.037,6.266,33.0
58.527,-2.983,5.854,8.0
56.696,-2.883,5.363,31.0
57.056,-2.896,5.093,30.0
60.284,-3.053,5.06,34.0
51.709,-2.628,5.8,36.0
58.766,-2.98,6.277,34.0
56.48,-2.858,5.729,14.0
56.87,-2.871,5.459,31.0
56.903,-2.867,5.158,30.0
60.293,-3.03,5.144,34.0
51.742,-2.61,5.876,22.0
58.015,-2.919,6.277,32.0
46.772,-2.348,4.81,12.0
56.743,-2.841,5.525,31.0
56.903,-2.843,5.236,30.0
60.295,-3.005,5.226,15.0
51.715,-2.587,5.944,30.0
58.116,-2.899,6.367,14.0
46.715,-2.324,4.867,24.0
56.55,-2.807,5.583,30.0
56.949,-2.819,5.317,30.0
56.863,-2.808,5.006,21.0
51.726,-2.563,6.016,20.0
51.793,-2.56,5.744,25.0
46.717,-2.302,4.93,19.0
56.557,-2.78,5.659,29.0
56.633,-2.776,5.363,30.0
57.009,-2.787,5.093,31.0
51.652,-2.534,6.075,26.0
51.724,-2.53,5.805,25.0
46.794,-2.283,4.999,19.0
56.413,-2.744,5.717,17.0
47.167,-2.288,4.527,36.0
56.784,-2.747,5.146,16.0
51.799,-2.514,6.16,26.0
51.644,-2.498,5.862,25.0
52.559,-2.535,5.682,17.0
56.43,-2.714,5.791,8.0
46.832,-2.246,4.554,20.0
47.264,-2.26,4.342,21.0
51.764,-2.483,6.221,28.0
51.643,-2.469,5.926,23.0
51.863,-2.472,5.671,13.0
46.72,-2.22,4.852,40.0
46.631,-2.209,4.591,19.0
46.992,-2.219,4.374,29.0
51.115,-2.422,6.205,43.0
51.67,-2.44,5.992,25.0
51.828,-2.439,5.73,25.0
46.772,-2.194,4.913,44.0
46.616,-2.18,4.645,33.0
46.901,-2.186,4.421,37.0
51.605,-2.413,6.326,26.0
51.729,-2.411,6.06,25.0
51.688,-2.4,5.775,26.0
46.698,-2.161,4.96,43.0
46.651,-2.151,4.702,28.0
46.696,-2.146,4.455,44.0
51.295,-2.365,6.348,26.0
51.438,-2.363,6.085,25.0
51.604,-2.362,5.824,27.0
46.705,-2.13,5.013,32.0
46.662,-2.12,4.756,31.0
46.562,-2.108,4.494,45.0
51.381,-2.333,6.416,26.0
51.367,-2.324,6.134,24.0
51.655,-2.328,5.887,21.0
46.794,-2.101,5.074,20.0
46.718,-2.09,4.812,32.0
46.58,-2.076,4.546,41.0
51.136,-2.286,6.441,18.0
51.33,-2.286,6.185,25.0
57.671,-2.558,6.634,8.0
57.613,-2.545,6.308,9.0
46.623,-2.052,4.851,29.0
46.578,-2.042,4.594,31.0
51.035,-2.244,6.482,6.0
51.313,-2.247,6.236,25.0
51.701,-2.254,6.001,25.0
51.741,-2.247,5.718,25.0
46.585,-2.015,4.894,38.0
52.401,-2.258,5.221,6.0
98.256,1.471,4.124,11.0
120.284,1.785,4.347,14.0
98.511,1.449,2.986,20.0
98.639,1.437,2.406,23.0
98.7,1.426,1.834,24.0
98.653,1.411,1.259,25.0
98.244,1.397,3.929,14.0
98.43,1.386,3.362,16.0
98.502,1.374,2.792,26.0
98.594,1.361,2.212,31.0
98.56,1.347,1.637,29.0
98.57,1.334,1.065,29.0
98.291,1.32,3.739,16.0
98.423,1.308,3.171,24.0
98.512,1.296,2.602,32.0
98.54,1.281,2.018,31.0
98.506,1.266,1.444,28.0
98.487,1.252,0.871,21.0
69.884,0.881,2.522,9.0
98.569,1.228,2.984,30.0
98.551,1.214,2.411,30.0
98.529,1.199,1.827,31.0
98.553,1.184,1.254,30.0
98.011,1.162,0.677,8.0
98.501,1.156,3.363,16.0
98.609,1.143,2.793,27.0
98.58,1.127,2.218,27.0
98.545,1.111,1.635,29.0
98.549,1.097,1.063,28.0
85.43,0.937,0.424,10.0
98.715,1.071,3.18,17.0
98.654,1.054,2.604,22.0
98.655,1.038,2.029,28.0
98.634,1.021,1.444,26.0
98.504,1.005,0.871,17.0
83.023,0.833,0.251,3.0
98.796,0.978,2.991,18.0
104.741,1.02,2.563,12.0
99.774,0.955,1.86,5.0
98.752,0.928,1.257,18.0
98.263,0.908,0.68,14.0
0.0,0.0,0.0,0.0
104.709,0.934,2.97,34.0
0.0,0.0,0.0,0.0
0.0,0.0,0.0,0.0
104.768,0.882,1.135,6.0
91.074,0.751,0.457,3.0
0.0,0.0,0.0,0.0
104.753,0.829,2.773,31.0
104.754,0.811,2.165,19.0
0.0,0.0,0.0,0.0
104.824,0.775,0.938,25.0
85.499,0.616,0.268,7.0
0.0,0.0,0.0,0.0
111.098,0.764,2.732,16.0
111.099,0.744,2.088,22.0
111.067,0.724,1.442,21.0
104.707,0.663,0.741,11.0
86.673,0.533,0.109,1.0
51.463,0.307,-0.233,0.0
111.059,0.645,2.526,29.0
111.067,0.624,1.882,33.0
111.043,0.603,1.236,24.0
90.798,0.477,0.475,2.0
0.0,0.0,0.0,0.0
48.68,0.237,-0.309,0.0
111.154,0.523,2.324,20.0
111.115,0.501,1.678,26.0
110.986,0.479,1.033,17.0
89.173,0.368,0.304,1.0
0.0,0.0,0.0,0.0
0.0,0.0,0.0,0.0
119.881,0.428,2.291,102.0
119.747,0.404,1.593,11.0
110.781,0.352,0.83,6.0
0.0,0.0,0.0,0.0
52.114,0.145,-0.217,0.0
42.91,0.111,-0.428,1.0
119.915,0.288,2.076,20.0
111.149,0.245,1.279,16.0
103.424,0.206,0.59,5.0
0.0,0.0,0.0,0.0
49.735,0.079,-0.297,0.0
0.0,0.0,0.0,0.0
111.002,0.132,1.723,14.0
111.17,0.111,1.082,10.0
95.528,0.076,0.377,4.0
0.0,0.0,0.0,0.0
45.772,0.017,-0.354,1.0
37.421,0.006,-0.506,0.0
117.293,-0.003,1.616,13.0
111.01,-0.025,0.886,12.0
0.0,0.0,0.0,0.0
51.844,-0.034,-0.192,0.0
44.767,-0.039,-0.425,0.0
34.998,-0.038,-0.535,0.0
117.447,-0.152,1.412,14.0
110.646,-0.167,0.69,6.0
0.0,0.0,0.0,0.0
51.364,-0.099,-0.278,1.0
0.0,0.0,0.0,0.0
32.034,-0.076,-0.545,0.0
114.492,-0.296,1.181,150.0
101.87,-0.286,0.461,2.0
0.0,0.0,0.0,0.0
50.148,-0.162,-0.357,0.0
0.0,0.0,0.0,0.0
30.831,-0.113,-0.576,0.0
119.795,-0.467,1.035,6.0
95.03,-0.392,0.271,1.0
0.0,0.0,0.0,0.0
0.0,0.0,0.0,0.0
0.0,0.0,0.0,0.0
29.316,-0.147,-0.597,0.0
114.233,-0.601,0.795,4.0
0.0,0.0,0.0,0.0
51.503,-0.293,-0.236,0.0
0.0,0.0,0.0,0.0
0.0,0.0,0.0,0.0
28.193,-0.18,-0.621,0.0
0.0,0.0,0.0,0.0
0.0,0.0,0.0,0.0
49.121,-0.349,-0.305,0.0
37.54,-0.275,-0.454,0.0
31.299,-0.237,-0.559,0.0
26.766,-0.208,-0.633,0.0
0.0,0.0,0.0,0.0
0.0,0.0,0.0,0.0
0.0,0.0,0.0,0.0
36.718,-0.321,-0.503,0.0
30.522,-0.274,-0.595,0.0
25.941,-0.239,-0.655,0.0
0.0,0.0,0.0,0.0
0.0,0.0,0.0,0.0
0.0,0.0,0.0,0.0
0.0,0.0,0.0,0.0
29.125,-0.304,-0.613,0.0
24.655,-0.263,-0.661,0.0
0.0,0.0,0.0,0.0
51.039,-0.571,-0.266,0.0
0.0,0.0,0.0,0.0
32.404,-0.378,-0.545,0.0
27.62,-0.329,-0.624,0.0
23.956,-0.291,-0.679,0.0
0.0,0.0,0.0,0.0
47.36,-0.599,-0.318,0.0
0.0,0.0,0.0,0.0
31.078,-0.409,-0.57,0.0
26.651,-0.357,-0.642,0.0
23.029,-0.314,-0.688,0.0
52.612,-0.732,-0.129,0.0
46.695,-0.662,-0.384,0.0
0.0,0.0,0.0,0.0
29.81,-0.437,-0.591,0.0
25.672,-0.383,-0.657,0.0
22.258,-0.338,-0.698,0.0
0.0,0.0,0.0,0.0
0.0,0.0,0.0,0.0
0.0,0.0,0.0,0.0
29.013,-0.47,-0.618,0.0
24.781,-0.408,-0.67,0.0
21.54,-0.361,-0.707,0.0
50.413,-0.857,-0.271,0.0
41.718,-0.72,-0.464,0.0
33.476,-0.587,-0.565,0.0
27.409,-0.487,-0.623,0.0
24.151,-0.436,-0.688,0.0
21.099,-0.386,-0.722,0.0
0.0,0.0,0.0,0.0
0.0,0.0,0.0,0.0
30.993,-0.592,-0.567,0.0
26.447,-0.512,-0.638,0.0
23.085,-0.454,-0.69,0.0
18.174,-0.362,-0.648,1.0
44.974,-0.907,-0.367,2.0
0.0,0.0,0.0,0.0
29.929,-0.62,-0.588,0.0
0.0,0.0,0.0,0.0
18.158,-0.386,-0.567,151.0
18.137,-0.39,-0.671,47.0
0.0,0.0,0.0,0.0
34.283,-0.756,-0.523,0.0
29.137,-0.651,-0.612,0.0
18.136,-0.41,-0.486,15.0
18.116,-0.414,-0.59,174.0
18.119,-0.42,-0.694,64.0
0.0,0.0,0.0,0.0
33.441,-0.792,-0.554,0.0
27.827,-0.667,-0.621,0.0
18.149,-0.44,-0.51,40.0
18.104,-0.444,-0.613,183.0
18.121,-0.45,-0.718,52.0
20.111,-0.934,0.754,8.0
20.107,-0.926,0.641,17.0
20.131,-0.92,0.528,2.0
194.729,-8.834,4.001,7.0
138.056,-6.216,2.062,100.0
138.068,-6.168,1.287,16.0
115.729,-5.148,4.281,23.0
206.927,-9.131,6.493,9.0
193.328,-8.463,4.978,20.0
193.195,-8.389,3.869,22.0
138.118,-5.951,1.99,70.0
138.165,-5.903,1.214,16.0
104.258,-4.434,3.8,36.0
193.873,-8.177,5.975,24.0
192.753,-8.061,4.856,24.0
193.213,-8.013,3.761,21.0
138.188,-5.682,1.912,15.0
138.429,-5.643,1.136,23.0
104.161,-4.226,3.736,19.0
193.893,-7.797,5.861,24.0
192.642,-7.679,4.737,23.0
193.416,-7.642,3.648,18.0
0.0,0.0,0.0,0.0
138.481,-5.375,1.052,18.0
0.0,0.0,0.0,0.0
193.349,-7.395,5.723,23.0
192.708,-7.304,4.616,25.0
193.403,-7.265,3.525,20.0
0.0,0.0,0.0,0.0
138.492,-5.106,0.962,16.0
194.726,-7.139,6.732,20.0
193.073,-7.011,5.586,21.0
193.399,-6.954,4.503,22.0
193.213,-6.881,3.389,15.0
0.0,0.0,0.0,0.0
138.558,-4.84,0.867,11.0
193.785,-6.726,6.564,18.0
187.424,-6.442,5.29,45.0
187.458,-6.379,4.232,40.0
193.362,-6.512,3.253,18.0
138.645,-4.623,1.551,7.0
138.607,-4.574,0.767,2.0
194.719,-6.38,6.452,9.0
193.715,-6.279,5.322,22.0
194.094,-6.223,4.234,25.0
193.545,-6.142,3.11,7.0
138.701,-4.353,1.444,11.0
0.0,0.0,0.0,0.0
205.777,-6.343,6.658,6.0
194.078,-5.916,5.18,23.0
194.828,-5.873,4.098,17.0
138.614,-4.133,2.118,8.0
138.444,-4.081,1.332,16.0
0.0,0.0,0.0,0.0
120.26,-3.476,3.793,8.0
0.0,0.0,0.0,0.0
195.04,-5.509,3.944,9.0
138.661,-3.869,2.004,6.0
138.784,-3.825,1.22,23.0
0.0,0.0,0.0,0.0
211.287,-5.703,6.485,6.0
205.53,-5.479,5.143,8.0
0.0,0.0,0.0,0.0
138.855,-3.607,1.885,4.0
138.848,-3.562,1.099,21.0
0.0,0.0,0.0,0.0
120.85,-3.03,3.601,9.0
118.092,-2.923,2.849,22.0
193.107,-4.715,3.563,23.0
0.0,0.0,0.0,0.0
138.893,-3.3,0.974,14.0
0.0,0.0,0.0,0.0
112.728,-2.613,3.255,5.0
118.037,-2.697,2.738,10.0
193.274,-4.354,3.386,22.0
0.0,0.0,0.0,0.0
138.916,-3.039,0.843,10.0
0.0,0.0,0.0,0.0
112.923,-2.405,3.152,19.0
193.65,-4.063,4.306,18.0
192.948,-3.984,3.193,20.0
138.934,-2.823,1.495,7.0
139.041,-2.779,0.706,4.0
0.0,0.0,0.0,0.0
112.673,-2.188,3.033,23.0
193.613,-3.697,4.109,15.0
139.044,-2.612,2.161,5.0
139.071,-2.567,1.357,21.0
0.0,0.0,0.0,0.0
0.0,0.0,0.0,0.0
112.661,-1.978,2.916,11.0
193.959,-3.344,3.916,7.0
139.022,-2.353,2.016,9.0
139.035,-2.311,1.212,11.0
97.773,-1.593,0.295,1.0
0.0,0.0,0.0,0.0
8.227,0.118,-0.921,0.0
7.868,0.112,-0.926,0.0
7.556,0.106,-0.932,0.0
0.0,0.0,0.0,0.0
0.0,0.0,0.0,0.0
0.0,0.0,0.0,0.0
8.244,0.11,-0.926,0.0
7.894,0.103,-0.931,0.0
7.579,0.098,-0.937,0.0
0.0,0.0,0.0,0.0
0.0,0.0,0.0,0.0
0.0,0.0,0.0,0.0
8.185,0.099,-0.921,0.0
7.886,0.095,-0.932,0.0
7.543,0.089,-0.935,0.0
0.0,0.0,0.0,0.0
0.0,0.0,0.0,0.0
0.0,0.0,0.0,0.0
8.208,0.091,-0.926,0.0
7.862,0.085,-0.931,0.0
7.549,0.081,-0.937,0.0
0.0,0.0,0.0,0.0
0.0,0.0,0.0,0.0
0.0,0.0,0.0,0.0
8.195,0.081,-0.926,0.0
7.835,0.076,-0.929,0.0
7.521,0.072,-0.935,0.0
0.0,0.0,0.0,0.0
0.0,0.0,0.0,0.0
0.0,0.0,0.0,0.0
8.206,0.072,-0.928,0.0
7.846,0.068,-0.932,0.0
7.521,0.063,-0.936,0.0
0.0,0.0,0.0,0.0
0.0,0.0,0.0,0.0
0.0,0.0,0.0,0.0
8.155,0.063,-0.923,0.0
7.893,0.059,-0.938,0.0
7.534,0.055,-0.938,0.0
0.0,0.0,0.0,0.0
0.0,0.0,0.0,0.0
0.0,0.0,0.0,0.0
8.167,0.053,-0.925,0.0
7.736,0.049,-0.92,0.0
7.515,0.046,-0.936,0.0
0.0,0.0,0.0,0.0
0.0,0.0,0.0,0.0
0.0,0.0,0.0,0.0
8.132,0.044,-0.921,0.0
0.0,0.0,0.0,0.0
7.571,0.038,-0.943,0.0
0.0,0.0,0.0,0.0
0.0,0.0,0.0,0.0
0.0,0.0,0.0,0.0
8.177,0.035,-0.925,0.0
0.0,0.0,0.0,0.0
7.552,0.029,-0.94,0.0
0.0,0.0,0.0,0.0
0.0,0.0,0.0,0.0
0.0,0.0,0.0,0.0
8.129,0.026,-0.919,0.0
7.878,0.023,-0.935,0.0
7.561,0.021,-0.94,0.0
0.0,0.0,0.0,0.0
0.0,0.0,0.0,0.0
0.0,0.0,0.0,0.0
8.197,0.016,-0.926,0.0
7.874,0.014,-0.933,0.0
7.552,0.012,-0.938,0.0
0.0,0.0,0.0,0.0
0.0,0.0,0.0,0.0
0.0,0.0,0.0,0.0
8.222,0.007,-0.927,0.0
7.941,0.005,-0.94,0.0
7.582,0.004,-0.94,0.0
0.0,0.0,0.0,0.0
0.0,0.0,0.0,0.0
0.0,0.0,0.0,0.0
8.251,-0.001,-0.928,0.0
7.903,-0.003,-0.933,0.0
7.581,-0.004,-0.938,0.0
0.0,0.0,0.0,0.0
0.0,0.0,0.0,0.0
0.0,0.0,0.0,0.0
8.224,-0.01,-0.923,0.0
7.943,-0.012,-0.936,0.0
7.617,-0.013,-0.94,0.0
0.0,0.0,0.0,0.0
0.0,0.0,0.0,0.0
6.783,-0.015,-0.952,0.0
8.261,-0.02,-0.924,0.0
7.886,-0.02,-0.926,0.0
7.59,-0.021,-0.934,0.0
0.0,0.0,0.0,0.0
0.0,0.0,0.0,0.0
0.0,0.0,0.0,0.0
8.324,-0.029,-0.928,0.0
7.97,-0.029,-0.933,0.0
7.636,-0.03,-0.937,0.0
0.0,0.0,0.0,0.0
0.0,0.0,0.0,0.0
0.0,0.0,0.0,0.0
8.316,-0.038,-0.924,0.0
7.978,-0.038,-0.931,0.0
7.612,-0.038,-0.93,0.0
0.0,0.0,0.0,0.0
0.0,0.0,0.0,0.0
0.0,0.0,0.0,0.0
8.348,-0.047,-0.924,0.0
7.984,-0.047,-0.928,0.0
7.667,-0.047,-0.933,0.0
0.0,0.0,0.0,0.0
0.0,0.0,0.0,0.0
0.0,0.0,0.0,0.0
8.395,-0.057,-0.925,0.0
8.04,-0.056,-0.93,0.0
7.76,-0.055,-0.941,0.0
0.0,0.0,0.0,0.0
0.0,0.0,0.0,0.0
0.0,0.0,0.0,0.0
8.453,-0.066,-0.926,0.0
8.101,-0.065,-0.933,0.0
7.773,-0.064,-0.938,0.0
0.0,0.0,0.0,0.0
0.0,0.0,0.0,0.0
0.0,0.0,0.0,0.0
8.436,-0.075,-0.92,0.0
8.11,-0.074,-0.929,0.0
7.804,-0.072,-0.937,0.0
0.0,0.0,0.0,0.0
7.21,-0.07,-0.946,0.0
6.95,-0.068,-0.951,0.0
8.462,-0.084,-0.917,0.0
8.148,-0.082,-0.928,0.0
7.796,-0.08,-0.931,0.0
0.0,0.0,0.0,0.0
0.0,0.0,0.0,0.0
6.973,-0.076,-0.949,0.0
8.525,-0.093,-0.918,0.0
8.203,-0.091,-0.928,0.0
7.833,-0.089,-0.93,0.0
0.0,0.0,0.0,0.0
0.0,0.0,0.0,0.0
7.001,-0.083,-0.948,0.0
8.551,-0.102,-0.914,0.0
8.238,-0.1,-0.926,0.0
7.883,-0.097,-0.93,0.0
0.0,0.0,0.0,0.0
7.325,-0.093,-0.946,0.0
7.048,-0.091,-0.949,0.0
8.646,-0.112,-0.918,0.0
8.279,-0.109,-0.924,0.0
7.944,-0.106,-0.931,0.0
0.0,0.0,0.0,0.0
7.387,-0.101,-0.948,0.0
7.075,-0.098,-0.947,0.0
8.7,-0.121,-0.917,0.0
8.359,-0.118,-0.927,0.0
7.992,-0.114,-0.93,0.0
0.0,0.0,0.0,0.0
0.0,0.0,0.0,0.0
7.125,-0.106,-0.947,0.0
8.766,-0.131,-0.916,0.0
8.388,-0.127,-0.922,0.0
8.064,-0.123,-0.931,0.0
0.0,0.0,0.0,0.0
7.481,-0.117,-0.947,0.0
7.187,-0.114,-0.949,0.0
8.789,-0.139,-0.911,0.0
8.411,-0.135,-0.917,0.0
8.121,-0.132,-0.93,0.0
0.0,0.0,0.0,0.0
7.508,-0.125,-0.943,0.0
7.227,-0.121,-0.948,0.0
8.92,-0.15,-0.916,0.0
8.5,-0.144,-0.919,0.0
8.185,-0.14,-0.93,0.0
0.0,0.0,0.0,0.0
7.572,-0.133,-0.944,0.0
7.257,-0.128,-0.944,0.0
9.004,-0.159,-0.916,0.0
8.541,-0.153,-0.915,0.0
8.186,-0.148,-0.922,0.0
0.0,0.0,0.0,0.0
7.609,-0.14,-0.941,0.0
7.36,-0.137,-0.95,0.0
9.055,-0.168,-0.912,0.0
8.674,-0.163,-0.921,0.0
8.251,-0.156,-0.92,0.0
0.0,0.0,0.0,0.0
7.702,-0.149,-0.944,0.0
7.389,-0.144,-0.946,0.0
9.114,-0.177,-0.908,0.0
8.745,-0.171,-0.919,0.0
8.363,-0.165,-0.924,0.0
0.0,0.0,0.0,0.0
0.0,0.0,0.0,0.0
7.435,-0.151,-0.944,0.0
9.205,-0.187,-0.907,0.0
8.818,-0.18,-0.917,0.0
8.441,-0.174,-0.923,0.0
8.103,-0.168,-0.931,0.0
7.846,-0.164,-0.944,0.0
7.523,-0.159,-0.946,0.0
9.284,-0.196,-0.905,0.0
8.886,-0.189,-0.914,0.0
8.477,-0.181,-0.918,0.0
8.161,-0.176,-0.928,0.0
7.83,-0.17,-0.933,0.0
7.535,-0.165,-0.939,0.0
9.397,-0.205,-0.905,0.0
8.974,-0.198,-0.912,0.0
8.587,-0.191,-0.919,0.0
8.262,-0.185,-0.93,0.0
7.931,-0.179,-0.936,0.0
7.649,-0.174,-0.944,0.0
9.479,-0.215,-0.901,0.0
9.079,-0.207,-0.912,0.0
8.739,-0.201,-0.925,0.0
8.332,-0.193,-0.928,0.0
8.016,-0.187,-0.936,0.0
7.673,-0.18,-0.937,0.0
9.583,-0.224,-0.899,0.0
9.157,-0.215,-0.908,0.0
8.789,-0.208,-0.919,0.0
8.408,-0.2,-0.925,0.0
8.085,-0.194,-0.934,0.0
7.761,-0.188,-0.938,0.0
9.682,-0.233,-0.896,0.0
9.271,-0.225,-0.908,0.0
8.89,-0.217,-0.918,0.0
8.502,-0.209,-0.925,0.0
8.154,-0.201,-0.931,0.0
7.851,-0.195,-0.939,0.0
9.847,-0.244,-0.898,0.0
9.395,-0.234,-0.907,0.0
8.941,-0.224,-0.911,0.0
8.621,-0.217,-0.926,0.0
8.26,-0.21,-0.932,0.0
7.937,-0.203,-0.938,0.0
9.9,-0.252,-0.89,0.0
9.508,-0.243,-0.905,0.0
9.103,-0.234,-0.916,0.0
8.679,-0.224,-0.92,0.0
8.343,-0.217,-0.93,0.0
8.002,-0.209,-0.935,0.0
10.018,-0.261,-0.887,0.0
9.611,-0.252,-0.902,0.0
9.158,-0.241,-0.908,0.0
8.789,-0.233,-0.92,0.0
8.409,-0.224,-0.925,0.0
8.101,-0.217,-0.935,0.0
10.207,-0.272,-0.889,0.0
9.709,-0.26,-0.897,0.0
9.292,-0.25,-0.908,0.0
8.897,-0.241,-0.918,0.0
8.465,-0.23,-0.919,0.0
8.183,-0.224,-0.932,0.0
10.318,-0.281,-0.884,0.0
9.835,-0.269,-0.895,0.0
9.358,-0.257,-0.901,0.0
9.017,-0.249,-0.918,0.0
8.591,-0.238,-0.92,0.0
8.293,-0.231,-0.933,0.0
10.446,-0.29,-0.88,0.0
9.943,-0.277,-0.89,0.0
9.612,-0.269,-0.912,0.0
9.091,-0.255,-0.912,0.0
8.754,-0.247,-0.925,0.0
8.359,-0.237,-0.927,0.0
10.573,-0.298,-0.875,0.0
10.122,-0.287,-0.891,0.0
9.697,-0.276,-0.905,0.0
9.234,-0.264,-0.912,0.0
8.808,-0.253,-0.917,0.0
8.478,-0.244,-0.928,0.0
10.772,-0.309,-0.875,0.0
10.256,-0.295,-0.887,0.0
9.776,-0.283,-0.897,0.0
9.34,-0.271,-0.908,0.0
8.949,-0.261,-0.917,0.0
8.552,-0.25,-0.922,0.0
10.957,-0.319,-0.873,0.0
10.391,-0.304,-0.883,0.0
9.892,-0.29,-0.892,0.0
9.493,-0.28,-0.908,0.0
9.081,-0.268,-0.917,0.0
8.695,-0.258,-0.924,0.0
11.092,-0.328,-0.866,0.0
10.539,-0.312,-0.878,0.0
10.103,-0.3,-0.895,0.0
9.637,-0.288,-0.906,0.0
9.091,-0.272,-0.903,0.0
8.772,-0.263,-0.918,0.0
11.292,-0.338,-0.864,0.0
10.763,-0.323,-0.88,0.0
10.236,-0.308,-0.891,0.0
9.733,-0.294,-0.899,0.0
9.307,-0.282,-0.909,0.0
8.923,-0.271,-0.919,0.0
11.485,-0.347,-0.859,0.0
10.895,-0.33,-0.873,0.0
10.367,-0.315,-0.885,0.0
9.875,-0.301,-0.896,0.0
9.456,-0.289,-0.908,0.0
9.048,-0.278,-0.917,0.0
11.688,-0.357,-0.855,0.0
11.08,-0.339,-0.869,0.0
10.502,-0.322,-0.879,0.0
10.012,-0.308,-0.892,0.0
9.602,-0.296,-0.906,0.0
8.977,-0.278,-0.894,0.0
11.95,-0.368,-0.854,0.0
11.291,-0.348,-0.866,0.0
10.707,-0.331,-0.878,0.0
10.206,-0.316,-0.892,0.0
9.745,-0.303,-0.903,0.0
9.313,-0.29,-0.912,0.0
12.254,-0.38,-0.855,0.0
11.471,-0.356,-0.861,0.0
10.888,-0.339,-0.874,0.0
10.365,-0.323,-0.888,0.0
9.88,-0.309,-0.898,0.0
9.437,-0.296,-0.907,0.0
12.514,-0.39,-0.852,0.0
11.69,-0.365,-0.857,0.0
11.094,-0.347,-0.871,0.0
10.509,-0.33,-0.882,0.0
10.054,-0.316,-0.896,0.0
9.632,-0.303,-0.909,0.0
12.834,-0.402,-0.851,0.0
11.98,-0.376,-0.857,0.0
11.271,-0.354,-0.866,0.0
10.748,-0.339,-0.883,0.0
10.223,-0.323,-0.894,0.0
9.768,-0.309,-0.905,0.0
13.135,-0.413,-0.848,0.0
12.272,-0.387,-0.857,0.0
11.461,-0.362,-0.86,0.0
10.881,-0.344,-0.875,0.0
10.357,-0.328,-0.887,0.0
9.899,-0.314,-0.9,0.0
13.465,-0.424,-0.846,0.0
12.593,-0.397,-0.857,0.0
11.721,-0.37,-0.859,0.0
11.093,-0.351,-0.872,0.0
10.532,-0.334,-0.883,0.0
10.056,-0.319,-0.896,0.0
13.717,-0.433,-0.837,0.0
12.792,-0.404,-0.847,0.0
12.009,-0.38,-0.858,0.0
11.3,-0.358,-0.868,0.0
10.778,-0.341,-0.884,0.0
10.253,-0.325,-0.895,0.0
14.124,-0.446,-0.836,0.0
13.271,-0.419,-0.855,0.0
12.292,-0.388,-0.856,0.0
11.501,-0.364,-0.862,0.0
10.905,-0.345,-0.874,0.0
10.395,-0.329,-0.888,0.0
14.358,-0.452,-0.824,0.0
13.505,-0.426,-0.845,0.0
12.612,-0.398,-0.855,0.0
11.73,-0.37,-0.858,0.0
11.126,-0.351,-0.872,0.0
10.578,-0.334,-0.884,0.0
14.746,-0.463,-0.819,0.0
13.796,-0.434,-0.838,0.0
12.923,-0.406,-0.852,0.0
12.037,-0.379,-0.858,0.0
11.364,-0.358,-0.87,0.0
10.8,-0.34,-0.883,0.0
15.195,-0.476,-0.816,0.0
14.145,-0.443,-0.833,0.0
13.242,-0.415,-0.849,0.0
12.357,-0.387,-0.858,0.0
11.572,-0.362,-0.864,0.0
10.961,-0.343,-0.875,0.0
15.684,-0.489,-0.813,0.0
14.476,-0.451,-0.826,0.0
13.574,-0.423,-0.845,0.0
12.631,-0.393,-0.853,0.0
11.827,-0.368,-0.861,0.0
11.172,-0.348,-0.871,0.0
16.094,-0.498,-0.804,0.0
14.946,-0.462,-0.825,0.0
13.876,-0.429,-0.838,0.0
13.046,-0.403,-0.856,0.0
12.14,-0.375,-0.86,0.0
11.408,-0.352,-0.868,0.0
16.556,-0.508,-0.796,0.0
15.303,-0.47,-0.815,0.0
14.219,-0.436,-0.831,0.0
13.379,-0.41,-0.853,0.0
12.473,-0.382,-0.86,0.0
11.637,-0.356,-0.863,0.0
17.091,-0.52,-0.789,0.0
15.753,-0.479,-0.809,0.0
14.642,-0.445,-0.828,0.0
13.608,-0.413,-0.841,0.0
12.778,-0.387,-0.856,0.0
11.927,-0.361,-0.861,0.0
17.578,-0.529,-0.778,0.0
16.206,-0.487,-0.801,0.0
15.07,-0.453,-0.823,0.0
13.988,-0.42,-0.838,0.0
13.158,-0.394,-0.857,0.0
12.243,-0.366,-0.861,0.0
18.194,-0.541,-0.771,1.0
16.779,-0.498,-0.798,0.0
15.402,-0.457,-0.812,0.0
14.357,-0.425,-0.833,0.0
13.51,-0.399,-0.854,0.0
12.537,-0.37,-0.857,0.0
21.904,-0.643,-0.886,1.0
21.92,-0.642,-1.0,0.0
16.096,-0.471,-0.818,0.0
14.648,-0.428,-0.822,0.0
13.733,-0.4,-0.842,0.0
12.922,-0.376,-0.859,0.0
21.904,-0.633,-0.845,7.0
18.107,-0.523,-0.792,1.0
16.311,-0.47,-0.798,0.0
15.217,-0.437,-0.824,0.0
14.131,-0.405,-0.839,0.0
13.163,-0.377,-0.85,0.0
21.886,-0.622,-0.802,19.0
21.88,-0.621,-0.915,5.0
21.931,-0.621,-1.03,1.0
21.897,-0.618,-1.145,0.0
21.827,-0.615,-1.254,0.0
13.566,-0.381,-0.85,0.0
21.862,-0.61,-0.759,9.0
21.905,-0.61,-0.874,65.0
21.877,-0.608,-0.986,1.0
21.88,-0.606,-1.101,2.0
14.795,-0.408,-0.821,0.0
13.833,-0.381,-0.84,0.0
21.849,-0.598,-0.716,34.0
21.897,-0.597,-0.831,23.0
18.081,-0.492,-0.78,6.0
21.894,-0.594,-1.06,0.0
15.321,-0.414,-0.821,0.0
14.274,-0.384,-0.839,0.0
21.877,-0.585,-0.675,150.0
21.888,-0.584,-0.789,12.0
18.128,-0.482,-0.747,7.0
17.874,-0.473,-0.831,0.0
18.162,-0.479,-0.938,0.0
18.142,-0.477,-1.031,0.0
21.896,-0.572,-0.634,107.0
18.152,-0.472,-0.619,153.0
18.138,-0.47,-0.712,21.0
18.036,-0.466,-0.803,2.0
18.123,-0.466,-0.901,10.0
18.15,-0.465,-0.997,3.0
21.901,-0.557,-0.592,153.0
18.15,-0.46,-0.584,154.0
18.134,-0.457,-0.677,150.0
18.063,-0.454,-0.77,15.0
18.027,-0.451,-0.862,10.0
18.135,-0.452,-0.961,20.0
21.927,-0.542,-0.55,40.0
18.162,-0.447,-0.549,150.0
18.096,-0.443,-0.641,165.0
18.113,-0.441,-0.737,67.0
18.091,-0.439,-0.83,4.0
18.129,-0.438,-0.926,56.0
27.693,-0.664,-0.642,0.0
18.163,-0.433,-0.515,66.0
18.112,-0.43,-0.607,189.0
18.121,-0.428,-0.703,112.0
18.093,-0.425,-0.796,5.0
0.0,0.0,0.0,0.0
29.459,-0.683,-0.628,0.0
18.149,-0.418,-0.48,2.0
18.126,-0.415,-0.574,154.0
18.152,-0.414,-0.67,151.0
18.112,-0.41,-0.762,36.0
17.988,-0.405,-0.85,8.0
30.846,-0.69,-0.599,0.0
26.695,-0.593,-0.656,0.0
18.165,-0.401,-0.54,16.0
18.094,-0.397,-0.634,158.0
18.134,-0.395,-0.729,53.0
18.051,-0.391,-0.82,2.0
0.0,0.0,0.0,0.0
27.915,-0.596,-0.634,0.0
24.548,-0.52,-0.684,0.0
18.158,-0.382,-0.602,151.0
18.158,-0.38,-0.696,17.0
18.093,-0.376,-0.787,11.0
34.989,-0.72,-0.548,0.0
29.883,-0.611,-0.623,0.0
0.0,0.0,0.0,0.0
22.612,-0.455,-0.707,0.0
18.157,-0.363,-0.662,1.0
18.123,-0.359,-0.755,10.0
0.0,0.0,0.0,0.0
31.358,-0.611,-0.596,0.0
26.741,-0.517,-0.646,0.0
23.845,-0.457,-0.702,0.0
21.281,-0.405,-0.737,0.0
19.133,-0.361,-0.762,0.0
0.0,0.0,0.0,0.0
33.801,-0.625,-0.579,0.0
0.0,0.0,0.0,0.0
24.541,-0.446,-0.677,0.0
21.821,-0.393,-0.715,0.0
19.863,-0.354,-0.754,0.0
44.555,-0.787,-0.451,1.0
35.14,-0.615,-0.538,1.0
30.535,-0.529,-0.625,0.0
26.023,-0.446,-0.67,0.0
22.921,-0.389,-0.709,0.0
20.511,-0.344,-0.741,0.0
47.367,-0.787,-0.393,1.0
37.636,-0.618,-0.507,0.0
31.866,-0.518,-0.594,0.0
27.402,-0.44,-0.656,0.0
24.171,-0.384,-0.704,0.0
21.355,-0.335,-0.733,0.0
50.07,-0.778,-0.325,0.0
0.0,0.0,0.0,0.0
33.837,-0.513,-0.57,0.0
28.992,-0.434,-0.642,0.0
24.777,-0.366,-0.677,0.0
22.283,-0.325,-0.725,0.0
0.0,0.0,0.0,0.0
0.0,0.0,0.0,0.0
0.0,0.0,0.0,0.0
30.7,-0.425,-0.625,0.0
26.305,-0.359,-0.672,0.0
22.929,-0.308,-0.705,0.0
0.0,0.0,0.0,0.0
47.365,-0.619,-0.384,0.0
0.0,0.0,0.0,0.0
0.0,0.0,0.0,0.0
0.0,0.0,0.0,0.0
24.136,-0.296,-0.7,0.0
0.0,0.0,0.0,0.0
0.0,0.0,0.0,0.0
0.0,0.0,0.0,0.0
33.683,-0.386,-0.567,0.0
28.993,-0.326,-0.639,0.0
24.979,-0.276,-0.68,0.0
0.0,0.0,0.0,0.0
0.0,0.0,0.0,0.0
0.0,0.0,0.0,0.0
0.0,0.0,0.0,0.0
30.758,-0.308,-0.624,0.0
26.36,-0.258,-0.672,0.0
0.0,0.0,0.0,0.0
0.0,0.0,0.0,0.0
0.0,0.0,0.0,0.0
0.0,0.0,0.0,0.0
0.0,0.0,0.0,0.0
27.865,-0.237,-0.663,0.0
0.0,0.0,0.0,0.0
0.0,0.0,0.0,0.0
51.262,-0.403,-0.326,1.0
41.398,-0.316,-0.483,0.0
34.136,-0.253,-0.576,0.0
28.997,-0.208,-0.64,0.0
111.225,-0.776,0.639,6.0
0.0,0.0,0.0,0.0
0.0,0.0,0.0,0.0
0.0,0.0,0.0,0.0
36.01,-0.218,-0.547,0.0
29.862,-0.174,-0.61,0.0
119.664,-0.672,0.888,8.0
95.27,-0.513,0.21,1.0
0.0,0.0,0.0,0.0
0.0,0.0,0.0,0.0
37.932,-0.178,-0.514,0.0
31.591,-0.14,-0.592,0.0
119.712,-0.506,1.087,17.0
0.0,0.0,0.0,0.0
0.0,0.0,0.0,0.0
51.143,-0.179,-0.341,0.0
0.0,0.0,0.0,0.0
34.275,-0.104,-0.587,0.0
119.739,-0.337,1.282,17.0
110.854,-0.285,0.608,8.0
0.0,0.0,0.0,0.0
0.0,0.0,0.0,0.0
45.466,-0.084,-0.468,1.0
0.0,0.0,0.0,0.0
117.417,-0.162,1.444,11.0
111.15,-0.126,0.785,13.0
0.0,0.0,0.0,0.0
0.0,0.0,0.0,0.0
45.328,-0.018,-0.395,1.0
0.0,0.0,0.0,0.0
117.296,0.011,1.629,14.0
111.213,0.039,0.962,7.0
95.651,0.056,0.325,3.0
0.0,0.0,0.0,0.0
49.926,0.054,-0.358,0.0
42.83,0.057,-0.532,0.0
111.059,0.176,1.714,7.0
111.114,0.205,1.132,17.0
103.709,0.216,0.512,5.0
0.0,0.0,0.0,0.0
52.402,0.136,-0.296,0.0
42.887,0.121,-0.468,1.0
119.855,0.372,2.031,47.0
119.751,0.402,1.4,16.0
110.775,0.401,0.714,5.0
87.853,0.34,0.096,1.0
0.0,0.0,0.0,0.0
45.939,0.201,-0.433,1.0
111.145,0.516,2.05,24.0
111.095,0.545,1.464,31.0
110.954,0.573,0.878,14.0
87.752,0.476,0.225,4.0
0.0,0.0,0.0,0.0
48.595,0.289,-0.386,0.0
111.047,0.69,2.21,30.0
111.098,0.719,1.626,23.0
104.939,0.708,0.984,20.0
97.018,0.679,0.388,3.0
0.0,0.0,0.0,0.0
0.0,0.0,0.0,0.0
104.731,0.818,2.235,29.0
0.0,0.0,0.0,0.0
100.593,0.839,1.086,3.0
98.073,0.845,0.532,12.0
0.0,0.0,0.0,0.0
0.0,0.0,0.0,0.0
104.691,0.988,2.382,5.0
98.828,0.959,1.727,13.0
98.616,0.984,1.202,27.0
98.34,1.008,0.671,14.0
80.902,0.851,0.124,6.0
0.0,0.0,0.0,0.0
98.598,1.091,2.379,23.0
98.563,1.117,1.856,30.0
98.537,1.144,1.335,31.0
98.468,1.17,0.804,18.0
84.982,1.032,0.243,6.0
0.0,0.0,0.0,0.0
98.53,1.253,2.509,30.0
98.562,1.281,1.988,31.0
98.518,1.307,1.465,29.0
98.558,1.335,0.935,29.0
85.217,1.177,0.356,10.0
0.0,0.0,0.0,0.0
98.511,1.419,2.638,26.0
119.946,1.761,2.576,111.0
99.079,1.482,1.603,15.0
91.986,1.402,0.992,31.0
91.838,1.425,0.503,9.0
74.634,1.178,0.013,2.0
92.024,1.482,2.582,16.0
91.944,1.506,2.092,32.0
91.886,1.53,1.602,41.0
91.878,1.556,1.105,42.0
91.817,1.58,0.617,26.0
73.845,1.292,0.104,4.0
91.815,1.636,2.69,24.0
91.844,1.663,2.204,38.0
91.535,1.682,1.709,9.0
87.775,1.638,1.164,2.0
91.909,1.742,0.731,14.0
78.111,1.502,0.205,6.0
91.821,1.797,2.803,32.0
87.064,1.728,2.194,6.0
0.0,0.0,0.0,0.0
85.38,1.742,1.234,26.0
85.297,1.766,0.779,34.0
84.709,1.778,0.323,3.0
85.296,1.819,2.704,33.0
85.28,1.842,2.249,37.0
85.252,1.866,1.794,39.0
85.234,1.891,1.332,37.0
85.251,1.916,0.877,37.0
84.89,1.932,0.421,10.0
85.246,1.97,2.801,29.0
85.242,1.995,2.347,37.0
85.249,2.018,1.891,35.0
85.277,2.044,1.428,32.0
85.299,2.069,0.974,29.0
79.051,1.94,0.48,11.0
78.882,1.964,2.68,26.0
120.06,3.024,3.438,2.0
78.97,2.011,1.838,12.0
78.964,2.034,1.409,32.0
78.922,2.055,0.986,35.0
78.861,2.077,0.564,21.0
78.811,2.104,2.763,31.0
78.831,2.127,2.341,33.0
78.826,2.15,1.92,35.0
77.176,2.128,1.459,3.0
76.714,2.137,1.039,6.0
78.861,2.22,0.647,8.0
78.79,2.247,2.844,21.0
78.842,2.271,2.423,24.0
76.338,2.221,1.937,3.0
74.838,2.2,1.491,8.0
74.247,2.204,1.081,3.0
78.924,2.365,0.726,15.0
78.821,2.393,2.925,33.0
206.581,6.333,6.559,10.0
74.376,2.302,1.962,6.0
194.285,6.071,4.064,17.0
72.507,2.286,1.127,15.0
72.427,2.305,0.737,29.0
72.525,2.336,2.762,24.0
72.466,2.354,2.37,30.0
72.424,2.374,1.979,35.0
72.402,2.394,1.582,36.0
72.363,2.414,1.192,37.0
72.356,2.435,0.803,31.0
72.415,2.466,2.825,33.0
72.397,2.486,2.434,38.0
72.399,2.507,2.045,35.0
72.37,2.528,1.647,34.0
72.363,2.548,1.257,30.0
72.365,2.569,0.868,26.0
72.444,2.601,2.891,28.0
72.453,2.622,2.5,27.0
72.488,2.645,2.111,25.0
72.521,2.668,1.714,14.0
120.1,4.453,2.191,29.0
120.08,4.487,1.543,12.0
72.5,2.739,2.955,7.0
190.793,7.264,6.748,26.0
195.35,7.49,5.852,20.0
120.046,4.638,2.936,13.0
193.631,7.536,3.69,23.0
120.08,4.71,1.64,21.0
66.135,2.622,2.75,23.0
66.117,2.641,2.391,24.0
66.157,2.662,2.035,5.0
120.074,4.867,3.034,21.0
120.121,4.903,2.384,8.0
63.501,2.611,0.917,7.0
52.872,2.197,2.24,15.0
66.014,2.761,2.439,31.0
66.04,2.781,2.082,31.0
64.401,2.73,1.675,11.0
62.977,2.687,1.297,7.0
50.667,2.177,0.769,10.0
52.56,2.281,2.265,23.0
66.046,2.885,2.488,22.0
66.071,2.906,2.131,19.0
62.681,2.775,1.675,8.0
61.179,2.726,1.303,8.0
50.496,2.265,0.802,16.0
52.692,2.387,2.308,14.0
52.68,2.401,2.021,5.0
0.0,0.0,0.0,0.0
61.104,2.82,1.674,16.0
50.851,2.362,1.117,6.0
50.188,2.346,0.83,6.0
52.906,2.497,2.352,15.0
65.875,3.128,2.57,2.0
60.979,2.913,2.048,2.0
0.0,0.0,0.0,0.0
50.636,2.448,1.144,17.0
49.786,2.422,0.855,12.0
59.442,2.919,2.68,19.0
59.477,2.937,2.357,24.0
59.514,2.956,2.035,6.0
124.943,6.243,3.579,2.0
50.373,2.531,1.169,22.0
49.165,2.484,0.873,4.0
59.382,3.029,2.712,18.0
59.404,3.047,2.389,31.0
59.4,3.062,2.064,33.0
59.401,3.08,1.734,33.0
50.356,2.625,1.196,19.0
48.83,2.559,0.893,12.0
59.36,3.14,2.743,7.0
59.431,3.16,2.422,32.0
59.426,3.176,2.096,27.0
59.426,3.193,1.766,12.0
49.572,2.678,1.202,4.0
48.449,2.631,0.911,9.0
59.427,3.256,2.776,6.0
119.688,6.59,4.936,28.0
119.705,6.625,4.282,30.0
50.689,2.819,1.53,24.0
49.101,2.745,1.214,15.0
48.173,2.707,0.928,15.0
91.666,5.196,4.325,9.0
119.558,6.81,4.986,17.0
119.277,6.826,4.32,16.0
50.529,2.906,1.548,17.0
48.631,2.81,1.223,5.0
47.956,2.784,0.944,19.0
52.25,3.059,2.487,1.0
115.434,6.79,4.861,23.0
115.449,6.823,4.228,36.0
49.598,2.945,1.539,13.0
48.105,2.869,1.229,9.0
47.761,2.862,0.958,30.0
115.439,6.977,5.539,8.0
115.451,7.008,4.904,21.0
50.982,3.108,1.885,5.0
49.104,3.007,1.541,18.0
47.776,2.938,1.237,12.0
47.546,2.938,0.97,38.0
90.105,5.614,4.354,11.0
111.163,6.955,4.759,10.0
50.271,3.158,1.875,3.0
48.405,3.054,1.535,10.0
47.538,3.013,1.246,20.0
47.477,3.022,0.983,4.0
52.292,3.356,2.542,40.0
52.332,3.372,2.256,28.0
52.347,3.386,1.968,16.0
47.816,3.106,1.529,4.0
47.367,3.09,1.254,60.0
52.268,3.424,1.096,40.0
52.25,3.45,2.554,46.0
52.237,3.463,2.265,44.0
52.24,3.477,1.977,22.0
47.302,3.16,1.524,24.0
52.204,3.501,1.394,42.0
52.184,3.514,1.106,44.0
52.261,3.548,2.566,22.0
52.236,3.56,2.276,35.0
52.228,3.573,1.987,23.0
52.22,3.586,1.693,15.0
52.2,3.597,1.404,33.0
52.212,3.613,1.116,33.0
52.39,3.653,2.582,13.0
52.342,3.663,2.29,17.0
52.341,3.676,2.0,6.0
52.31,3.687,1.704,24.0
52.305,3.7,1.415,22.0
52.321,3.715,1.126,13.0
90.535,6.478,4.475,10.0
90.293,6.484,3.963,18.0
102.079,7.355,3.914,39.0
102.076,7.381,3.338,53.0
102.194,7.416,2.776,17.0
102.096,7.435,2.209,12.0
90.783,6.662,4.497,16.0
71.342,5.252,3.137,10.0
101.977,7.533,3.919,19.0
101.985,7.56,3.344,37.0
101.074,7.518,2.753,4.0
100.933,7.533,2.19,8.0
71.809,5.398,3.561,9.0
71.354,5.381,3.142,27.0
101.993,7.717,3.925,21.0
101.988,7.74,3.347,33.0
100.136,7.625,2.731,4.0
99.848,7.628,2.17,10.0
71.585,5.508,3.551,14.0
71.691,5.533,3.158,17.0
91.345,7.073,3.516,14.0
101.058,7.85,3.318,18.0
98.984,7.714,2.7,8.0
98.873,7.729,2.147,9.0
45.892,3.613,2.276,28.0
45.924,3.626,2.022,26.0
45.911,3.636,1.766,27.0
45.886,3.645,1.504,32.0
45.875,3.655,1.249,36.0
45.879,3.667,0.994,35.0
45.813,3.688,2.27,41.0
45.83,3.699,2.015,41.0
45.831,3.71,1.759,43.0
45.811,3.72,1.499,44.0
45.803,3.73,1.243,39.0
45.788,3.74,0.987,44.0
45.811,3.768,2.265,39.0
45.802,3.777,2.009,41.0
45.809,3.788,1.753,39.0
45.795,3.798,1.493,40.0
45.787,3.808,1.237,37.0
45.771,3.818,0.982,38.0
45.84,3.849,2.26,39.0
45.845,3.86,2.004,31.0
45.845,3.87,1.748,23.0
45.812,3.877,1.486,26.0
45.8,3.887,1.23,26.0
45.795,3.897,0.975,28.0
79.173,6.781,3.891,18.0
91.713,7.876,3.994,18.0
96.275,8.288,3.654,18.0
45.879,3.959,1.48,1.0
93.137,8.061,2.484,27.0
93.137,8.082,1.964,32.0
85.947,7.505,4.206,25.0
92.576,8.103,4.012,41.0
93.117,8.17,3.515,56.0
93.126,8.192,2.983,38.0
93.235,8.222,2.465,16.0
93.156,8.236,1.942,15.0
85.612,7.616,4.169,32.0
93.041,8.296,4.01,13.0
93.008,8.312,3.486,14.0
92.734,8.308,2.947,5.0
92.509,8.309,2.421,7.0
92.387,8.317,1.901,4.0
85.572,7.752,4.143,36.0
93.062,8.45,3.983,28.0
93.0,8.463,3.459,27.0
91.775,8.37,2.889,7.0
91.683,8.382,2.372,11.0
91.528,8.387,1.855,9.0
85.673,7.899,4.121,25.0
92.942,8.587,3.949,18.0
92.791,8.591,3.421,14.0
91.008,8.445,2.834,7.0
90.879,8.453,2.32,10.0
90.806,8.465,1.809,10.0
92.422,8.667,4.414,13.0
92.199,8.664,3.884,10.0
91.921,8.656,3.355,6.0
90.216,8.514,2.777,11.0
90.196,8.531,2.269,11.0
89.991,8.53,1.758,11.0
91.558,8.729,4.337,17.0
91.355,8.728,3.812,18.0
89.604,8.578,3.235,3.0
89.48,8.583,2.717,13.0
89.385,8.592,2.212,12.0
89.227,8.596,1.706,10.0
90.748,8.793,4.26,17.0
90.541,8.79,3.74,16.0
88.928,8.648,3.172,13.0
88.747,8.648,2.657,11.0
88.659,8.657,2.155,9.0
88.53,8.662,1.653,8.0
88.551,8.712,4.117,16.0
88.547,8.728,3.617,19.0
88.24,8.714,3.106,1.0
88.019,8.709,2.593,10.0
87.985,8.722,2.096,10.0
87.841,8.724,1.598,10.0
88.559,8.843,4.073,36.0
88.55,8.858,3.573,29.0
87.542,8.773,3.038,1.0
87.345,8.769,2.529,5.0
87.311,8.781,2.036,10.0
87.194,8.787,1.541,12.0
88.556,8.971,4.027,22.0
88.479,8.978,3.523,13.0
86.903,8.833,2.97,6.0
86.784,8.836,2.466,12.0
86.71,8.844,1.975,10.0
86.538,8.843,1.482,10.0
88.03,9.042,3.955,15.0
87.941,9.046,3.453,5.0
86.187,8.881,2.897,7.0
86.132,8.89,2.399,12.0
86.06,8.898,1.911,12.0
85.922,8.899,1.422,12.0
87.432,9.101,3.877,18.0
85.734,8.939,3.316,7.0
85.618,8.939,2.827,11.0
85.548,8.947,2.332,11.0
85.44,8.95,1.845,10.0
84.492,8.866,1.347,12.0
86.87,9.16,3.798,22.0
84.211,8.892,3.205,19.0
84.181,8.902,2.726,43.0
84.16,8.913,2.241,57.0
84.16,8.927,1.765,63.0
84.177,8.944,1.288,56.0
84.138,8.982,3.624,48.0
84.155,8.997,3.147,56.0
84.174,9.012,2.671,44.0
84.237,9.032,2.187,25.0
84.275,9.049,1.711,20.0
84.23,9.059,1.233,12.0
84.186,9.095,3.569,18.0
84.132,9.101,3.09,9.0
84.026,9.102,2.609,6.0
83.938,9.106,2.121,6.0
83.757,9.099,1.642,7.0
83.682,9.105,1.166,11.0
83.999,9.18,3.502,9.0
83.579,9.145,3.01,3.0
83.455,9.144,2.532,9.0
83.371,9.147,2.048,10.0
83.27,9.148,1.573,12.0
83.177,9.151,1.099,11.0
83.964,9.278,3.439,2.0
82.976,9.18,2.928,8.0
82.966,9.19,2.455,12.0
82.88,9.192,1.974,11.0
82.757,9.19,1.501,11.0
82.643,9.19,1.03,11.0
82.669,9.231,3.324,4.0
82.476,9.22,2.847,6.0
82.494,9.233,2.379,11.0
82.387,9.232,1.899,12.0
82.318,9.236,1.43,12.0
82.199,9.235,0.961,11.0
82.136,9.265,3.238,3.0
82.071,9.268,2.769,13.0
82.004,9.27,2.299,12.0
81.926,9.273,1.823,12.0
81.82,9.272,1.355,11.0
81.765,9.278,0.89,10.0
81.679,9.304,3.153,3.0
81.676,9.313,2.689,11.0
81.606,9.315,2.222,13.0
81.503,9.313,1.746,12.0
81.426,9.315,1.282,9.0
81.337,9.316,0.818,10.0
81.226,9.338,3.069,11.0
81.273,9.352,2.608,11.0
81.199,9.353,2.143,8.0
67.74,7.811,1.395,10.0
67.667,7.81,1.009,14.0
66.505,7.685,0.613,12.0
67.593,7.839,2.496,14.0
66.446,7.713,2.075,14.0
66.353,7.71,1.693,34.0
66.332,7.715,1.309,37.0
66.335,7.723,0.932,56.0
66.324,7.73,0.553,68.0
66.31,7.756,2.39,63.0
66.31,7.762,2.013,64.0
66.316,7.77,1.634,71.0
66.305,7.776,1.249,150.0
66.338,7.787,0.872,58.0
66.334,7.795,0.494,44.0
66.317,7.819,2.331,61.0
66.318,7.825,1.953,42.0
66.34,7.835,1.575,34.0
66.42,7.851,1.191,23.0
66.505,7.869,0.813,16.0
66.503,7.876,0.434,13.0
66.467,7.897,2.274,18.0
66.44,7.899,1.895,13.0
66.377,7.898,1.514,16.0
66.294,7.895,1.127,15.0
66.213,7.893,0.747,15.0
66.15,7.892,0.37,17.0
66.195,7.921,2.203,15.0
66.134,7.92,1.823,17.0
66.044,7.915,1.443,17.0
65.973,7.913,1.058,18.0
65.895,7.91,0.681,14.0
65.835,7.91,0.304,18.0
65.886,7.938,2.129,15.0
65.832,7.937,1.751,16.0
65.727,7.93,1.373,14.0
65.659,7.928,0.99,16.0
65.606,7.928,0.614,16.0
65.544,7.927,0.24,19.0
65.586,7.953,2.056,16.0
65.507,7.948,1.678,17.0
65.462,7.948,1.303,16.0
65.369,7.942,0.921,18.0
65.309,7.941,0.547,17.0
65.244,7.94,0.173,17.0
65.293,7.966,1.981,16.0
65.24,7.964,1.607,17.0
65.154,7.958,1.231,15.0
65.098,7.956,0.852,18.0
65.026,7.953,0.479,17.0
64.98,7.953,0.107,9.0
65.033,7.979,1.908,16.0
64.987,7.977,1.534,16.0
64.92,7.974,1.16,17.0
64.827,7.967,0.781,16.0
64.786,7.967,0.411,20.0
64.686,7.961,0.041,10.0
64.797,7.992,1.832,17.0
64.705,7.984,1.46,15.0
64.64,7.981,1.089,16.0
64.608,7.981,0.712,17.0
64.537,7.977,0.342,20.0
64.482,7.976,-0.026,7.0
64.553,8.0,1.759,16.0
64.5,7.997,1.389,17.0
64.446,7.995,1.018,20.0
64.397,7.993,0.642,18.0
64.355,7.992,0.273,21.0
64.287,7.989,-0.093,4.0
64.366,8.014,1.686,17.0
64.292,8.008,1.315,18.0
64.23,8.003,0.946,18.0
64.183,8.001,0.571,20.0
64.138,8.0,0.204,16.0
45.689,5.702,-0.115,4.0
64.154,8.02,1.612,18.0
64.107,8.017,1.243,17.0
64.04,8.012,0.875,17.0
64.001,8.011,0.501,18.0
63.935,8.006,0.135,9.0
45.606,5.714,-0.164,16.0
63.983,8.029,1.538,16.0
63.947,8.027,1.17,17.0
63.887,8.022,0.803,16.0
63.836,8.019,0.43,18.0
63.774,8.015,0.065,12.0
45.558,5.728,-0.214,8.0
63.818,8.035,1.465,16.0
63.78,8.033,1.098,18.0
63.712,8.026,0.732,17.0
63.676,8.025,0.36,20.0
63.626,8.022,-0.003,10.0
41.898,5.285,-0.242,17.0
63.709,8.046,1.391,18.0
63.651,8.04,1.025,19.0
63.622,8.039,0.661,18.0
63.553,8.032,0.289,20.0
63.386,8.014,-0.074,6.0
40.772,5.157,-0.281,16.0
63.584,8.051,1.319,16.0
63.521,8.045,0.953,18.0
63.478,8.041,0.589,18.0
63.441,8.038,0.219,21.0
60.05,7.611,-0.136,10.0
39.965,5.067,-0.319,16.0
63.452,8.053,1.245,15.0
63.402,8.047,0.881,17.0
63.377,8.046,0.517,18.0
63.343,8.043,0.148,17.0
45.532,5.783,-0.154,14.0
39.222,4.983,-0.357,23.0
63.378,8.059,1.173,16.0
63.332,8.053,0.809,16.0
63.28,8.048,0.446,17.0
63.256,8.046,0.077,15.0
0.0,0.0,0.0,0.0
38.863,4.946,-0.398,14.0
63.285,8.059,1.1,15.0
63.269,8.057,0.736,16.0
63.233,8.054,0.374,18.0
63.151,8.044,0.006,7.0
41.756,5.32,-0.235,17.0
38.523,4.909,-0.438,11.0
63.234,8.062,1.028,17.0
63.192,8.057,0.665,16.0
63.143,8.051,0.302,20.0
60.78,7.75,-0.063,8.0
40.84,5.208,-0.277,16.0
38.397,4.898,-0.48,8.0
63.196,8.064,0.955,16.0
63.178,8.061,0.593,17.0
63.142,8.056,0.23,21.0
60.528,7.723,-0.132,15.0
40.028,5.108,-0.316,16.0
38.408,4.902,-0.524,3.0
63.188,8.066,0.884,15.0
63.141,8.059,0.521,17.0
63.121,8.057,0.158,19.0
45.601,5.82,-0.151,10.0
39.306,5.017,-0.356,22.0
30.028,3.833,-0.444,13.0
63.164,8.063,0.81,15.0
63.153,8.061,0.448,19.0
63.115,8.056,0.086,15.0
0.0,0.0,0.0,0.0
38.866,4.961,-0.396,14.0
29.647,3.784,-0.472,8.0
63.188,8.064,0.739,15.0
63.161,8.059,0.377,19.0
63.127,8.054,0.014,7.0
41.67,5.316,-0.233,17.0
38.501,4.912,-0.436,10.0
29.081,3.71,-0.496,2.0
63.201,8.06,0.668,16.0
63.184,8.057,0.305,22.0
60.819,7.754,-0.053,9.0
40.805,5.201,-0.274,16.0
38.41,4.896,-0.478,7.0
29.073,3.706,-0.529,2.0
63.249,8.058,0.596,17.0
63.225,8.053,0.234,20.0
0.0,0.0,0.0,0.0
39.959,5.088,-0.313,16.0
38.404,4.889,-0.522,3.0
29.081,3.702,-0.562,3.0
63.295,8.053,0.526,17.0
63.296,8.051,0.163,18.0
45.505,5.786,-0.143,17.0
39.204,4.984,-0.352,19.0
30.133,3.83,-0.443,8.0
29.069,3.695,-0.594,4.0
63.384,8.05,0.454,19.0
63.379,8.046,0.092,15.0
45.455,5.769,-0.194,11.0
38.829,4.927,-0.392,14.0
29.606,3.756,-0.469,6.0
28.999,3.678,-0.625,3.0
63.489,8.046,0.384,18.0
63.462,8.039,0.02,16.0
41.993,5.318,-0.226,18.0
38.527,4.878,-0.432,13.0
29.217,3.698,-0.495,2.0
27.306,3.456,-0.619,0.0
63.61,8.041,0.314,19.0
63.436,8.016,-0.048,6.0
40.857,5.161,-0.266,16.0
38.403,4.849,-0.474,9.0
29.279,3.696,-0.528,2.0
26.784,3.38,-0.637,1.0
63.741,8.034,0.245,19.0
45.702,5.758,-0.086,4.0
39.983,5.035,-0.304,15.0
38.419,4.836,-0.516,3.0
29.311,3.689,-0.562,4.0
26.124,3.287,-0.65,1.0
63.849,8.022,0.175,10.0
45.638,5.731,-0.135,16.0
39.435,4.95,-0.343,19.0
30.334,3.806,-0.44,8.0
29.288,3.673,-0.593,5.0
25.47,3.193,-0.661,0.0
64.013,8.013,0.106,8.0
0.0,0.0,0.0,0.0
38.994,4.876,-0.381,14.0
29.687,3.711,-0.463,3.0
29.255,3.655,-0.623,6.0
24.855,3.104,-0.672,0.0
64.166,8.001,0.038,8.0
41.958,5.229,-0.214,17.0
38.649,4.814,-0.418,14.0
29.555,3.679,-0.492,2.0
27.525,3.425,-0.616,0.0
24.162,3.005,-0.679,0.0
64.365,7.991,-0.029,6.0
41.009,5.088,-0.253,17.0
38.471,4.77,-0.457,8.0
29.636,3.672,-0.525,2.0
26.92,3.334,-0.631,0.0
23.526,2.913,-0.686,0.0
45.76,5.654,-0.068,4.0
40.244,4.969,-0.29,16.0
38.482,4.748,-0.498,8.0
29.725,3.666,-0.557,2.0
26.386,3.252,-0.646,1.0
23.12,2.848,-0.698,0.0
45.771,5.626,-0.115,14.0
39.591,4.863,-0.326,21.0
38.484,4.724,-0.537,4.0
29.743,3.649,-0.588,5.0
25.78,3.161,-0.657,0.0
22.632,2.773,-0.706,0.0
45.549,5.569,-0.161,14.0
39.209,4.79,-0.362,20.0
30.018,3.664,-0.449,1.0
29.7,3.623,-0.617,2.0
25.19,3.071,-0.667,0.0
22.09,2.692,-0.711,0.0
42.455,5.16,-0.192,17.0
38.856,4.719,-0.398,14.0
30.146,3.658,-0.481,4.0
29.809,3.614,-0.649,0.0
24.568,2.977,-0.675,0.0
21.579,2.613,-0.716,0.0
41.215,4.978,-0.228,17.0
38.576,4.655,-0.433,9.0
30.034,3.621,-0.509,0.0
27.087,3.263,-0.616,0.0
24.049,2.895,-0.684,0.0
21.109,2.54,-0.721,0.0
40.403,4.847,-0.262,16.0
38.558,4.622,-0.47,7.0
30.224,3.619,-0.541,4.0
26.765,3.203,-0.634,0.0
23.397,2.797,-0.688,0.0
20.712,2.475,-0.728,0.0
39.826,4.744,-0.296,33.0
38.572,4.59,-0.507,8.0
30.223,3.593,-0.57,3.0
26.14,3.105,-0.644,0.0
23.006,2.731,-0.698,0.0
20.282,2.406,-0.731,0.0
39.519,4.673,-0.331,31.0
38.611,4.561,-0.543,6.0
30.145,3.557,-0.596,1.0
25.751,3.036,-0.658,0.0
22.535,2.655,-0.704,0.0
19.91,2.343,-0.736,0.0
39.252,4.605,-0.364,20.0
38.642,4.528,-0.578,1.0
28.946,3.389,-0.598,0.0
25.089,2.935,-0.664,0.0
21.941,2.564,-0.705,0.0
19.614,2.29,-0.742,0.0
38.954,4.532,-0.395,15.0
0.0,0.0,0.0,0.0
28.376,3.294,-0.611,0.0
24.689,2.863,-0.675,0.0
21.517,2.493,-0.711,0.0
19.338,2.238,-0.749,0.0
38.71,4.465,-0.426,9.0
32.401,3.733,-0.541,0.0
27.533,3.168,-0.617,0.0
24.001,2.759,-0.676,0.0
21.322,2.448,-0.722,0.0
19.074,2.188,-0.755,0.0
38.714,4.425,-0.459,8.0
31.391,3.584,-0.55,0.0
27.033,3.082,-0.628,0.0
23.652,2.694,-0.686,0.0
20.813,2.368,-0.722,0.0
18.713,2.127,-0.756,0.0
38.734,4.386,-0.49,8.0
31.031,3.509,-0.569,1.0
26.594,3.004,-0.639,0.0
23.131,2.609,-0.689,0.0
20.46,2.305,-0.726,0.0
18.387,2.069,-0.757,0.0
38.759,4.345,-0.522,10.0
30.546,3.42,-0.584,1.0
26.046,2.912,-0.646,0.0
22.775,2.543,-0.697,0.0
20.219,2.255,-0.733,0.0
18.125,2.019,-0.76,0.0
38.806,4.305,-0.552,2.0
29.603,3.28,-0.589,1.0
25.5,2.821,-0.652,0.0
22.502,2.486,-0.705,0.0
19.83,2.188,-0.734,0.0
17.952,1.979,-0.767,0.0
38.846,4.263,-0.581,0.0
29.174,3.197,-0.602,0.0
25.184,2.756,-0.662,0.0
22.179,2.424,-0.711,0.0
19.72,2.153,-0.744,0.0
17.797,1.94,-0.773,0.0
33.385,3.623,-0.523,0.0
28.453,3.083,-0.607,0.0
24.743,2.677,-0.668,0.0
21.722,2.347,-0.712,0.0
19.536,2.108,-0.751,0.0
17.599,1.896,-0.776,0.0
32.47,3.483,-0.531,1.0
27.938,2.992,-0.615,0.0
24.319,2.601,-0.673,0.0
21.48,2.293,-0.718,0.0
19.14,2.041,-0.748,0.0
17.396,1.852,-0.779,0.0
32.517,3.446,-0.553,1.0
27.42,2.901,-0.621,0.0
23.926,2.527,-0.677,0.0
21.135,2.229,-0.72,0.0
18.932,1.993,-0.752,0.0
17.187,1.807,-0.78,0.0
31.267,3.272,-0.551,0.0
27.077,2.828,-0.63,0.0
23.48,2.448,-0.679,0.0
20.729,2.158,-0.719,0.0
18.745,1.948,-0.756,0.0
17.026,1.767,-0.783,0.0
30.849,3.186,-0.562,0.0
26.623,2.744,-0.635,1.0
23.192,2.387,-0.684,0.0
20.463,2.102,-0.721,0.0
18.47,1.894,-0.756,0.0
16.926,1.733,-0.788,0.0
30.702,3.128,-0.576,1.0
26.313,2.676,-0.642,0.0
23.035,2.338,-0.692,0.0
20.395,2.066,-0.73,0.0
18.309,1.852,-0.759,0.0
16.758,1.692,-0.789,0.0
30.256,3.039,-0.584,0.0
25.963,2.603,-0.647,0.0
22.873,2.289,-0.699,0.0
20.173,2.015,-0.733,0.0
18.065,1.801,-0.758,0.0
16.61,1.653,-0.791,0.0
29.7,2.94,-0.588,0.0
25.709,2.54,-0.654,0.0
22.447,2.213,-0.697,0.0
20.063,1.974,-0.738,0.0
18.024,1.77,-0.765,0.0
16.448,1.613,-0.791,0.0
29.289,2.856,-0.593,0.0
25.55,2.486,-0.661,0.0
22.22,2.158,-0.7,0.0
19.819,1.921,-0.738,0.0
17.966,1.738,-0.77,0.0
16.341,1.577,-0.793,0.0
28.954,2.779,-0.599,0.0
25.18,2.412,-0.662,0.0
22.034,2.106,-0.704,0.0
19.657,1.875,-0.74,0.0
17.775,1.692,-0.769,0.0
16.197,1.539,-0.792,0.0
28.584,2.7,-0.603,0.0
25.035,2.36,-0.668,0.0
21.925,2.062,-0.708,0.0
19.56,1.835,-0.744,0.0
17.721,1.659,-0.774,0.0
16.157,1.51,-0.796,0.0
28.486,2.646,-0.611,0.0
24.713,2.29,-0.668,0.0
21.68,2.005,-0.708,0.0
19.48,1.797,-0.748,0.0
17.619,1.622,-0.775,0.0
16.106,1.479,-0.799,0.0
27.998,2.557,-0.609,0.0
24.543,2.236,-0.672,0.0
21.558,1.959,-0.711,0.0
19.276,1.748,-0.746,0.0
17.55,1.587,-0.777,0.0
16.038,1.447,-0.8,0.0
28.02,2.513,-0.618,0.0
24.394,2.182,-0.675,0.0
21.43,1.912,-0.713,0.0
19.347,1.722,-0.754,0.0
17.429,1.548,-0.777,0.0
15.968,1.415,-0.801,0.0
27.617,2.431,-0.616,0.0
24.174,2.123,-0.674,0.0
21.695,1.9,-0.727,0.0
19.116,1.67,-0.749,0.0
17.368,1.513,-0.778,0.0
16.041,1.394,-0.808,0.0
27.664,2.39,-0.623,0.0
24.057,2.073,-0.676,0.0
21.411,1.84,-0.721,0.0
19.008,1.629,-0.748,0.0
17.299,1.479,-0.778,0.0
15.868,1.353,-0.802,0.0
27.373,2.318,-0.622,0.0
24.112,2.036,-0.682,0.0
21.308,1.795,-0.722,0.0
19.005,1.596,-0.751,0.0
17.24,1.444,-0.778,0.0
15.863,1.325,-0.804,0.0
27.32,2.267,-0.624,0.0
23.875,1.976,-0.678,0.0
21.002,1.733,-0.714,0.0
18.88,1.553,-0.749,0.0
17.172,1.409,-0.777,0.0
15.851,1.297,-0.806,0.0
27.144,2.206,-0.623,0.0
23.807,1.929,-0.679,0.0
21.062,1.701,-0.718,0.0
18.792,1.513,-0.747,0.0
17.175,1.379,-0.778,0.0
15.855,1.269,-0.807,0.0
27.209,2.164,-0.626,0.0
23.804,1.887,-0.68,0.0
21.164,1.672,-0.722,0.0
18.813,1.482,-0.748,0.0
17.185,1.35,-0.779,0.0
15.801,1.237,-0.805,0.0
27.266,2.12,-0.628,0.0
23.696,1.837,-0.677,0.0
21.154,1.634,-0.722,0.0
18.897,1.455,-0.752,0.0
17.241,1.324,-0.782,0.0
15.823,1.211,-0.806,0.0
27.202,2.067,-0.626,0.0
23.717,1.797,-0.678,0.0
21.229,1.603,-0.724,0.0
18.826,1.417,-0.748,0.0
17.247,1.293,-0.781,0.0
15.924,1.191,-0.81,0.0
27.097,2.011,-0.622,0.0
23.694,1.752,-0.675,0.0
21.402,1.578,-0.729,0.0
18.961,1.393,-0.752,0.0
17.23,1.262,-0.779,0.0
15.886,1.159,-0.807,0.0
27.302,1.978,-0.625,0.0
23.99,1.732,-0.682,0.0
21.243,1.528,-0.721,0.0
18.803,1.348,-0.744,0.0
17.343,1.239,-0.782,0.0
15.833,1.127,-0.802,0.0
27.472,1.941,-0.625,0.0
23.922,1.684,-0.676,0.0
21.167,1.484,-0.715,0.0
19.0,1.327,-0.749,0.0
17.318,1.205,-0.778,0.0
15.899,1.103,-0.803,0.0
27.51,1.894,-0.621,0.0
24.162,1.656,-0.679,0.0
21.404,1.462,-0.719,0.0
19.085,1.298,-0.749,0.0
17.456,1.183,-0.781,0.0
15.98,1.079,-0.803,0.0
27.803,1.862,-0.622,0.0
24.11,1.608,-0.672,0.0
21.363,1.419,-0.713,0.0
19.186,1.27,-0.748,0.0
17.474,1.152,-0.778,0.0
15.951,1.047,-0.798,0.0
28.018,1.825,-0.62,0.0
24.515,1.59,-0.677,0.0
21.596,1.395,-0.715,0.0
19.525,1.256,-0.756,0.0
17.613,1.128,-0.779,0.0
15.995,1.021,-0.796,0.0
28.25,1.788,-0.617,0.0
24.65,1.553,-0.673,0.0
21.777,1.366,-0.714,0.0
19.46,1.216,-0.747,0.0
17.623,1.096,-0.774,0.0
16.115,0.998,-0.796,0.0
28.418,1.746,-0.611,0.0
25.031,1.531,-0.675,0.0
21.937,1.336,-0.712,0.0
19.629,1.19,-0.747,0.0
17.774,1.073,-0.774,0.0
16.308,0.98,-0.8,0.0
28.9,1.722,-0.611,0.0
25.054,1.486,-0.667,0.0
21.97,1.296,-0.705,0.0
19.82,1.164,-0.746,0.0
17.967,1.05,-0.775,0.0
16.359,0.952,-0.796,0.0
29.141,1.681,-0.604,0.0
25.345,1.455,-0.664,0.0
22.327,1.276,-0.707,0.0
19.768,1.124,-0.736,0.0
18.059,1.022,-0.771,0.0
16.533,0.931,-0.796,0.0
29.443,1.644,-0.597,0.0
25.452,1.413,-0.655,0.0
22.637,1.251,-0.706,0.0
