X,Y,Z,Reflectivity
71.288,2.348,0.139,6.0
72.411,2.417,2.155,32.0
72.394,2.439,1.762,35.0
72.366,2.46,1.368,37.0
72.339,2.482,0.968,39.0
72.334,2.505,0.576,25.0
71.502,2.499,0.182,8.0
72.422,2.562,2.197,29.0
72.419,2.584,1.804,28.0
72.411,2.607,1.41,23.0
72.428,2.63,1.01,25.0
72.397,2.651,0.616,18.0
71.57,2.644,0.22,9.0
210.821,7.884,6.513,6.0
120.068,4.527,3.055,13.0
120.093,4.564,2.402,8.0
120.066,4.601,1.737,20.0
119.971,4.635,1.083,18.0
65.98,2.569,0.236,13.0
210.041,8.277,6.594,10.0
120.093,4.77,3.116,12.0
193.643,7.752,3.97,21.0
63.439,2.558,0.948,7.0
61.406,2.495,0.583,8.0
66.026,2.704,0.268,16.0
66.067,2.736,2.104,28.0
64.411,2.687,1.7,8.0
62.893,2.642,1.317,6.0
66.084,2.797,1.016,5.0
66.057,2.816,0.656,30.0
66.027,2.835,0.296,19.0
66.051,2.868,2.132,24.0
62.57,2.735,1.678,7.0
66.076,2.909,1.411,18.0
49.992,2.216,0.789,4.0
66.072,2.949,0.682,23.0
66.071,2.97,0.321,14.0
62.077,2.821,2.028,2.0
61.052,2.792,1.66,5.0
50.683,2.332,1.101,3.0
49.332,2.285,0.797,7.0
120.013,5.598,1.283,16.0
120.056,5.635,0.626,8.0
60.927,2.889,2.011,2.0
0.0,0.0,0.0,0.0
50.27,2.413,1.108,13.0
48.883,2.361,0.805,9.0
120.014,5.835,1.32,16.0
120.023,5.871,0.663,9.0
125.103,6.182,4.168,2.0
124.996,6.213,3.479,3.0
49.826,2.491,1.113,4.0
48.581,2.444,0.814,16.0
48.377,2.448,0.545,9.0
59.448,3.027,0.344,23.0
59.411,3.054,1.995,29.0
59.411,3.072,1.669,17.0
48.975,2.547,1.107,11.0
48.343,2.527,0.822,17.0
48.172,2.533,0.554,17.0
59.324,3.137,0.357,25.0
59.42,3.173,2.009,25.0
50.59,2.716,1.432,16.0
48.502,2.618,1.106,10.0
48.121,2.612,0.828,21.0
48.001,2.619,0.562,26.0
59.332,3.256,0.369,20.0
119.684,6.631,4.07,30.0
49.396,2.75,1.408,5.0
48.148,2.695,1.107,14.0
47.941,2.697,0.833,31.0
47.818,2.704,0.568,36.0
59.367,3.375,0.378,6.0
118.988,6.828,4.065,13.0
49.001,2.825,1.403,14.0
47.927,2.777,1.108,21.0
47.765,2.782,0.836,37.0
47.693,2.792,0.572,7.0
114.208,6.719,0.741,6.0
50.683,3.008,1.737,6.0
48.173,2.872,1.385,6.0
47.728,2.859,1.108,31.0
47.598,2.865,0.838,53.0
111.119,6.721,1.343,30.0
111.117,6.751,0.729,59.0
49.579,3.038,1.703,13.0
47.772,2.94,1.376,11.0
47.542,2.94,1.107,28.0
111.223,6.908,1.964,11.0
110.992,6.926,1.347,9.0
110.612,6.933,0.73,7.0
48.919,3.092,1.682,16.0
47.508,3.015,1.37,20.0
47.451,3.025,1.106,16.0
109.462,7.01,1.934,6.0
52.365,3.368,0.635,21.0
52.294,3.378,0.345,29.0
48.095,3.133,1.653,5.0
47.355,3.098,1.365,63.0
52.248,3.432,1.217,39.0
52.227,3.445,0.921,42.0
52.236,3.459,0.632,41.0
52.205,3.472,0.343,26.0
47.311,3.172,1.624,16.0
52.205,3.514,1.502,39.0
52.191,3.526,1.212,40.0
52.184,3.54,0.917,38.0
52.19,3.555,0.628,37.0
52.187,3.569,0.339,21.0
52.249,3.601,1.79,13.0
52.217,3.613,1.498,25.0
52.211,3.627,1.208,28.0
52.202,3.64,0.912,26.0
52.218,3.655,0.623,27.0
52.201,3.668,0.333,20.0
52.33,3.706,1.786,2.0
102.086,7.255,2.917,31.0
102.087,7.283,2.349,58.0
102.06,7.307,1.77,48.0
52.331,3.76,0.617,17.0
52.26,3.769,0.325,15.0
102.109,7.422,3.47,18.0
102.142,7.449,2.902,11.0
101.963,7.463,2.329,6.0
101.64,7.466,1.746,5.0
101.311,7.467,1.176,4.0
101.123,7.48,0.611,4.0
101.994,7.601,3.447,34.0
100.894,7.545,2.847,5.0
100.681,7.553,2.279,8.0
100.447,7.562,1.704,8.0
100.302,7.578,1.143,9.0
100.099,7.588,0.582,7.0
101.82,7.774,3.418,18.0
99.735,7.64,2.791,6.0
99.644,7.659,2.232,11.0
99.42,7.666,1.661,8.0
99.215,7.676,1.104,9.0
98.896,7.676,0.55,11.0
100.692,7.872,3.353,16.0
98.731,7.743,2.736,10.0
98.552,7.752,2.18,11.0
98.361,7.761,1.617,7.0
45.907,3.633,0.497,35.0
45.846,3.64,0.241,37.0
45.864,3.667,1.513,35.0
45.853,3.677,1.256,38.0
45.853,3.688,1.0,39.0
45.82,3.696,0.738,43.0
45.802,3.706,0.482,44.0
45.772,3.715,0.225,31.0
45.805,3.742,1.496,45.0
45.8,3.753,1.239,39.0
45.78,3.762,0.982,46.0
45.779,3.773,0.721,41.0
45.775,3.784,0.465,38.0
45.728,3.791,0.208,23.0
45.805,3.822,1.479,41.0
45.778,3.831,1.221,35.0
45.775,3.841,0.964,36.0
45.76,3.85,0.703,37.0
45.757,3.86,0.447,30.0
45.714,3.867,0.19,15.0
45.845,3.904,1.462,17.0
45.829,3.913,1.204,21.0
45.809,3.921,0.946,23.0
45.799,3.931,0.685,21.0
45.816,3.943,0.428,20.0
45.768,3.95,0.171,15.0
93.131,8.088,2.929,50.0
93.137,8.108,2.407,76.0
93.137,8.129,1.883,72.0
93.139,8.151,1.35,51.0
93.254,8.182,0.829,17.0
93.167,8.195,0.305,5.0
93.165,8.246,2.886,13.0
93.117,8.262,2.361,7.0
92.932,8.265,1.834,5.0
92.691,8.264,1.298,8.0
92.571,8.274,0.777,11.0
45.694,4.095,0.126,14.0
92.326,8.324,2.814,4.0
92.245,8.335,2.292,4.0
92.04,8.335,1.769,5.0
91.88,8.341,1.239,10.0
91.796,8.354,0.721,10.0
91.606,8.357,0.205,9.0
91.491,8.395,2.739,13.0
91.436,8.408,2.222,10.0
91.214,8.407,1.703,10.0
91.091,8.415,1.179,11.0
90.941,8.42,0.664,10.0
90.697,8.417,0.152,2.0
90.685,8.464,2.664,13.0
90.624,8.476,2.15,11.0
90.483,8.481,1.637,10.0
90.322,8.484,1.117,11.0
90.175,8.488,0.606,10.0
88.551,8.355,0.096,12.0
89.945,8.533,2.589,13.0
89.891,8.545,2.079,12.0
89.716,8.547,1.569,10.0
89.577,8.551,1.052,11.0
89.448,8.558,0.545,11.0
73.322,7.03,0.034,7.0
89.276,8.606,2.513,13.0
89.135,8.61,2.005,12.0
89.014,8.616,1.499,12.0
88.848,8.616,0.986,14.0
88.754,8.625,0.483,13.0
73.155,7.124,-0.013,2.0
88.592,8.672,2.434,9.0
88.406,8.672,1.928,6.0
88.283,8.676,1.427,12.0
88.14,8.678,0.918,11.0
88.093,8.691,0.419,11.0
45.778,4.525,-0.04,1.0
87.909,8.735,2.355,11.0
87.709,8.73,1.853,9.0
87.659,8.741,1.356,11.0
87.551,8.746,0.851,11.0
87.399,8.748,0.355,11.0
45.825,4.596,-0.073,7.0
87.219,8.79,2.274,11.0
87.11,8.795,1.777,9.0
86.968,8.795,1.282,11.0
86.861,8.801,0.779,9.0
86.687,8.799,0.287,10.0
45.694,4.647,-0.107,8.0
86.57,8.845,2.191,11.0
86.484,8.851,1.699,11.0
86.333,8.851,1.207,10.0
86.228,8.854,0.708,12.0
80.741,8.306,0.206,9.0
45.578,4.697,-0.141,7.0
85.96,8.899,2.11,12.0
85.873,8.905,1.62,10.0
85.729,8.905,1.131,11.0
85.671,8.913,0.637,10.0
85.512,8.911,0.15,11.0
45.544,4.754,-0.177,4.0
85.391,8.954,2.027,11.0
84.326,8.854,1.524,13.0
84.192,8.854,1.044,41.0
84.168,8.866,0.557,68.0
84.136,8.877,0.079,20.0
45.592,4.818,-0.215,3.0
84.161,8.932,1.929,60.0
84.167,8.946,1.451,66.0
84.181,8.961,0.973,53.0
84.216,8.978,0.487,32.0
75.92,8.106,0.008,4.0
42.08,4.5,-0.234,18.0
84.271,9.049,1.86,18.0
84.206,9.055,1.379,12.0
84.108,9.058,0.9,8.0
84.063,9.066,0.414,7.0
70.285,7.591,-0.053,4.0
40.666,4.399,-0.261,16.0
83.811,9.102,1.776,7.0
83.682,9.099,1.297,10.0
83.631,9.106,0.822,7.0
83.495,9.104,0.337,4.0
70.164,7.661,-0.115,3.0
40.211,4.397,-0.294,16.0
83.285,9.142,1.69,11.0
83.191,9.143,1.214,11.0
83.099,9.145,0.741,7.0
81.264,8.955,0.254,10.0
65.765,7.257,-0.167,9.0
39.785,4.396,-0.328,29.0
82.839,9.187,1.605,11.0
82.726,9.184,1.132,11.0
82.68,9.191,0.661,10.0
81.224,9.04,0.18,11.0
45.595,5.081,-0.158,6.0
39.479,4.405,-0.362,22.0
82.393,9.227,1.52,13.0
82.324,9.23,1.05,11.0
82.204,9.226,0.58,10.0
67.171,7.548,0.084,5.0
43.149,4.855,-0.191,7.0
39.08,4.403,-0.396,14.0
81.967,9.265,1.434,11.0
81.869,9.263,0.965,10.0
81.82,9.268,0.498,8.0
67.127,7.613,0.02,6.0
0.0,0.0,0.0,0.0
38.825,4.414,-0.431,10.0
81.555,9.301,1.347,10.0
81.505,9.305,0.881,10.0
81.395,9.302,0.415,10.0
67.182,7.686,-0.046,5.0
40.501,4.639,-0.259,15.0
38.687,4.436,-0.468,8.0
67.795,7.797,1.052,8.0
67.763,7.801,0.664,10.0
67.666,7.798,0.277,17.0
66.374,7.657,-0.113,8.0
40.126,4.634,-0.297,22.0
38.67,4.471,-0.507,8.0
66.368,7.695,0.962,29.0
66.347,7.699,0.582,42.0
66.353,7.707,0.204,58.0
66.339,7.714,-0.18,23.0
39.558,4.604,-0.333,41.0
38.648,4.503,-0.546,8.0
66.323,7.749,0.892,82.0
66.331,7.757,0.514,74.0
66.335,7.764,0.135,59.0
45.464,5.326,-0.171,16.0
39.335,4.612,-0.372,27.0
38.621,4.533,-0.587,2.0
66.357,7.809,0.823,36.0
66.379,7.818,0.444,30.0
66.485,7.837,0.066,15.0
42.621,5.028,-0.205,17.0
38.956,4.6,-0.41,14.0
34.451,4.072,-0.559,0.0
66.5,7.879,0.754,14.0
66.451,7.879,0.374,12.0
66.353,7.873,-0.004,8.0
40.892,4.856,-0.241,16.0
38.599,4.588,-0.448,7.0
0.0,0.0,0.0,0.0
66.186,7.891,0.68,15.0
66.123,7.889,0.301,14.0
66.107,7.894,-0.076,5.0
40.385,4.826,-0.281,16.0
38.559,4.611,-0.489,6.0
30.124,3.606,-0.554,6.0
65.92,7.907,0.606,15.0
65.851,7.904,0.228,11.0
65.761,7.898,-0.147,3.0
39.48,4.745,-0.318,22.0
38.549,4.637,-0.531,9.0
29.984,3.61,-0.585,18.0
65.677,7.922,0.531,18.0
65.596,7.917,0.156,9.0
45.567,5.503,-0.152,8.0
39.3,4.749,-0.36,19.0
38.537,4.661,-0.574,3.0
29.894,3.618,-0.616,8.0
65.428,7.932,0.457,19.0
65.359,7.929,0.082,10.0
45.547,5.528,-0.202,4.0
38.899,4.724,-0.4,14.0
30.043,3.651,-0.481,2.0
29.613,3.602,-0.644,0.0
65.199,7.943,0.382,18.0
65.128,7.938,0.009,12.0
41.671,5.082,-0.232,17.0
38.548,4.704,-0.44,10.0
29.919,3.653,-0.512,2.0
27.373,3.344,-0.626,0.0
64.997,7.952,0.308,18.0
64.933,7.948,-0.064,8.0
40.57,4.968,-0.272,16.0
38.496,4.717,-0.482,8.0
29.847,3.659,-0.545,2.0
26.669,3.272,-0.64,1.0
64.804,7.96,0.233,14.0
45.786,5.626,-0.097,13.0
39.924,4.908,-0.313,16.0
38.491,4.735,-0.526,7.0
29.696,3.655,-0.576,2.0
26.052,3.208,-0.655,1.0
64.666,7.972,0.159,8.0
45.694,5.635,-0.149,20.0
39.246,4.842,-0.353,21.0
29.935,3.695,-0.443,2.0
29.376,3.628,-0.604,5.0
25.366,3.134,-0.667,0.0
64.471,7.973,0.084,13.0
45.329,5.608,-0.2,9.0
38.894,4.813,-0.394,14.0
29.666,3.673,-0.474,2.0
29.219,3.619,-0.634,2.0
24.699,3.061,-0.677,0.0
64.374,7.984,0.01,7.0
41.625,5.164,-0.231,17.0
38.537,4.782,-0.434,10.0
29.583,3.672,-0.506,2.0
27.329,3.394,-0.625,0.0
23.942,2.975,-0.685,0.0
64.221,7.985,-0.064,5.0
40.662,5.057,-0.273,16.0
38.479,4.786,-0.479,9.0
29.433,3.662,-0.538,4.0
26.649,3.317,-0.64,1.0
23.35,2.908,-0.695,0.0
45.652,5.687,-0.097,5.0
39.778,4.957,-0.313,22.0
38.472,4.795,-0.524,5.0
29.311,3.654,-0.57,12.0
25.983,3.24,-0.654,1.0
22.815,2.846,-0.705,0.0
45.575,5.688,-0.15,20.0
39.267,4.901,-0.355,32.0
30.134,3.762,-0.445,6.0
29.288,3.657,-0.603,8.0
25.29,3.159,-0.666,0.0
22.063,2.757,-0.708,0.0
45.44,5.678,-0.203,6.0
38.845,4.854,-0.396,14.0
29.533,3.691,-0.471,2.0
29.126,3.641,-0.634,2.0
24.605,3.077,-0.677,0.0
21.61,2.703,-0.718,0.0
41.464,5.186,-0.234,17.0
38.49,4.814,-0.437,11.0
29.453,3.684,-0.503,2.0
27.192,3.402,-0.623,0.0
23.941,2.996,-0.686,0.0
21.098,2.641,-0.726,0.0
40.617,5.083,-0.275,17.0
38.446,4.811,-0.481,8.0
29.365,3.675,-0.536,4.0
26.471,3.313,-0.637,0.0
23.29,2.916,-0.694,0.0
20.521,2.57,-0.73,0.0
39.722,4.972,-0.315,21.0
38.448,4.812,-0.525,3.0
29.334,3.672,-0.569,6.0
25.827,3.233,-0.652,0.0
22.708,2.843,-0.703,0.0
20.137,2.521,-0.739,0.0
39.232,4.91,-0.357,15.0
30.094,3.766,-0.446,5.0
29.279,3.664,-0.602,6.0
25.115,3.143,-0.662,0.0
22.004,2.754,-0.707,0.0
19.709,2.467,-0.746,0.0
38.794,4.852,-0.397,14.0
29.509,3.69,-0.471,2.0
29.157,3.646,-0.633,1.0
24.511,3.065,-0.675,0.0
21.535,2.693,-0.716,0.0
19.191,2.4,-0.749,0.0
38.468,4.807,-0.438,9.0
29.491,3.685,-0.504,2.0
27.187,3.396,-0.621,0.0
23.836,2.978,-0.683,0.0
21.097,2.635,-0.726,0.0
18.77,2.345,-0.753,0.0
38.461,4.8,-0.48,8.0
29.386,3.666,-0.536,5.0
26.6,3.318,-0.637,1.0
23.21,2.895,-0.692,0.0
20.523,2.56,-0.729,0.0
18.448,2.301,-0.761,0.0
38.473,4.793,-0.524,4.0
29.319,3.652,-0.567,14.0
25.947,3.231,-0.65,0.0
22.68,2.824,-0.701,0.0
20.109,2.504,-0.737,0.0
18.115,2.255,-0.768,0.0
29.829,3.709,-0.439,2.0
29.301,3.642,-0.6,12.0
25.221,3.134,-0.66,0.0
22.049,2.74,-0.706,0.0
19.727,2.451,-0.745,0.0
17.769,2.207,-0.773,0.0
29.667,3.68,-0.469,2.0
29.249,3.627,-0.63,2.0
24.598,3.049,-0.671,0.0
21.572,2.673,-0.714,0.0
19.239,2.384,-0.747,0.0
17.345,2.149,-0.773,0.0
29.676,3.67,-0.502,2.0
27.298,3.375,-0.618,0.0
23.999,2.966,-0.68,0.0
21.028,2.598,-0.719,0.0
18.703,2.311,-0.747,0.0
17.054,2.106,-0.779,0.0
29.729,3.665,-0.535,1.0
26.738,3.295,-0.634,1.0
23.346,2.876,-0.687,0.0
20.629,2.541,-0.727,0.0
18.445,2.271,-0.756,0.0
16.854,2.075,-0.788,0.0
29.803,3.662,-0.567,4.0
26.02,3.195,-0.644,1.0
22.894,2.81,-0.697,0.0
20.207,2.48,-0.734,0.0
18.158,2.228,-0.763,0.0
16.565,2.032,-0.791,0.0
29.739,3.64,-0.597,4.0
25.416,3.109,-0.656,0.0
22.235,2.719,-0.701,0.0
19.769,2.416,-0.738,0.0
17.883,2.185,-0.77,0.0
16.298,1.991,-0.796,0.0
29.629,3.611,-0.625,1.0
24.772,3.017,-0.664,0.0
21.864,2.662,-0.712,0.0
19.362,2.356,-0.743,0.0
17.49,2.127,-0.771,0.0
16.133,1.962,-0.804,0.0
27.698,3.359,-0.613,0.0
24.254,2.94,-0.675,0.0
21.242,2.574,-0.713,0.0
19.035,2.305,-0.75,0.0
17.228,2.085,-0.777,0.0
15.805,1.912,-0.803,0.0
27.085,3.269,-0.626,0.0
23.668,2.854,-0.682,0.0
20.843,2.512,-0.72,0.0
18.638,2.245,-0.752,0.0
16.961,2.042,-0.782,0.0
15.544,1.871,-0.805,0.0
26.377,3.166,-0.635,0.0
23.149,2.777,-0.69,0.0
20.43,2.449,-0.726,0.0
18.299,2.192,-0.756,0.0
16.753,2.006,-0.788,0.0
15.291,1.83,-0.807,0.0
25.794,3.078,-0.646,0.0
22.687,2.705,-0.697,0.0
20.093,2.395,-0.732,0.0
18.049,2.15,-0.763,0.0
16.46,1.959,-0.79,0.0
15.13,1.8,-0.813,0.0
25.275,2.998,-0.656,0.0
22.1,2.619,-0.7,0.0
19.777,2.342,-0.739,0.0
17.789,2.105,-0.768,0.0
16.258,1.923,-0.795,0.0
14.943,1.766,-0.816,0.0
24.664,2.906,-0.663,0.0
21.695,2.554,-0.707,0.0
19.404,2.283,-0.743,0.0
17.451,2.052,-0.77,0.0
16.016,1.882,-0.798,0.0
14.748,1.732,-0.819,0.0
24.266,2.84,-0.674,0.0
21.385,2.5,-0.715,0.0
19.041,2.224,-0.746,0.0
17.217,2.01,-0.774,0.0
15.815,1.845,-0.802,0.0
14.53,1.694,-0.82,0.0
23.695,2.753,-0.678,0.0
20.909,2.427,-0.718,0.0
18.742,2.173,-0.75,0.0
16.961,1.965,-0.777,0.0
15.621,1.809,-0.805,0.0
14.379,1.663,-0.823,0.0
23.346,2.691,-0.688,0.0
20.573,2.369,-0.723,0.0
18.504,2.129,-0.756,0.0
16.802,1.931,-0.784,0.0
15.425,1.772,-0.808,0.0
14.229,1.633,-0.826,0.0
22.874,2.615,-0.692,0.0
20.271,2.315,-0.729,0.0
18.193,2.076,-0.758,0.0
16.543,1.886,-0.785,0.0
15.217,1.733,-0.809,0.0
14.086,1.603,-0.829,0.0
22.481,2.549,-0.698,0.0
20.023,2.268,-0.736,0.0
17.937,2.029,-0.761,0.0
16.428,1.857,-0.792,0.0
15.094,1.705,-0.814,0.0
13.976,1.577,-0.833,0.0
22.121,2.486,-0.704,0.0
19.718,2.213,-0.739,0.0
17.705,1.985,-0.765,0.0
16.257,1.821,-0.796,0.0
14.892,1.667,-0.814,0.0
13.879,1.552,-0.838,0.0
21.81,2.428,-0.71,0.0
19.415,2.159,-0.742,0.0
17.51,1.945,-0.769,0.0
16.055,1.781,-0.798,0.0
14.714,1.631,-0.815,0.0
13.759,1.524,-0.841,0.0
21.508,2.372,-0.715,0.0
19.196,2.114,-0.747,0.0
17.335,1.907,-0.773,0.0
15.826,1.739,-0.798,0.0
14.651,1.608,-0.822,0.0
13.649,1.496,-0.843,0.0
21.035,2.296,-0.714,0.0
18.951,2.066,-0.75,0.0
17.164,1.869,-0.777,0.0
15.767,1.714,-0.805,0.0
14.476,1.572,-0.821,0.0
13.509,1.465,-0.843,0.0
20.771,2.243,-0.718,0.0
18.633,2.01,-0.75,0.0
16.967,1.828,-0.779,0.0
15.512,1.669,-0.802,0.0
14.34,1.541,-0.823,0.0
13.323,1.43,-0.84,0.0
20.497,2.189,-0.721,0.0
18.444,1.967,-0.754,0.0
16.811,1.791,-0.782,0.0
15.37,1.635,-0.804,0.0
14.193,1.508,-0.823,0.0
13.256,1.406,-0.844,0.0
20.283,2.142,-0.726,0.0
18.281,1.927,-0.758,0.0
16.706,1.759,-0.787,0.0
15.295,1.608,-0.809,0.0
14.206,1.492,-0.832,0.0
13.223,1.387,-0.849,0.0
20.059,2.093,-0.729,0.0
18.131,1.889,-0.761,0.0
16.545,1.721,-0.788,0.0
15.247,1.584,-0.814,0.0
14.034,1.456,-0.829,0.0
13.126,1.36,-0.85,0.0
19.883,2.05,-0.733,0.0
17.854,1.837,-0.759,0.0
16.415,1.687,-0.79,0.0
15.073,1.546,-0.813,0.0
13.917,1.426,-0.829,0.0
13.022,1.332,-0.85,0.0
19.718,2.007,-0.736,0.0
17.749,1.803,-0.763,0.0
16.238,1.647,-0.79,0.0
14.981,1.517,-0.815,0.0
13.871,1.403,-0.833,0.0
12.956,1.308,-0.851,0.0
19.653,1.974,-0.742,0.0
17.663,1.771,-0.767,0.0
16.254,1.627,-0.798,0.0
14.872,1.486,-0.815,0.0
13.772,1.374,-0.833,0.0
12.876,1.282,-0.851,0.0
19.504,1.932,-0.745,0.0
17.561,1.737,-0.77,0.0
16.088,1.588,-0.796,0.0
14.834,1.462,-0.819,0.0
13.74,1.352,-0.836,0.0
12.754,1.253,-0.848,0.0
19.201,1.875,-0.741,0.0
17.426,1.699,-0.77,0.0
15.97,1.554,-0.796,0.0
14.762,1.434,-0.82,0.0
13.718,1.33,-0.84,0.0
12.843,1.243,-0.859,0.0
19.062,1.835,-0.742,0.0
17.349,1.667,-0.773,0.0
15.934,1.528,-0.799,0.0
14.615,1.399,-0.817,0.0
13.735,1.312,-0.845,0.0
12.635,1.205,-0.849,0.0
18.986,1.8,-0.745,0.0
17.302,1.637,-0.776,0.0
15.871,1.499,-0.801,0.0
14.561,1.372,-0.818,0.0
13.632,1.282,-0.843,0.0
12.592,1.182,-0.85,0.0
18.894,1.764,-0.746,0.0
17.234,1.605,-0.777,0.0
15.771,1.466,-0.8,0.0
14.529,1.348,-0.82,0.0
13.546,1.254,-0.841,0.0
12.56,1.16,-0.85,0.0
18.711,1.719,-0.744,0.0
17.214,1.578,-0.78,0.0
15.788,1.444,-0.804,0.0
14.46,1.32,-0.819,0.0
13.543,1.233,-0.843,0.0
12.443,1.131,-0.845,0.0
18.766,1.695,-0.749,0.0
17.089,1.54,-0.778,0.0
15.74,1.416,-0.805,0.0
14.478,1.299,-0.823,0.0
13.488,1.208,-0.842,0.0
12.488,1.116,-0.85,0.0
18.78,1.668,-0.753,0.0
17.085,1.514,-0.781,0.0
15.673,1.385,-0.804,0.0
14.411,1.271,-0.821,0.0
13.473,1.185,-0.843,0.0
12.442,1.092,-0.848,0.0
18.666,1.629,-0.751,0.0
17.065,1.485,-0.781,0.0
15.688,1.362,-0.806,0.0
14.437,1.25,-0.824,0.0
13.42,1.16,-0.841,0.0
12.434,1.072,-0.849,0.0
18.683,1.601,-0.753,0.0
17.035,1.456,-0.781,0.0
15.665,1.335,-0.806,0.0
14.433,1.227,-0.825,0.0
13.444,1.14,-0.843,0.0
12.44,1.053,-0.85,0.0
18.622,1.566,-0.751,0.0
17.033,1.428,-0.782,0.0
15.558,1.301,-0.801,0.0
14.402,1.201,-0.823,0.0
13.422,1.117,-0.842,0.0
12.443,1.033,-0.85,0.0
18.576,1.532,-0.749,0.0
16.985,1.397,-0.78,0.0
15.6,1.28,-0.803,0.0
14.43,1.18,-0.825,0.0
13.463,1.099,-0.844,0.0
12.435,1.012,-0.849,0.0
18.536,1.499,-0.747,0.0
17.058,1.375,-0.782,0.0
15.666,1.259,-0.805,0.0
14.41,1.155,-0.822,0.0
13.462,1.076,-0.843,0.0
12.468,0.994,-0.851,0.0
18.707,1.482,-0.752,0.0
17.06,1.347,-0.781,0.0
15.545,1.224,-0.798,0.0
14.431,1.133,-0.822,0.0
13.492,1.056,-0.844,0.0
12.378,0.966,-0.843,0.0
18.614,1.443,-0.746,0.0
17.088,1.321,-0.78,0.0
15.677,1.208,-0.802,0.0
14.436,1.109,-0.821,0.0
13.493,1.034,-0.842,0.0
12.587,0.962,-0.855,0.0
18.759,1.424,-0.749,0.0
17.116,1.295,-0.778,0.0
15.759,1.189,-0.804,0.0
14.512,1.091,-0.822,0.0
13.567,1.017,-0.844,0.0
12.557,0.938,-0.851,0.0
18.89,1.402,-0.751,0.0
17.258,1.277,-0.781,0.0
15.857,1.169,-0.806,0.0
14.513,1.067,-0.819,0.0
13.557,0.993,-0.84,0.0
12.669,0.925,-0.855,0.0
18.958,1.375,-0.749,0.0
17.174,1.242,-0.773,0.0
15.88,1.144,-0.803,0.0
14.548,1.045,-0.817,0.0
13.639,0.976,-0.842,0.0
12.769,0.911,-0.859,0.0
19.032,1.348,-0.746,0.0
17.375,1.226,-0.777,0.0
16.061,1.13,-0.807,0.0
14.627,1.025,-0.817,0.0
13.657,0.954,-0.838,0.0
12.692,0.884,-0.849,0.0
19.15,1.324,-0.745,0.0
17.457,1.203,-0.775,0.0
16.126,1.107,-0.805,0.0
14.733,1.008,-0.818,0.0
13.688,0.933,-0.836,0.0
12.817,0.87,-0.853,0.0
19.307,1.302,-0.744,0.0
17.585,1.181,-0.774,0.0
16.08,1.076,-0.796,0.0
14.813,0.987,-0.817,0.0
13.76,0.914,-0.835,0.0
12.956,0.857,-0.857,0.0
19.463,1.278,-0.742,0.0
17.677,1.157,-0.771,0.0
16.149,1.053,-0.793,0.0
14.92,0.969,-0.816,0.0
13.886,0.898,-0.836,0.0
13.042,0.841,-0.857,0.0
19.675,1.258,-0.741,1.0
17.815,1.135,-0.769,0.0
16.339,1.037,-0.795,0.0
15.051,0.951,-0.816,0.0
13.995,0.881,-0.836,0.0
13.013,0.816,-0.849,0.0
19.799,1.232,-0.736,0.0
18.008,1.116,-0.768,0.0
16.485,1.017,-0.794,0.0
15.155,0.931,-0.814,0.0
14.035,0.859,-0.831,0.0
13.16,0.802,-0.852,0.0
20.06,1.213,-0.736,0.0
18.085,1.089,-0.762,0.0
16.622,0.996,-0.791,0.0
15.207,0.908,-0.808,0.0
14.195,0.844,-0.833,0.0
13.235,0.783,-0.849,0.0
20.275,1.191,-0.732,0.0
18.29,1.069,-0.76,0.0
16.786,0.977,-0.789,0.0
15.291,0.886,-0.804,0.0
14.277,0.823,-0.829,0.0
13.296,0.763,-0.844,0.0
20.479,1.167,-0.727,0.0
18.543,1.051,-0.759,0.0
16.895,0.954,-0.783,0.0
15.57,0.875,-0.808,0.0
14.387,0.805,-0.826,0.0
13.47,0.75,-0.847,0.0
20.773,1.147,-0.723,0.0
18.529,1.018,-0.746,0.0
17.051,0.933,-0.779,0.0
15.647,0.852,-0.802,0.0
14.494,0.785,-0.822,0.0
13.626,0.735,-0.847,0.0
21.091,1.128,-0.72,0.0
19.038,1.013,-0.753,0.0
17.225,0.912,-0.775,0.0
15.82,0.833,-0.799,0.0
14.666,0.769,-0.821,0.0
13.709,0.715,-0.842,0.0
21.533,1.114,-0.719,0.0
19.348,0.996,-0.751,0.0
17.541,0.898,-0.776,0.0
16.062,0.818,-0.8,0.0
14.876,0.754,-0.821,0.0
13.771,0.694,-0.835,0.0
21.788,1.089,-0.71,0.0
19.582,0.974,-0.745,0.0
17.743,0.877,-0.771,0.0
16.094,0.792,-0.788,0.0
15.025,0.735,-0.817,0.0
13.968,0.679,-0.836,0.0
22.295,1.076,-0.709,0.0
20.004,0.96,-0.744,0.0
18.037,0.861,-0.769,0.0
16.495,0.783,-0.794,0.0
15.246,0.719,-0.816,0.0
14.161,0.665,-0.835,0.0
22.511,1.047,-0.697,0.0
20.23,0.936,-0.735,0.0
18.039,0.83,-0.753,0.0
16.688,0.763,-0.789,0.0
15.406,0.7,-0.811,0.0
14.351,0.648,-0.833,0.0
22.939,1.027,-0.689,0.0
20.536,0.914,-0.728,0.0
18.443,0.816,-0.753,0.0
16.963,0.746,-0.786,0.0
15.591,0.682,-0.807,0.0
14.389,0.625,-0.822,0.0
23.602,1.017,-0.687,0.0
21.046,0.901,-0.726,0.0
18.876,0.803,-0.753,0.0
17.258,0.73,-0.783,0.0
15.828,0.665,-0.804,0.0
14.647,0.612,-0.823,0.0
23.871,0.988,-0.672,0.0
21.337,0.877,-0.715,0.0
19.21,0.785,-0.747,0.0
17.499,0.71,-0.777,0.0
16.089,0.649,-0.801,0.0
14.907,0.597,-0.822,0.0
24.711,0.981,-0.671,0.0
21.948,0.865,-0.714,0.0
19.687,0.771,-0.746,0.0
17.828,0.693,-0.773,0.0
16.404,0.634,-0.8,0.0
15.054,0.578,-0.815,0.0
25.209,0.958,-0.658,0.0
22.526,0.85,-0.709,0.0
20.166,0.756,-0.743,0.0
18.433,0.686,-0.779,0.0
16.672,0.616,-0.795,0.0
15.291,0.561,-0.811,0.0
26.077,0.948,-0.652,0.0
22.818,0.823,-0.693,0.0
20.422,0.731,-0.729,0.0
18.413,0.654,-0.758,0.0
16.964,0.598,-0.789,0.0
15.569,0.545,-0.808,0.0
26.571,0.921,-0.635,0.0
23.663,0.814,-0.692,0.0
20.978,0.716,-0.726,0.0
18.804,0.637,-0.753,0.0
17.283,0.581,-0.784,0.0
15.844,0.528,-0.804,0.0
28.604,0.944,-0.65,0.0
24.105,0.789,-0.676,0.0
21.446,0.696,-0.716,0.0
19.343,0.623,-0.751,0.0
17.709,0.566,-0.782,0.0
16.073,0.509,-0.796,0.0
28.624,0.898,-0.616,3.0
25.074,0.78,-0.673,0.0
22.203,0.685,-0.715,0.0
19.795,0.605,-0.745,0.0
18.087,0.548,-0.777,0.0
16.504,0.496,-0.797,0.0
29.513,0.878,-0.599,0.0
25.811,0.761,-0.661,0.0
22.615,0.661,-0.7,0.0
20.319,0.588,-0.739,0.0
18.448,0.529,-0.769,0.0
16.798,0.478,-0.79,0.0
30.963,0.871,-0.589,0.0
26.567,0.74,-0.646,0.0
23.54,0.65,-0.698,0.0
20.729,0.567,-0.727,0.0
18.886,0.511,-0.763,0.0
17.288,0.464,-0.79,0.0
0.0,0.0,0.0,0.0
27.358,0.719,-0.63,0.0
23.908,0.622,-0.677,0.0
21.475,0.553,-0.724,0.0
19.279,0.492,-0.753,0.0
17.569,0.443,-0.779,0.0
0.0,0.0,0.0,0.0
28.491,0.703,-0.617,0.0
24.984,0.611,-0.674,0.0
22.091,0.534,-0.715,0.0
19.925,0.477,-0.751,0.0
17.983,0.426,-0.773,0.0
35.444,0.83,-0.532,0.0
29.721,0.688,-0.603,0.0
25.99,0.595,-0.665,0.0
22.565,0.511,-0.699,0.0
20.396,0.457,-0.74,0.0
18.496,0.41,-0.769,0.0
0.0,0.0,0.0,0.0
30.822,0.666,-0.582,0.0
27.053,0.578,-0.654,0.0
23.545,0.497,-0.696,0.0
20.907,0.436,-0.729,0.0
18.983,0.391,-0.762,0.0
0.0,0.0,0.0,0.0
0.0,0.0,0.0,0.0
28.236,0.561,-0.642,0.0
24.168,0.474,-0.68,0.0
21.598,0.419,-0.721,0.0
19.398,0.371,-0.75,0.0
0.0,0.0,0.0,0.0
0.0,0.0,0.0,0.0
29.212,0.537,-0.621,0.0
24.864,0.451,-0.662,0.0
22.392,0.4,-0.714,0.0
20.072,0.354,-0.746,0.0
45.825,0.797,-0.422,0.0
35.783,0.614,-0.518,0.0
0.0,0.0,0.0,0.0
26.265,0.438,-0.659,0.0
23.322,0.383,-0.708,0.0
0.0,0.0,0.0,0.0
46.949,0.749,-0.361,1.0
0.0,0.0,0.0,0.0
31.507,0.487,-0.573,0.0
27.371,0.417,-0.644,0.0
24.005,0.36,-0.691,0.0
21.336,0.315,-0.727,0.0
0.0,0.0,0.0,0.0
41.106,0.587,-0.467,0.0
34.03,0.478,-0.565,0.0
28.536,0.394,-0.626,0.0
24.968,0.339,-0.679,0.0
22.254,0.297,-0.722,0.0
0.0,0.0,0.0,0.0
43.969,0.566,-0.429,1.0
0.0,0.0,0.0,0.0
30.33,0.376,-0.617,0.0
26.207,0.319,-0.67,0.0
22.796,0.272,-0.702,0.0
0.0,0.0,0.0,0.0
46.52,0.534,-0.378,0.0
0.0,0.0,0.0,0.0
31.589,0.348,-0.59,0.0
26.88,0.29,-0.643,0.0
23.988,0.254,-0.699,0.0
0.0,0.0,0.0,0.0
0.0,0.0,0.0,0.0
40.904,0.406,-0.478,0.0
33.14,0.321,-0.564,0.0
28.285,0.268,-0.629,0.0
24.746,0.229,-0.68,0.0
0.0,0.0,0.0,0.0
0.0,0.0,0.0,0.0
42.652,0.367,-0.426,0.0
0.0,0.0,0.0,0.0
29.835,0.243,-0.613,0.0
26.246,0.208,-0.677,0.0
85.352,0.662,0.181,6.0
0.0,0.0,0.0,0.0
46.162,0.338,-0.384,0.0
37.7,0.268,-0.514,0.0
31.125,0.215,-0.587,0.0
26.998,0.181,-0.65,0.0
91.934,0.597,0.352,1.0
0.0,0.0,0.0,0.0
47.766,0.29,-0.314,0.0
40.937,0.24,-0.487,0.0
33.913,0.192,-0.58,0.0
0.0,0.0,0.0,0.0
104.27,0.547,0.583,5.0
0.0,0.0,0.0,0.0
0.0,0.0,0.0,0.0
42.809,0.199,-0.434,1.0
35.652,0.158,-0.547,0.0
29.859,0.126,-0.613,0.0
110.823,0.448,0.815,7.0
0.0,0.0,0.0,0.0
0.0,0.0,0.0,0.0
46.222,0.16,-0.387,0.0
0.0,0.0,0.0,0.0
31.082,0.095,-0.583,0.0
111.179,0.319,1.015,17.0
94.409,0.253,0.371,2.0
0.0,0.0,0.0,0.0
49.853,0.114,-0.326,0.0
42.921,0.09,-0.505,0.0
33.559,0.064,-0.569,0.0
111.127,0.191,1.218,22.0
110.545,0.169,0.637,4.0
0.0,0.0,0.0,0.0
0.0,0.0,0.0,0.0
45.284,0.043,-0.449,2.0
35.553,0.027,-0.537,0.0
111.116,0.067,1.421,15.0
111.031,0.046,0.844,12.0
95.377,0.022,0.229,1.0
0.0,0.0,0.0,0.0
45.586,-0.005,-0.368,0.0
37.597,-0.011,-0.498,0.0
117.36,-0.055,1.718,14.0
117.37,-0.077,1.11,20.0
99.057,-0.082,0.422,2.0
0.0,0.0,0.0,0.0
0.0,0.0,0.0,0.0
0.0,0.0,0.0,0.0
112.749,-0.172,1.861,4.0
119.736,-0.203,1.355,14.0
110.97,-0.208,0.682,9.0
0.0,0.0,0.0,0.0
0.0,0.0,0.0,0.0
45.027,-0.107,-0.427,1.0
119.832,-0.305,2.205,26.0
119.776,-0.324,1.583,3.0
114.359,-0.329,0.92,9.0
0.0,0.0,0.0,0.0
0.0,0.0,0.0,0.0
48.157,-0.162,-0.365,0.0
119.834,-0.423,2.434,7.0
114.571,-0.423,1.733,2.0
119.699,-0.46,1.19,19.0
0.0,0.0,0.0,0.0
79.112,-0.329,-0.039,0.0
53.616,-0.231,-0.304,0.0
119.773,-0.537,2.662,11.0
119.779,-0.555,2.042,9.0
119.655,-0.572,1.419,8.0
114.185,-0.563,0.753,7.0
0.0,0.0,0.0,0.0
0.0,0.0,0.0,0.0
119.721,-0.647,2.895,6.0
193.967,-1.076,3.685,20.0
119.786,-0.682,1.655,19.0
119.657,-0.698,1.022,16.0
0.0,0.0,0.0,0.0
0.0,0.0,0.0,0.0
119.785,-0.753,3.128,47.0
119.799,-0.769,2.508,63.0
119.811,-0.786,1.89,41.0
119.687,-0.802,1.258,19.0
111.161,-0.76,0.594,5.0
0.0,0.0,0.0,0.0
119.727,-0.854,3.363,23.0
119.711,-0.87,2.744,35.0
119.737,-0.886,2.126,41.0
119.696,-0.901,1.495,21.0
119.693,-0.917,0.877,11.0
0.0,0.0,0.0,0.0
119.704,-0.951,3.598,2.0
119.736,-0.966,2.981,135.0
119.739,-0.981,2.361,93.0
119.752,-0.996,1.732,92.0
119.697,-1.01,1.113,19.0
0.0,0.0,0.0,0.0
214.756,-1.871,6.879,6.0
119.725,-1.058,3.218,117.0
119.729,-1.072,2.6,150.0
119.736,-1.086,1.97,150.0
119.752,-1.1,1.352,150.0
119.754,-1.114,0.735,46.0
190.585,-1.804,6.49,6.0
119.737,-1.146,3.457,48.0
119.72,-1.159,2.84,150.0
119.745,-1.173,2.211,151.0
119.76,-1.185,1.592,151.0
119.752,-1.198,0.976,150.0
190.541,-1.936,6.87,30.0
211.245,-2.168,6.523,9.0
209.213,-2.169,5.379,10.0
119.696,-1.253,2.449,7.0
119.751,-1.266,1.833,11.0
139.305,-1.487,1.414,9.0
190.501,-2.062,7.251,32.0
210.721,-2.302,6.934,13.0
209.169,-2.304,5.801,15.0
0.0,0.0,0.0,0.0
204.298,-2.291,3.541,11.0
0.0,0.0,0.0,0.0
189.823,-2.174,7.608,25.0
190.569,-2.2,6.653,18.0
209.808,-2.44,6.241,19.0
208.867,-2.448,5.116,8.0
0.0,0.0,0.0,0.0
139.2,-1.656,1.977,6.0
112.136,-1.35,4.721,15.0
190.495,-2.31,7.037,33.0
210.027,-2.563,6.672,9.0
0.0,0.0,0.0,0.0
210.414,-2.602,4.494,10.0
204.295,-2.543,3.312,8.0
84.976,-1.07,3.751,9.0
190.132,-2.409,7.409,42.0
210.584,-2.684,7.12,11.0
0.0,0.0,0.0,0.0
206.901,-2.666,4.84,7.0
0.0,0.0,0.0,0.0
81.335,-1.066,3.755,9.0
189.783,-2.5,7.78,30.0
190.587,-2.524,6.83,21.0
209.781,-2.792,6.417,6.0
113.261,-1.515,2.881,5.0
0.0,0.0,0.0,0.0
41.342,-0.369,4.473,40.0
41.294,-0.363,4.247,46.0
41.607,-0.359,4.056,40.0
41.548,-0.353,3.825,39.0
41.865,-0.349,3.631,35.0
41.721,-0.341,3.397,39.0
41.268,-0.339,4.527,38.0
41.296,-0.334,4.309,42.0
41.619,-0.33,4.12,35.0
41.638,-0.323,3.895,39.0
41.664,-0.316,3.676,39.0
42.086,-0.313,3.489,23.0
41.272,-0.309,4.589,24.0
41.225,-0.302,4.362,38.0
41.393,-0.297,4.158,45.0
41.784,-0.293,3.97,41.0
41.454,-0.284,3.716,42.0
41.618,-0.278,3.509,49.0
41.648,-0.28,4.691,39.0
41.242,-0.27,4.423,38.0
41.264,-0.264,4.204,42.0
41.833,-0.261,4.033,37.0
41.451,-0.251,3.775,41.0
41.459,-0.245,3.554,46.0
41.686,-0.247,4.754,42.0
41.308,-0.238,4.488,29.0
41.292,-0.231,4.264,35.0
41.537,-0.225,4.062,42.0
41.527,-0.218,3.839,43.0
41.448,-0.211,3.61,40.0
41.383,-0.212,4.776,30.0
41.266,-0.204,4.54,25.0
41.187,-0.196,4.31,46.0
41.168,-0.189,4.082,44.0
41.691,-0.185,3.91,44.0
41.346,-0.176,3.656,41.0
41.023,-0.175,4.79,42.0
41.236,-0.169,4.592,30.0
41.072,-0.161,4.351,47.0
41.192,-0.154,4.138,38.0
41.767,-0.149,3.971,38.0
41.46,-0.141,3.719,36.0
41.064,-0.139,4.848,40.0
41.383,-0.133,4.662,24.0
41.108,-0.125,4.409,36.0
41.217,-0.118,4.193,38.0
41.561,-0.111,4.005,39.0
41.905,-0.105,3.813,33.0
41.275,-0.103,4.926,41.0
41.578,-0.096,4.737,35.0
41.154,-0.088,4.465,25.0
41.358,-0.08,4.26,34.0
41.519,-0.074,4.052,48.0
41.781,-0.066,3.853,42.0
40.973,-0.064,4.941,25.0
41.253,-0.057,4.75,29.0
41.123,-0.05,4.512,26.0
41.52,-0.043,4.326,40.0
41.34,-0.035,4.084,45.0
42.153,-0.028,3.937,32.0
41.098,-0.026,5.005,38.0
41.218,-0.019,4.795,35.0
41.323,-0.011,4.583,29.0
41.6,-0.003,4.383,17.0
41.312,0.003,4.129,44.0
42.23,0.011,3.992,38.0
41.178,0.012,5.062,22.0
41.028,0.02,4.819,29.0
41.402,0.028,4.638,16.0
41.196,0.035,4.387,36.0
41.324,0.043,4.176,45.0
41.569,0.051,3.975,23.0
41.062,0.052,5.093,36.0
40.967,0.06,4.857,25.0
41.285,0.068,4.669,16.0
41.135,0.075,4.424,42.0
41.457,0.084,4.234,45.0
41.379,0.092,4.001,42.0
41.155,0.093,5.148,33.0
40.957,0.101,4.899,34.0
41.226,0.11,4.706,42.0
41.341,0.117,4.49,33.0
41.369,0.125,4.267,43.0
41.33,0.133,4.038,42.0
41.242,0.136,5.202,39.0
40.989,0.142,4.945,41.0
41.236,0.151,4.749,34.0
41.385,0.16,4.535,37.0
41.19,0.167,4.29,40.0
41.276,0.175,4.074,44.0
41.274,0.178,5.247,38.0
40.984,0.185,4.985,28.0
41.288,0.195,4.795,26.0
41.424,0.203,4.58,26.0
41.113,0.21,4.321,47.0
41.351,0.218,4.12,38.0
40.724,0.219,5.215,10.0
40.797,0.227,5.0,22.0
41.085,0.237,4.81,42.0
41.196,0.245,4.592,29.0
41.276,0.254,4.376,22.0
41.252,0.262,4.147,36.0
0.0,0.0,0.0,0.0
40.714,0.27,5.027,35.0
41.332,0.282,4.875,31.0
41.115,0.289,4.62,32.0
41.272,0.299,4.411,18.0
41.257,0.307,4.184,33.0
40.838,0.307,5.303,16.0
40.722,0.315,5.062,43.0
40.794,0.323,4.846,45.0
41.064,0.334,4.648,24.0
41.181,0.343,4.436,28.0
41.242,0.351,4.216,38.0
40.697,0.351,5.318,10.0
40.822,0.36,5.108,37.0
40.662,0.367,4.863,45.0
40.954,0.378,4.668,35.0
41.145,0.387,4.464,37.0
41.262,0.397,4.25,42.0
40.964,0.399,5.385,22.0
40.706,0.405,5.125,38.0
40.944,0.415,4.928,34.0
40.818,0.422,4.683,48.0
41.095,0.433,4.489,44.0
41.33,0.443,4.287,41.0
40.696,0.442,5.379,37.0
40.736,0.451,5.158,41.0
40.782,0.459,4.938,38.0
41.146,0.471,4.75,45.0
40.897,0.476,4.495,38.0
41.67,0.494,4.351,23.0
40.652,0.488,5.401,51.0
40.903,0.499,5.207,28.0
40.684,0.505,4.953,40.0
41.026,0.516,4.763,40.0
40.873,0.523,4.519,38.0
41.773,0.543,4.389,43.0
40.87,0.537,5.457,28.0
40.857,0.546,5.227,20.0
40.62,0.55,4.971,42.0
40.664,0.559,4.746,37.0
40.873,0.57,4.545,39.0
40.756,0.577,4.306,37.0
40.647,0.582,5.451,45.0
0.0,0.0,0.0,0.0
40.656,0.598,4.999,40.0
40.526,0.604,4.754,39.0
40.664,0.614,4.544,36.0
40.979,0.627,4.352,36.0
40.583,0.628,5.465,41.0
40.908,0.641,5.28,37.0
40.549,0.643,5.007,37.0
40.531,0.651,4.775,39.0
40.587,0.66,4.556,39.0
40.638,0.668,4.336,42.0
40.507,0.674,5.475,47.0
41.173,0.693,5.335,45.0
40.633,0.691,5.037,32.0
40.505,0.697,4.791,40.0
40.511,0.705,4.566,39.0
40.864,0.719,4.379,34.0
40.699,0.725,5.52,37.0
40.71,0.733,5.293,42.0
41.059,0.747,5.108,32.0
40.883,0.751,4.854,18.0
40.444,0.751,4.576,42.0
40.746,0.765,4.384,38.0
40.525,0.77,5.513,47.0
40.86,0.783,5.329,36.0
40.747,0.789,5.086,37.0
40.682,0.796,4.846,38.0
40.46,0.799,4.593,39.0
40.575,0.809,4.38,42.0
40.94,0.825,5.584,31.0
41.002,0.834,5.362,37.0
40.377,0.829,5.053,40.0
40.377,0.836,4.823,44.0
40.587,0.848,4.621,32.0
40.598,0.856,4.395,49.0
40.719,0.868,5.567,33.0
40.882,0.879,5.359,41.0
40.325,0.875,5.059,43.0
40.318,0.882,4.827,43.0
40.605,0.896,4.634,43.0
40.565,0.903,4.403,49.0
41.145,0.925,5.636,42.0
40.858,0.926,5.366,37.0
40.457,0.925,5.086,39.0
40.402,0.931,4.847,47.0
40.44,0.94,4.625,31.0
40.54,0.949,4.41,42.0
40.986,0.97,5.624,37.0
40.868,0.975,5.376,38.0
40.268,0.968,5.07,39.0
40.312,0.976,4.845,37.0
40.256,0.982,4.612,43.0
40.639,0.999,4.428,42.0
40.899,1.016,5.619,41.0
40.929,1.024,5.392,39.0
40.302,1.016,5.081,42.0
40.227,1.021,4.841,34.0
40.254,1.029,4.617,38.0
40.836,1.051,4.455,26.0
40.842,1.063,5.617,43.0
41.01,1.074,5.407,38.0
40.355,1.064,5.092,43.0
40.315,1.071,4.856,33.0
40.285,1.077,4.625,38.0
40.739,1.096,4.448,44.0
40.717,1.107,5.603,48.0
41.105,1.125,5.423,22.0
40.38,1.112,5.098,45.0
40.219,1.115,4.847,43.0
40.435,1.128,4.645,41.0
40.736,1.144,4.45,40.0
40.749,1.156,5.609,44.0
41.306,1.179,5.451,16.0
40.533,1.163,5.119,38.0
40.753,1.177,4.912,18.0
40.468,1.176,4.649,36.0
40.671,1.189,4.443,38.0
41.055,1.212,5.651,39.0
41.165,1.222,5.432,16.0
40.807,1.218,5.152,31.0
40.859,1.227,4.923,16.0
40.83,1.233,4.689,42.0
40.644,1.234,4.438,42.0
41.035,1.259,5.646,45.0
40.646,1.254,5.36,33.0
41.12,1.276,5.189,36.0
40.961,1.277,4.932,16.0
40.608,1.273,4.66,32.0
40.671,1.282,4.437,29.0
41.343,1.316,5.684,29.0
40.574,1.298,5.347,43.0
41.134,1.322,5.186,29.0
40.944,1.323,4.925,16.0
40.666,1.321,4.661,41.0
40.847,1.333,4.451,16.0
41.528,1.369,5.703,18.0
40.667,1.347,5.353,38.0
41.133,1.369,5.179,41.0
41.06,1.373,4.932,16.0
41.012,1.378,4.694,34.0
40.909,1.381,4.45,38.0
42.345,1.444,5.807,4.0
40.844,1.399,5.368,39.0
41.46,1.426,5.212,35.0
41.012,1.417,4.918,16.0
41.366,1.436,4.725,32.0
41.19,1.437,4.471,16.0
40.923,1.441,5.602,24.0
40.598,1.436,5.325,38.0
41.661,1.48,5.227,28.0
40.953,1.461,4.9,32.0
41.292,1.479,4.706,19.0
40.681,1.463,4.405,41.0
40.896,1.485,5.587,27.0
40.633,1.482,5.318,41.0
41.56,1.521,5.202,25.0
41.029,1.508,4.897,32.0
0.0,0.0,0.0,0.0
40.718,1.509,4.396,32.0
40.894,1.53,5.573,36.0
40.658,1.527,5.308,35.0
40.925,1.543,5.108,20.0
40.974,1.55,4.876,6.0
0.0,0.0,0.0,0.0
40.525,1.545,4.361,35.0
40.954,1.576,5.566,8.0
40.762,1.574,5.306,21.0
40.893,1.585,5.089,32.0
41.062,1.597,4.87,1.0
0.0,0.0,0.0,0.0
40.46,1.585,4.338,37.0
40.919,1.618,5.544,39.0
40.95,1.625,5.313,38.0
40.895,1.628,5.071,10.0
45.226,1.807,5.345,4.0
40.755,1.634,4.583,27.0
40.689,1.637,4.344,35.0
48.291,1.96,6.521,7.0
40.915,1.666,5.289,28.0
43.92,1.794,5.426,4.0
44.8,1.836,5.273,19.0
40.663,1.672,4.553,37.0
42.973,1.773,4.567,3.0
66.167,2.654,3.026,8.0
66.145,2.639,2.644,25.0
190.811,7.575,6.53,15.0
194.872,7.695,5.53,9.0
194.238,7.628,4.395,23.0
120.102,4.693,2.028,7.0
66.14,2.568,2.921,18.0
190.941,7.373,7.333,9.0
210.32,8.078,6.869,7.0
119.999,4.583,3.218,8.0
193.719,7.357,4.083,22.0
120.101,4.535,1.841,14.0
72.547,2.723,3.092,23.0
190.831,7.119,7.035,20.0
72.518,2.69,2.257,17.0
72.499,2.673,1.833,21.0
72.429,2.655,1.416,22.0
72.406,2.639,1.0,23.0
72.427,2.621,2.976,27.0
72.422,2.605,2.56,33.0
72.408,2.588,2.144,29.0
72.379,2.57,1.72,32.0
72.369,2.553,1.304,32.0
72.356,2.537,0.889,30.0
72.393,2.519,2.865,32.0
72.401,2.503,2.449,34.0
72.391,2.486,2.033,38.0
72.372,2.469,1.61,35.0
72.372,2.452,1.195,37.0
72.355,2.435,0.78,31.0
72.447,2.419,2.758,31.0
72.442,2.401,2.342,35.0
72.442,2.383,1.926,32.0
72.434,2.366,1.503,33.0
72.431,2.349,1.088,32.0
72.395,2.331,0.673,32.0
190.71,6.09,6.98,22.0
211.158,6.693,6.516,11.0
120.065,3.776,3.016,7.0
119.98,3.744,2.314,12.0
119.983,3.716,1.627,8.0
78.959,2.426,0.619,10.0
78.89,2.402,2.772,21.0
78.95,2.385,2.321,20.0
74.774,2.24,1.77,5.0
74.319,2.208,1.325,3.0
74.133,2.184,0.898,5.0
78.699,2.3,0.503,8.0
78.81,2.28,2.656,26.0
78.789,2.259,2.203,14.0
76.679,2.179,1.705,3.0
76.608,2.159,1.257,7.0
76.469,2.135,0.817,7.0
72.058,1.994,0.358,9.0
78.819,2.158,2.544,32.0
78.853,2.139,2.093,33.0
78.879,2.119,1.642,38.0
78.892,2.098,1.183,33.0
78.898,2.079,0.732,30.0
71.655,1.87,0.255,10.0
78.965,2.037,2.439,10.0
119.985,3.066,3.02,18.0
120.018,3.035,2.335,22.0
85.311,2.135,1.163,22.0
85.178,2.11,0.675,13.0
71.571,1.754,0.158,9.0
85.266,2.064,2.518,26.0
85.247,2.042,2.03,33.0
85.24,2.018,1.543,37.0
85.23,1.995,1.047,37.0
84.979,1.967,0.558,12.0
68.295,1.563,0.059,2.0
85.254,1.925,2.404,34.0
85.239,1.902,1.917,37.0
85.251,1.88,1.43,37.0
85.256,1.857,0.935,40.0
84.706,1.823,0.446,8.0
69.709,1.481,-0.03,1.0
85.389,1.786,2.295,16.0
85.407,1.763,1.808,14.0
99.42,2.026,1.538,9.0
85.499,1.718,0.826,16.0
78.262,1.551,0.309,8.0
70.863,1.385,-0.123,0.0
91.804,1.765,2.349,1.0
87.868,1.665,1.747,4.0
87.616,1.636,1.242,4.0
91.813,1.689,0.77,23.0
73.888,1.338,0.198,4.0
0.0,0.0,0.0,0.0
91.847,1.61,2.236,33.0
91.883,1.584,1.712,40.0
91.881,1.558,1.189,42.0
91.781,1.532,0.656,15.0
74.52,1.222,0.108,1.0
0.0,0.0,0.0,0.0
104.651,-10.734,1.759,9.0
104.679,-10.763,1.198,15.0
83.802,-8.636,0.509,2.0
33.125,-3.421,0.02,2.0
33.124,-3.43,-0.157,68.0
32.793,-3.404,-0.331,42.0
119.195,-12.373,2.118,41.0
113.916,-11.852,1.413,10.0
33.134,-3.455,0.233,40.0
33.119,-3.461,0.052,68.0
33.09,-3.466,-0.125,76.0
33.075,-3.473,-0.302,72.0
33.162,-3.482,0.622,6.0
33.146,-3.488,0.444,74.0
33.118,-3.493,0.266,76.0
33.098,-3.498,0.084,83.0
33.093,-3.505,-0.092,84.0
33.083,-3.512,-0.269,79.0
33.15,-3.519,0.654,75.0
33.125,-3.524,0.476,79.0
33.12,-3.531,0.299,79.0
33.109,-3.537,0.118,78.0
33.113,-3.544,-0.059,69.0
33.113,-3.552,-0.236,41.0
33.126,-3.554,0.688,90.0
33.124,-3.561,0.51,80.0
33.116,-3.567,0.333,78.0
33.099,-3.572,0.152,47.0
33.121,-3.582,-0.025,27.0
38.416,-4.163,-0.234,14.0
33.148,-3.592,0.722,85.0
33.156,-3.6,0.545,61.0
33.138,-3.604,0.367,40.0
33.135,-3.611,0.186,0.0
0.0,0.0,0.0,0.0
38.957,-4.262,-0.197,14.0
33.155,-3.627,0.757,46.0
33.157,-3.634,0.58,9.0
113.115,-12.42,1.373,8.0
85.357,-9.389,0.572,6.0
48.542,-5.349,0.065,11.0
0.0,0.0,0.0,0.0
75.21,-8.305,1.799,14.0
118.945,-13.155,2.209,16.0
113.983,-12.627,1.506,21.0
85.529,-9.491,0.664,7.0
50.787,-5.645,0.123,11.0
42.312,-4.711,-0.123,17.0
74.933,-8.345,1.874,44.0
75.273,-8.396,1.479,19.0
114.389,-12.78,1.636,11.0
90.473,-10.124,0.801,12.0
63.093,-7.071,0.221,2.0
0.0,0.0,0.0,0.0
74.453,-8.36,1.943,35.0
75.182,-8.454,1.561,24.0
75.262,-8.476,1.16,23.0
75.344,-8.498,0.751,19.0
75.339,-8.51,0.349,14.0
46.253,-5.233,-0.033,21.0
74.719,-8.456,2.034,19.0
75.146,-8.515,1.643,24.0
75.209,-8.534,1.243,31.0
75.228,-8.549,0.834,26.0
75.228,-8.561,0.431,16.0
46.689,-5.321,0.019,12.0
74.386,-8.479,2.108,16.0
75.16,-8.578,1.728,19.0
74.833,-8.552,1.321,47.0
75.204,-8.606,0.919,34.0
75.224,-8.62,0.516,25.0
0.0,0.0,0.0,0.0
75.297,-8.642,2.219,16.0
75.052,-8.624,1.811,12.0
73.788,-8.49,1.386,52.0
75.204,-8.663,1.004,31.0
75.224,-8.676,0.602,31.0
51.421,-5.938,0.137,25.0
86.863,-10.034,2.659,7.0
73.373,-8.485,1.854,7.0
73.39,-8.497,1.464,31.0
75.231,-8.72,1.09,27.0
75.203,-8.727,0.689,29.0
75.133,-8.729,0.287,5.0
74.626,-8.673,2.371,20.0
73.236,-8.52,1.936,13.0
73.333,-8.54,1.547,13.0
118.527,-13.817,1.855,17.0
75.238,-8.78,0.776,20.0
75.172,-8.783,0.375,11.0
74.371,-8.692,2.45,13.0
73.25,-8.568,2.022,9.0
73.494,-8.605,1.637,5.0
118.559,-13.895,1.994,13.0
112.087,-13.15,1.289,6.0
75.229,-8.835,0.463,10.0
36.396,0.276,-0.5,0.0
30.005,0.23,-0.588,0.0
0.0,0.0,0.0,0.0
22.287,0.173,-0.699,0.0
19.938,0.156,-0.742,0.0
17.879,0.141,-0.77,0.0
33.353,0.263,-0.528,0.0
28.456,0.226,-0.616,0.0
0.0,0.0,0.0,0.0
21.305,0.172,-0.713,0.0
18.997,0.154,-0.747,0.0
17.134,0.14,-0.774,0.0
0.0,0.0,0.0,0.0
26.698,0.219,-0.634,0.0
23.12,0.191,-0.685,0.0
20.304,0.169,-0.722,0.0
18.371,0.153,-0.761,0.0
16.712,0.14,-0.79,0.0
29.458,0.247,-0.589,0.0
25.297,0.213,-0.654,0.0
22.193,0.188,-0.703,0.0
19.545,0.166,-0.736,0.0
17.737,0.152,-0.771,0.0
16.114,0.139,-0.795,0.0
27.564,0.236,-0.609,0.0
0.0,0.0,0.0,0.0
21.214,0.183,-0.716,0.0
18.71,0.162,-0.743,0.0
17.006,0.148,-0.775,0.0
15.665,0.137,-0.805,0.0
26.612,0.232,-0.643,0.0
22.812,0.199,-0.684,0.0
20.225,0.177,-0.725,0.0
18.232,0.16,-0.762,0.0
16.701,0.148,-0.796,0.0
15.15,0.134,-0.811,0.0
24.977,0.22,-0.655,0.0
21.661,0.191,-0.695,0.0
19.54,0.173,-0.741,0.0
17.592,0.156,-0.772,0.0
16.088,0.144,-0.8,0.0
14.729,0.132,-0.819,0.0
23.713,0.211,-0.671,0.0
20.932,0.186,-0.714,0.0
18.7,0.167,-0.748,0.0
16.932,0.151,-0.778,0.0
15.526,0.139,-0.804,0.0
14.333,0.129,-0.826,0.0
22.65,0.202,-0.687,0.0
20.045,0.179,-0.725,0.0
18.026,0.161,-0.757,0.0
16.561,0.148,-0.795,0.0
15.121,0.136,-0.814,0.0
13.843,0.124,-0.826,0.0
21.621,0.192,-0.7,0.0
19.274,0.172,-0.736,0.0
17.548,0.157,-0.773,0.0
15.928,0.142,-0.796,0.0
14.668,0.131,-0.819,0.0
13.672,0.122,-0.844,0.0
20.785,0.184,-0.715,0.0
18.504,0.164,-0.745,0.0
16.907,0.15,-0.779,0.0
15.415,0.137,-0.802,0.0
14.266,0.127,-0.826,0.0
13.255,0.118,-0.845,0.0
19.94,0.175,-0.726,0.0
17.996,0.158,-0.76,0.0
16.502,0.145,-0.794,0.0
15.028,0.132,-0.812,0.0
13.869,0.122,-0.831,0.0
12.883,0.113,-0.848,0.0
19.129,0.165,-0.735,0.0
17.567,0.152,-0.778,0.0
15.858,0.137,-0.795,0.0
14.605,0.126,-0.819,0.0
13.587,0.117,-0.842,0.0
12.496,0.108,-0.847,0.0
18.545,0.157,-0.75,0.0
16.849,0.143,-0.779,0.0
15.37,0.13,-0.801,0.0
14.217,0.12,-0.825,0.0
13.223,0.112,-0.845,0.0
12.138,0.103,-0.847,0.0
17.941,0.149,-0.761,0.0
16.342,0.135,-0.789,0.0
15.026,0.124,-0.813,0.0
13.809,0.114,-0.829,0.0
12.779,0.105,-0.842,0.0
11.794,0.097,-0.847,0.0
17.376,0.14,-0.771,0.0
15.913,0.128,-0.799,0.0
14.538,0.117,-0.815,0.0
13.565,0.109,-0.841,0.0
12.493,0.1,-0.848,0.0
11.556,0.092,-0.852,0.0
73.307,7.072,0.071,9.0
43.149,4.17,-0.203,18.0
39.338,3.808,-0.409,8.0
34.302,3.327,-0.555,1.0
28.432,2.763,-0.622,0.0
24.539,2.389,-0.677,0.0
45.799,4.476,-0.003,1.0
0.0,0.0,0.0,0.0
39.264,3.85,-0.45,7.0
31.676,3.112,-0.546,0.0
27.571,2.713,-0.632,0.0
24.022,2.368,-0.688,0.0
45.717,4.523,-0.052,7.0
40.518,4.015,-0.277,16.0
39.209,3.892,-0.491,7.0
31.259,3.108,-0.572,1.0
26.752,2.664,-0.643,0.0
23.499,2.344,-0.698,0.0
45.621,4.567,-0.101,17.0
39.818,3.992,-0.315,21.0
39.137,3.93,-0.533,4.0
30.528,3.07,-0.593,0.0
26.143,2.634,-0.657,0.0
22.92,2.313,-0.706,0.0
0.0,0.0,0.0,0.0
39.457,4.0,-0.355,15.0
39.101,3.97,-0.575,0.0
29.159,2.965,-0.599,0.0
25.454,2.592,-0.667,0.0
22.31,2.276,-0.712,0.0
43.324,4.433,-0.192,18.0
39.178,4.014,-0.397,11.0
33.329,3.42,-0.528,1.0
28.477,2.926,-0.616,0.0
24.732,2.545,-0.676,0.0
21.619,2.228,-0.715,0.0
41.089,4.247,-0.228,16.0
39.048,4.042,-0.44,7.0
33.014,3.421,-0.56,1.0
27.525,2.856,-0.627,0.0
24.001,2.494,-0.683,0.0
21.19,2.205,-0.725,0.0
40.28,4.204,-0.27,16.0
39.011,4.077,-0.484,8.0
31.485,3.294,-0.57,1.0
26.804,2.808,-0.641,0.0
23.415,2.457,-0.694,0.0
20.638,2.168,-0.73,0.0
39.805,4.192,-0.312,25.0
38.992,4.112,-0.529,5.0
30.345,3.204,-0.585,1.0
26.01,2.75,-0.653,0.0
22.783,2.412,-0.702,0.0
20.188,2.14,-0.738,0.0
39.376,4.184,-0.356,15.0
38.935,4.142,-0.574,0.0
29.456,3.137,-0.603,0.0
25.264,2.694,-0.664,0.0
22.3,2.381,-0.713,0.0
19.785,2.115,-0.746,0.0
39.047,4.183,-0.399,12.0
32.52,3.488,-0.518,0.0
28.31,3.039,-0.613,0.0
24.77,2.662,-0.68,0.0
21.676,2.333,-0.719,0.0
19.28,2.077,-0.75,0.0
38.905,4.2,-0.443,7.0
32.11,3.47,-0.549,1.0
27.411,2.965,-0.626,0.0
23.851,2.583,-0.684,0.0
20.911,2.267,-0.719,0.0
18.859,2.047,-0.757,0.0
38.875,4.228,-0.49,8.0
31.465,3.425,-0.576,1.0
26.728,2.912,-0.642,0.0
23.297,2.541,-0.696,0.0
20.504,2.239,-0.73,0.0
18.384,2.01,-0.76,0.0
38.831,4.252,-0.537,5.0
29.83,3.269,-0.583,0.0
25.827,2.833,-0.652,0.0
22.554,2.476,-0.701,0.0
19.982,2.196,-0.736,0.0
17.932,1.973,-0.763,0.0
38.843,4.281,-0.584,0.0
28.985,3.197,-0.602,0.0
25.083,2.769,-0.664,0.0
21.934,2.424,-0.708,0.0
19.637,2.172,-0.747,0.0
17.64,1.953,-0.772,0.0
32.637,3.618,-0.53,0.0
28.096,3.117,-0.617,0.0
24.401,2.709,-0.676,0.0
21.517,2.391,-0.722,0.0
19.202,2.136,-0.754,0.0
17.331,1.93,-0.78,0.0
0.0,0.0,0.0,0.0
0.0,0.0,0.0,0.0
42.889,0.173,-0.434,1.0
35.287,0.138,-0.543,0.0
29.914,0.113,-0.615,0.0
26.271,0.096,-0.676,0.0
91.354,0.326,0.201,1.0
0.0,0.0,0.0,0.0
46.204,0.153,-0.375,0.0
0.0,0.0,0.0,0.0
31.605,0.097,-0.586,0.0
27.546,0.081,-0.653,0.0
94.375,0.27,0.397,2.0
0.0,0.0,0.0,0.0
52.651,0.138,-0.322,0.0
42.723,0.107,-0.486,0.0
34.006,0.081,-0.562,0.0
29.538,0.067,-0.64,0.0
0.0,0.0,0.0,0.0
0.0,0.0,0.0,0.0
0.0,0.0,0.0,0.0
45.566,0.084,-0.425,2.0
36.095,0.063,-0.523,0.0
0.0,0.0,0.0,0.0
111.108,0.171,0.921,9.0
0.0,0.0,0.0,0.0
0.0,0.0,0.0,0.0
48.201,0.059,-0.35,0.0
40.105,0.045,-0.498,0.0
0.0,0.0,0.0,0.0
111.197,0.103,1.153,18.0
104.256,0.087,0.542,5.0
0.0,0.0,0.0,0.0
0.0,0.0,0.0,0.0
44.982,0.024,-0.465,1.0
35.37,0.015,-0.548,0.0
111.072,0.04,1.381,14.0
111.005,0.03,0.808,12.0
0.0,0.0,0.0,0.0
0.0,0.0,0.0,0.0
45.742,0.0,-0.378,0.0
37.565,-0.003,-0.504,0.0
117.333,-0.02,1.705,13.0
117.279,-0.03,1.1,14.0
0.0,0.0,0.0,0.0
0.0,0.0,0.0,0.0
0.0,0.0,0.0,0.0
0.0,0.0,0.0,0.0
117.333,-0.079,1.952,7.0
117.443,-0.088,1.349,14.0
110.976,-0.092,0.704,11.0
0.0,0.0,0.0,0.0
0.0,0.0,0.0,0.0
45.368,-0.047,-0.417,1.0
0.0,0.0,0.0,0.0
112.201,-0.135,1.523,18.0
117.366,-0.15,0.99,8.0
99.765,-0.134,0.319,1.0
0.0,0.0,0.0,0.0
42.003,-0.062,-0.297,0.0
114.83,-0.179,2.395,3.0
112.613,-0.183,1.767,4.0
119.746,-0.202,1.263,17.0
110.642,-0.193,0.586,9.0
0.0,0.0,0.0,0.0
0.0,0.0,0.0,0.0
119.801,-0.233,2.752,12.0
114.001,-0.229,2.033,6.0
119.727,-0.247,1.518,8.0
114.466,-0.242,0.849,150.0
0.0,0.0,0.0,0.0
0.0,0.0,0.0,0.0
119.783,-0.275,3.004,12.0
119.845,-0.281,2.389,20.0
112.943,-0.271,1.669,4.0
114.491,-0.279,1.091,150.0
110.807,-0.275,0.486,1.0
0.0,0.0,0.0,0.0
119.827,-0.313,3.259,19.0
119.822,-0.318,2.642,59.0
114.221,-0.308,1.931,4.0
119.713,-0.327,1.396,12.0
111.225,-0.308,0.724,7.0
0.0,0.0,0.0,0.0
70.168,-0.202,2.058,3.0
119.824,-0.35,2.898,100.0
119.851,-0.354,2.28,150.0
0.0,0.0,0.0,0.0
119.724,-0.361,1.033,14.0
102.777,-0.313,0.358,2.0
206.576,-0.645,6.496,16.0
119.79,-0.377,3.148,13.0
119.82,-0.38,2.532,23.0
114.51,-0.366,1.82,3.0
119.719,-0.386,1.288,17.0
111.074,-0.36,0.622,7.0
47.17,0.438,4.499,14.0
41.602,0.394,3.746,24.0
41.538,0.4,3.519,37.0
41.485,0.407,3.29,16.0
47.58,0.475,3.521,5.0
41.525,0.422,2.852,36.0
41.558,0.424,4.028,35.0
41.421,0.43,3.794,37.0
41.482,0.438,3.579,41.0
41.639,0.447,3.366,36.0
41.241,0.451,3.115,40.0
41.49,0.461,2.913,32.0
41.611,0.464,4.097,38.0
44.694,0.507,4.161,3.0
41.485,0.478,3.641,24.0
41.395,0.485,3.408,41.0
41.234,0.49,3.175,39.0
41.523,0.501,2.976,11.0
41.749,0.507,4.173,39.0
41.316,0.509,3.908,34.0
41.294,0.516,3.685,31.0
40.932,0.519,3.429,44.0
41.193,0.53,3.232,39.0
41.524,0.542,3.036,31.0
41.328,0.542,4.191,43.0
41.071,0.547,3.944,41.0
41.049,0.554,3.721,33.0
40.877,0.559,3.483,38.0
40.925,0.567,3.268,39.0
48.592,0.683,3.621,9.0
41.362,0.585,4.252,29.0
41.196,0.59,4.014,39.0
40.891,0.593,3.764,44.0
40.871,0.601,3.539,39.0
40.827,0.608,3.317,45.0
41.19,0.621,3.126,33.0
41.211,0.625,4.293,35.0
41.156,0.632,4.066,39.0
41.131,0.64,3.842,39.0
40.75,0.642,3.584,44.0
40.815,0.651,3.37,40.0
40.824,0.659,3.152,42.0
40.745,0.661,4.3,42.0
41.05,0.674,4.11,33.0
41.295,0.686,3.912,32.0
40.725,0.684,3.634,43.0
40.956,0.696,3.435,37.0
40.828,0.702,3.205,41.0
40.927,0.708,4.372,39.0
41.055,0.718,4.163,41.0
41.104,0.727,3.946,39.0
40.992,0.733,3.71,39.0
40.81,0.738,3.474,38.0
40.829,0.747,3.256,28.0
40.662,0.748,4.395,43.0
40.928,0.761,4.202,40.0
41.176,0.774,4.005,40.0
40.713,0.774,3.736,38.0
40.834,0.784,3.527,35.0
40.804,0.792,3.305,38.0
40.606,0.794,4.44,45.0
40.815,0.806,4.241,38.0
41.362,0.825,4.073,30.0
40.75,0.821,3.788,44.0
40.624,0.826,3.557,40.0
40.802,0.838,3.352,34.0
40.552,0.839,4.482,43.0
40.706,0.85,4.277,49.0
41.083,0.866,4.093,45.0
41.031,0.873,3.862,32.0
40.598,0.872,3.601,46.0
40.55,0.879,3.378,42.0
40.607,0.886,4.534,45.0
40.787,0.898,4.332,38.0
40.818,0.907,4.113,39.0
40.972,0.919,3.902,39.0
40.756,0.922,3.66,36.0
40.564,0.926,3.423,39.0
40.454,0.93,4.561,46.0
40.607,0.942,4.357,47.0
40.77,0.954,4.152,42.0
40.62,0.958,3.912,40.0
40.814,0.971,3.709,26.0
40.629,0.975,3.472,31.0
40.447,0.978,4.604,21.0
40.604,0.99,4.399,39.0
40.845,1.004,4.203,46.0
40.56,1.006,3.948,43.0
40.668,1.016,3.737,33.0
40.608,1.023,3.511,20.0
40.268,1.022,4.624,38.0
40.814,1.044,4.464,31.0
40.941,1.056,4.254,35.0
40.66,1.057,3.998,38.0
40.742,1.067,3.784,28.0
40.556,1.071,3.546,39.0
73.021,-6.169,7.433,5.0
71.08,-5.986,6.837,11.0
72.351,-6.074,6.556,15.0
70.569,-5.905,5.993,8.0
73.009,-6.091,5.794,14.0
70.647,-5.875,5.214,15.0
73.092,-6.085,7.459,8.0
78.896,-6.547,7.609,6.0
71.455,-5.909,6.492,11.0
70.479,-5.81,6.002,9.0
72.978,-5.997,5.808,16.0
70.595,-5.783,5.226,10.0
72.719,-5.963,7.436,9.0
73.685,-6.021,7.122,8.0
70.861,-5.772,6.452,11.0
70.534,-5.726,6.02,7.0
73.317,-5.932,5.849,12.0
70.509,-5.687,5.232,16.0
0.0,0.0,0.0,0.0
71.837,-5.778,6.956,20.0
70.928,-5.686,6.47,19.0
70.715,-5.65,6.047,15.0
73.159,-5.825,5.847,20.0
78.317,-6.214,5.823,11.0
71.707,-5.694,7.355,12.0
71.708,-5.674,6.952,17.0
70.834,-5.584,6.47,13.0
70.602,-5.547,6.045,26.0
67.999,-5.325,5.442,8.0
67.998,-5.306,5.062,52.0
71.585,-5.589,7.35,22.0
79.059,-6.151,7.672,7.0
68.002,-5.272,6.216,36.0
67.993,-5.252,5.827,81.0
68.009,-5.234,5.447,43.0
78.182,-5.996,5.825,12.0
71.522,-5.488,7.347,32.0
68.031,-5.201,6.605,13.0
70.743,-5.389,6.469,5.0
70.529,-5.352,6.046,12.0
73.079,-5.525,5.855,27.0
74.65,-5.625,5.563,6.0
71.022,-5.354,7.296,23.0
68.034,-5.108,6.605,30.0
70.917,-5.305,6.485,8.0
72.272,-5.386,6.195,8.0
73.083,-5.426,5.853,45.0
74.612,-5.52,5.558,6.0
71.749,-5.309,7.368,16.0
72.314,-5.331,7.017,10.0
71.018,-5.214,6.491,20.0
72.222,-5.282,6.187,8.0
73.194,-5.334,5.858,13.0
78.769,-5.718,5.862,8.0
68.065,-4.942,6.985,12.0
73.342,-5.305,7.111,5.0
0.0,0.0,0.0,0.0
72.148,-5.177,6.173,15.0
72.09,-5.153,5.762,13.0
0.0,0.0,0.0,0.0
68.061,-4.847,6.976,30.0
69.319,-4.916,6.712,13.0
