X,Y,Z,Reflectivity
98.788,-0.057,0.377,1.0
0.0,0.0,0.0,0.0
0.0,0.0,0.0,0.0
40.586,-0.045,-0.48,0.0
114.941,-0.149,1.846,6.0
119.709,-0.175,1.3,12.0
110.65,-0.181,0.629,11.0
0.0,0.0,0.0,0.0
0.0,0.0,0.0,0.0
44.946,-0.097,-0.447,1.0
119.849,-0.279,2.149,26.0
115.282,-0.288,1.47,2.0
114.436,-0.305,0.866,12.0
102.475,-0.289,0.233,1.0
0.0,0.0,0.0,0.0
0.0,0.0,0.0,0.0
119.824,-0.399,2.376,8.0
119.824,-0.418,1.755,6.0
119.739,-0.438,1.134,15.0
104.639,-0.399,0.439,1.0
0.0,0.0,0.0,0.0
51.099,-0.211,-0.314,0.0
194.105,-0.835,4.219,25.0
193.512,-0.863,3.206,16.0
119.701,-0.552,1.363,16.0
114.228,-0.545,0.699,3.0
0.0,0.0,0.0,0.0
0.0,0.0,0.0,0.0
119.802,-0.628,2.836,30.0
119.853,-0.646,2.218,16.0
119.769,-0.663,1.596,19.0
119.65,-0.681,0.965,12.0
0.0,0.0,0.0,0.0
0.0,0.0,0.0,0.0
119.791,-0.736,3.069,49.0
119.796,-0.753,2.449,109.0
119.816,-0.77,1.831,46.0
119.694,-0.787,1.199,16.0
111.173,-0.746,0.539,6.0
0.0,0.0,0.0,0.0
119.712,-0.839,3.302,19.0
119.741,-0.856,2.684,22.0
119.729,-0.872,2.065,24.0
119.667,-0.888,1.433,17.0
114.515,-0.865,0.781,8.0
0.0,0.0,0.0,0.0
119.741,-0.939,3.539,11.0
119.737,-0.955,2.92,124.0
119.738,-0.97,2.302,95.0
119.743,-0.985,1.67,81.0
119.7,-1.0,1.051,19.0
0.0,0.0,0.0,0.0
210.613,-1.818,6.637,8.0
119.731,-1.048,3.155,101.0
119.73,-1.062,2.536,150.0
119.734,-1.077,1.906,150.0
119.753,-1.092,1.289,120.0
119.75,-1.105,0.67,23.0
0.0,0.0,0.0,0.0
119.714,-1.138,3.392,93.0
119.746,-1.152,2.776,150.0
119.745,-1.166,2.146,152.0
119.754,-1.179,1.529,151.0
119.743,-1.193,0.912,150.0
190.598,-1.93,6.772,21.0
211.087,-2.158,6.407,11.0
209.076,-2.16,5.266,15.0
119.69,-1.249,2.384,9.0
119.74,-1.262,1.766,13.0
139.278,-1.483,1.338,13.0
190.488,-2.057,7.146,49.0
210.678,-2.296,6.815,19.0
209.188,-2.301,5.688,8.0
210.77,-2.341,4.626,6.0
204.236,-2.288,3.429,15.0
0.0,0.0,0.0,0.0
189.863,-2.174,7.508,23.0
190.661,-2.201,6.554,9.0
209.572,-2.438,6.122,23.0
0.0,0.0,0.0,0.0
0.0,0.0,0.0,0.0
139.136,-1.658,1.9,6.0
112.253,-1.354,4.665,11.0
190.488,-2.314,6.932,35.0
209.922,-2.568,6.558,10.0
0.0,0.0,0.0,0.0
210.448,-2.61,4.383,10.0
204.295,-2.551,3.2,9.0
84.976,-1.074,3.704,8.0
190.509,-2.422,7.32,47.0
210.343,-2.69,6.996,17.0
208.902,-2.687,5.846,6.0
206.963,-2.678,4.727,7.0
204.175,-2.658,3.613,4.0
81.266,-1.07,3.707,11.0
189.805,-2.512,7.675,61.0
190.631,-2.537,6.726,21.0
0.0,0.0,0.0,0.0
206.204,-2.772,5.124,5.0
0.0,0.0,0.0,0.0
81.143,-1.108,3.866,18.0
106.523,-1.462,4.525,9.0
106.561,-1.469,3.976,13.0
210.389,-2.914,6.744,8.0
113.225,-1.575,3.046,5.0
206.282,-2.882,4.485,14.0
81.514,-1.151,4.05,11.0
81.334,-1.153,3.62,13.0
112.324,-1.598,4.419,16.0
210.429,-3.006,7.174,10.0
112.642,-1.615,3.26,1.0
205.909,-2.965,4.897,8.0
81.704,-1.188,4.227,12.0
81.164,-1.184,3.779,17.0
111.966,-1.639,4.634,15.0
190.551,-2.799,6.884,24.0
209.655,-3.088,6.492,6.0
113.249,-1.673,2.922,9.0
61.211,-0.913,3.291,9.0
81.388,-1.217,3.953,13.0
96.434,-1.447,4.186,14.0
106.523,-1.602,4.062,13.0
210.465,-3.174,6.941,5.0
112.716,-1.704,3.137,17.0
61.159,-0.933,3.411,22.0
81.772,-1.25,4.138,14.0
81.39,-1.247,3.698,15.0
106.453,-1.635,4.277,8.0
190.607,-2.935,6.674,9.0
0.0,0.0,0.0,0.0
61.134,-0.951,3.535,18.0
81.66,-1.273,4.299,21.0
81.103,-1.266,3.849,29.0
96.803,-1.514,4.085,4.0
106.378,-1.667,3.94,9.0
0.0,0.0,0.0,0.0
61.086,-0.967,3.656,8.0
61.204,-0.97,3.346,18.0
81.925,-1.3,4.055,19.0
95.427,-1.515,4.22,16.0
106.456,-1.693,4.157,14.0
112.796,-1.795,3.824,15.0
50.706,-0.814,3.138,21.0
61.178,-0.983,3.468,25.0
81.739,-1.314,4.21,31.0
81.208,-1.306,3.753,11.0
106.672,-1.717,4.38,12.0
112.757,-1.816,4.048,11.0
50.288,-0.817,3.212,24.0
61.19,-0.994,3.591,13.0
81.614,-1.326,4.367,24.0
81.082,-1.318,3.911,23.0
95.53,-1.553,4.115,14.0
106.424,-1.73,4.033,15.0
50.093,-0.821,3.301,4.0
60.973,-0.999,3.701,14.0
61.166,-1.002,3.396,27.0
81.834,-1.34,4.112,15.0
95.431,-1.562,4.301,12.0
112.137,-1.836,4.473,13.0
48.274,-0.796,3.277,36.0
50.534,-0.833,3.169,24.0
61.162,-1.008,3.517,29.0
81.658,-1.344,4.265,38.0
81.238,-1.336,3.822,11.0
106.666,-1.754,4.467,9.0
48.158,-0.798,3.365,37.0
0.0,0.0,0.0,0.0
61.115,-1.011,3.636,27.0
81.514,-1.346,4.418,15.0
81.23,-1.34,3.981,17.0
95.394,-1.571,4.183,11.0
48.17,-0.8,3.462,33.0
48.399,-0.802,3.227,22.0
50.802,-0.841,3.123,20.0
61.151,-1.011,3.435,30.0
81.764,-1.348,4.169,26.0
81.63,-1.344,3.739,6.0
43.405,-0.72,3.205,27.0
48.19,-0.798,3.308,37.0
50.314,-0.832,3.192,28.0
61.19,-1.01,3.558,24.0
81.597,-1.343,4.32,30.0
81.118,-1.333,3.875,19.0
42.92,-0.711,3.254,42.0
48.146,-0.795,3.399,34.0
0.0,0.0,0.0,0.0
60.998,-1.002,3.666,18.0
61.169,-1.003,3.358,19.0
81.797,-1.337,4.066,14.0
42.771,-0.705,3.326,47.0
48.147,-0.791,3.493,24.0
48.262,-0.79,3.249,35.0
50.675,-0.827,3.143,24.0
61.158,-0.996,3.475,24.0
81.712,-1.326,4.218,29.0
42.71,-0.699,3.403,43.0
43.215,-0.704,3.218,37.0
48.187,-0.783,3.336,32.0
50.183,-0.812,3.208,24.0
61.168,-0.987,3.592,7.0
81.66,-1.313,4.37,14.0
42.662,-0.691,3.481,47.0
42.871,-0.692,3.274,41.0
48.239,-0.775,3.432,22.0
48.246,-0.772,3.175,21.0
61.087,-0.974,3.702,9.0
61.2,-0.972,3.391,26.0
42.754,-0.684,3.569,41.0
42.753,-0.681,3.345,43.0
48.27,-0.766,3.525,24.0
48.282,-0.763,3.269,39.0
50.497,-0.794,3.155,23.0
61.127,-0.957,3.501,16.0
42.333,-0.668,3.615,39.0
42.607,-0.669,3.415,46.0
42.828,-0.669,3.209,30.0
48.157,-0.749,3.351,41.0
0.0,0.0,0.0,0.0
61.235,-0.943,3.621,12.0
42.088,-0.653,3.672,36.0
42.646,-0.658,3.497,42.0
42.776,-0.656,3.283,47.0
48.2,-0.735,3.442,38.0
48.315,-0.733,3.198,21.0
50.671,-0.765,3.089,4.0
41.987,-0.638,3.74,45.0
42.696,-0.646,3.579,39.0
42.657,-0.641,3.351,37.0
48.165,-0.72,3.527,16.0
48.284,-0.717,3.282,33.0
50.497,-0.746,3.168,21.0
41.943,-0.624,3.811,45.0
42.27,-0.625,3.618,32.0
42.361,-0.622,3.403,36.0
42.612,-0.622,3.196,35.0
48.086,-0.697,3.354,40.0
0.0,0.0,0.0,0.0
42.006,-0.61,3.892,41.0
41.968,-0.604,3.667,44.0
42.602,-0.609,3.498,33.0
42.245,-0.6,3.243,48.0
48.15,-0.679,3.443,16.0
48.259,-0.676,3.198,31.0
41.991,-0.592,3.965,46.0
41.976,-0.587,3.742,45.0
42.486,-0.59,3.563,26.0
42.24,-0.582,3.316,43.0
42.529,-0.581,3.115,41.0
48.213,-0.654,3.278,33.0
41.857,-0.572,4.026,42.0
41.9,-0.568,3.808,43.0
42.225,-0.567,3.615,38.0
42.108,-0.561,3.378,35.0
42.447,-0.561,3.182,43.0
48.066,-0.63,3.35,30.0
41.872,-0.552,4.099,39.0
42.027,-0.549,3.892,33.0
41.979,-0.544,3.665,44.0
42.431,-0.545,3.476,18.0
42.142,-0.536,3.23,45.0
47.87,-0.603,3.418,7.0
41.829,-0.53,4.166,36.0
42.17,-0.529,3.977,37.0
41.861,-0.52,3.726,42.0
41.673,-0.513,3.485,45.0
42.1,-0.513,3.298,42.0
42.497,-0.512,3.105,43.0
41.816,-0.508,4.235,27.0
42.099,-0.506,4.04,40.0
41.821,-0.497,3.792,45.0
41.925,-0.492,3.575,40.0
42.124,-0.49,3.369,39.0
42.282,-0.486,3.158,40.0
41.599,-0.481,4.282,21.0
41.704,-0.477,4.071,38.0
41.837,-0.473,3.861,42.0
41.605,-0.464,3.615,43.0
42.276,-0.466,3.45,17.0
42.073,-0.458,3.211,40.0
41.622,-0.456,4.351,36.0
41.715,-0.452,4.139,32.0
41.614,-0.445,3.908,39.0
41.733,-0.44,3.693,38.0
41.795,-0.435,3.477,40.0
42.021,-0.431,3.273,39.0
41.289,-0.427,4.382,42.0
41.569,-0.423,4.19,31.0
41.664,-0.419,3.977,43.0
41.542,-0.411,3.74,42.0
41.577,-0.405,3.523,47.0
42.087,-0.404,3.343,41.0
41.242,-0.398,4.442,43.0
41.422,-0.394,4.24,44.0
41.635,-0.39,4.04,47.0
41.44,-0.382,3.795,46.0
41.75,-0.378,3.602,36.0
41.805,-0.372,3.385,45.0
41.253,-0.37,4.507,41.0
41.299,-0.364,4.291,44.0
41.592,-0.36,4.099,38.0
41.48,-0.353,3.862,40.0
41.915,-0.349,3.679,38.0
41.698,-0.341,3.438,36.0
41.185,-0.339,4.561,37.0
41.272,-0.333,4.349,41.0
41.609,-0.329,4.161,35.0
41.691,-0.323,3.943,41.0
41.661,-0.317,3.718,42.0
41.87,-0.311,3.513,31.0
41.348,-0.31,4.639,24.0
41.229,-0.302,4.404,38.0
41.329,-0.296,4.194,46.0
41.836,-0.293,4.016,40.0
41.421,-0.283,3.755,39.0
41.547,-0.277,3.544,45.0
41.589,-0.279,4.725,36.0
41.337,-0.271,4.474,34.0
41.328,-0.263,4.251,40.0
41.756,-0.259,4.067,38.0
41.446,-0.251,3.814,40.0
41.408,-0.243,3.589,46.0
41.516,-0.245,4.775,32.0
41.31,-0.237,4.528,20.0
41.313,-0.23,4.306,42.0
41.393,-0.223,4.088,41.0
41.59,-0.217,3.884,42.0
41.46,-0.21,3.65,40.0
41.215,-0.209,4.796,20.0
41.31,-0.203,4.583,19.0
41.178,-0.195,4.347,44.0
41.132,-0.187,4.116,44.0
41.727,-0.183,3.951,42.0
41.329,-0.174,3.692,43.0
41.038,-0.173,4.829,40.0
41.353,-0.168,4.642,30.0
41.076,-0.159,4.389,45.0
41.221,-0.152,4.178,40.0
41.747,-0.147,4.007,39.0
41.399,-0.139,3.751,40.0
41.081,-0.138,4.887,38.0
41.428,-0.131,4.704,25.0
41.167,-0.123,4.451,26.0
41.177,-0.116,4.225,38.0
41.481,-0.109,4.033,39.0
41.815,-0.102,3.84,29.0
41.383,-0.101,4.974,32.0
41.514,-0.094,4.765,36.0
41.139,-0.086,4.499,23.0
41.528,-0.079,4.312,27.0
41.379,-0.071,4.073,45.0
41.791,-0.064,3.888,30.0
40.991,-0.062,4.977,37.0
41.198,-0.055,4.778,35.0
41.144,-0.047,4.548,33.0
41.583,-0.04,4.367,38.0
41.305,-0.032,4.114,45.0
42.325,-0.025,3.987,33.0
41.096,-0.023,5.038,36.0
41.201,-0.016,4.826,32.0
41.386,-0.008,4.622,30.0
41.527,0.0,4.409,17.0
41.318,0.007,4.162,45.0
41.988,0.014,4.003,36.0
41.151,0.016,5.091,19.0
41.041,0.023,4.853,29.0
41.338,0.031,4.663,22.0
41.155,0.039,4.414,39.0
41.377,0.047,4.213,41.0
41.43,0.055,3.994,35.0
41.073,0.056,5.126,37.0
40.965,0.064,4.889,24.0
41.225,0.072,4.695,16.0
41.182,0.079,4.461,42.0
41.476,0.088,4.267,41.0
41.385,0.096,4.033,40.0
41.185,0.098,5.184,27.0
40.946,0.105,4.929,37.0
41.094,0.113,4.722,41.0
41.349,0.122,4.521,29.0
41.333,0.13,4.294,42.0
41.31,0.137,4.067,40.0
41.273,0.14,5.236,41.0
41.015,0.147,4.978,44.0
41.182,0.155,4.772,26.0
41.363,0.164,4.563,34.0
41.175,0.171,4.317,36.0
41.298,0.18,4.105,41.0
41.356,0.183,5.287,43.0
40.932,0.189,5.007,17.0
41.33,0.2,4.829,37.0
41.41,0.208,4.607,25.0
41.116,0.214,4.349,44.0
41.315,0.223,4.145,38.0
53.781,0.296,6.925,7.0
40.807,0.232,5.029,26.0
41.08,0.241,4.837,42.0
41.17,0.251,4.617,34.0
41.345,0.26,4.41,18.0
41.233,0.267,4.173,40.0
53.809,0.354,6.976,9.0
40.78,0.276,5.062,34.0
41.174,0.287,4.884,34.0
41.153,0.294,4.65,29.0
41.132,0.303,4.422,36.0
41.322,0.312,4.216,39.0
40.715,0.312,5.313,11.0
40.783,0.321,5.096,40.0
40.777,0.329,4.87,40.0
41.071,0.339,4.675,35.0
41.21,0.348,4.464,34.0
41.258,0.357,4.243,39.0
40.666,0.357,5.339,4.0
40.764,0.365,5.126,40.0
40.737,0.373,4.897,41.0
41.077,0.384,4.707,38.0
41.112,0.392,4.484,41.0
41.291,0.403,4.277,40.0
40.985,0.405,5.411,33.0
40.714,0.41,5.149,37.0
40.784,0.419,4.932,34.0
40.872,0.428,4.712,45.0
41.116,0.438,4.514,42.0
41.388,0.45,4.316,36.0
40.854,0.449,5.423,33.0
40.805,0.457,5.189,40.0
40.741,0.464,4.955,41.0
41.152,0.477,4.773,43.0
40.916,0.482,4.519,41.0
41.66,0.499,4.372,32.0
40.608,0.493,5.417,47.0
40.74,0.502,5.207,32.0
40.693,0.51,4.975,40.0
40.956,0.521,4.776,44.0
40.942,0.529,4.547,37.0
41.637,0.546,4.395,25.0
40.89,0.543,5.479,37.0
41.573,0.56,5.339,19.0
40.592,0.555,4.987,47.0
40.603,0.562,4.759,37.0
40.956,0.576,4.573,33.0
40.681,0.58,4.317,38.0
40.619,0.586,5.467,44.0
41.485,0.606,5.351,18.0
40.573,0.601,5.007,44.0
40.475,0.608,4.765,44.0
40.684,0.619,4.564,34.0
40.88,0.63,4.36,41.0
40.577,0.633,5.482,44.0
41.222,0.651,5.339,28.0
40.619,0.649,5.033,31.0
40.5,0.655,4.789,46.0
40.592,0.664,4.574,37.0
40.759,0.675,4.366,40.0
40.479,0.678,5.488,52.0
41.116,0.697,5.344,40.0
41.024,0.703,5.102,17.0
40.499,0.702,4.807,43.0
40.503,0.709,4.582,43.0
40.833,0.723,4.392,33.0
40.583,0.727,5.52,41.0
40.755,0.738,5.314,38.0
40.817,0.747,5.094,37.0
40.677,0.752,4.845,34.0
40.483,0.756,4.595,41.0
40.754,0.769,4.399,35.0
40.559,0.774,5.532,43.0
41.0,0.79,5.362,35.0
40.546,0.789,5.075,41.0
40.591,0.798,4.849,41.0
40.441,0.803,4.605,48.0
40.588,0.814,4.395,39.0
40.886,0.829,5.591,45.0
40.952,0.838,5.369,41.0
40.386,0.834,5.068,39.0
40.453,0.843,4.845,41.0
40.477,0.85,4.621,39.0
40.561,0.86,4.404,50.0
40.99,0.88,5.617,17.0
40.875,0.884,5.371,43.0
40.308,0.879,5.069,43.0
40.291,0.887,4.836,41.0
40.516,0.9,4.636,36.0
40.559,0.908,4.414,41.0
41.161,0.931,5.651,42.0
40.872,0.932,5.38,40.0
40.351,0.928,5.084,39.0
40.375,0.936,4.855,41.0
40.407,0.944,4.632,29.0
40.54,0.954,4.421,42.0
40.875,0.973,5.62,42.0
40.875,0.98,5.388,39.0
40.252,0.972,5.079,45.0
40.327,0.982,4.857,35.0
40.28,0.988,4.624,41.0
40.673,1.005,4.441,42.0
40.879,1.021,5.626,37.0
40.943,1.03,5.403,36.0
40.379,1.023,5.1,41.0
40.289,1.028,4.857,26.0
40.337,1.036,4.636,33.0
40.815,1.056,4.462,25.0
40.755,1.065,5.614,45.0
41.05,1.08,5.421,30.0
40.348,1.069,5.1,45.0
40.288,1.074,4.861,41.0
40.35,1.083,4.64,37.0
40.825,1.103,4.465,41.0
40.749,1.112,5.615,42.0
41.3,1.135,5.456,17.0
40.383,1.116,5.106,45.0
40.26,1.12,4.859,41.0
40.428,1.132,4.651,39.0
40.751,1.148,4.458,39.0
40.92,1.165,5.639,44.0
41.119,1.177,5.432,16.0
40.523,1.167,5.124,34.0
40.726,1.18,4.914,30.0
40.506,1.181,4.659,36.0
40.644,1.192,4.446,36.0
40.906,1.212,5.636,43.0
40.907,1.219,5.403,16.0
40.852,1.224,5.163,32.0
41.127,1.239,4.96,16.0
40.833,1.238,4.694,31.0
40.654,1.239,4.444,40.0
41.205,1.268,5.674,32.0
40.709,1.26,5.373,27.0
40.954,1.274,5.172,32.0
40.992,1.282,4.94,16.0
40.597,1.276,4.662,34.0
40.656,1.285,4.439,27.0
41.305,1.319,5.682,43.0
40.619,1.303,5.356,40.0
41.137,1.327,5.19,28.0
40.733,1.32,4.903,34.0
40.824,1.33,4.682,27.0
40.798,1.336,4.448,15.0
41.918,1.386,5.759,34.0
40.662,1.351,5.354,39.0
41.145,1.373,5.183,37.0
41.003,1.375,4.927,28.0
41.251,1.39,4.723,34.0
41.008,1.388,4.463,17.0
40.912,1.398,5.612,5.0
40.637,1.396,5.342,37.0
41.49,1.431,5.217,35.0
41.026,1.422,4.92,14.0
41.386,1.44,4.728,31.0
41.258,1.443,4.479,16.0
40.872,1.443,5.596,31.0
40.526,1.437,5.316,40.0
41.544,1.479,5.212,31.0
40.952,1.464,4.9,40.0
41.564,1.492,4.736,17.0
40.734,1.469,4.41,39.0
40.865,1.487,5.582,34.0
40.603,1.484,5.313,36.0
41.414,1.52,5.182,17.0
41.009,1.511,4.893,34.0
0.0,0.0,0.0,0.0
40.682,1.51,4.391,33.0
40.915,1.534,5.574,28.0
40.797,1.535,5.324,29.0
40.897,1.545,5.102,16.0
40.972,1.553,4.873,3.0
0.0,0.0,0.0,0.0
40.571,1.55,4.363,39.0
40.875,1.576,5.553,36.0
40.804,1.579,5.308,36.0
40.92,1.589,5.088,24.0
41.013,1.599,4.861,2.0
0.0,0.0,0.0,0.0
40.494,1.59,4.337,36.0
40.862,1.619,5.533,31.0
40.881,1.625,5.3,43.0
40.87,1.63,5.063,12.0
45.149,1.807,5.33,16.0
40.699,1.634,4.572,24.0
40.625,1.637,4.332,33.0
48.316,1.964,6.519,7.0
40.901,1.668,5.282,10.0
43.912,1.796,5.419,9.0
44.774,1.837,5.264,19.0
40.688,1.675,4.55,38.0
40.616,1.678,4.31,25.0
48.291,2.013,6.489,8.0
0.0,0.0,0.0,0.0
60.75,2.547,7.463,7.0
45.224,1.902,5.291,25.0
40.65,1.715,4.523,46.0
40.578,1.717,4.283,36.0
48.305,2.062,6.463,12.0
0.0,0.0,0.0,0.0
41.686,1.79,5.097,19.0
45.225,1.947,5.265,4.0
40.706,1.757,4.505,42.0
40.643,1.759,4.266,33.0
48.173,2.104,6.415,10.0
41.452,1.815,5.281,15.0
41.704,1.831,5.072,23.0
0.0,0.0,0.0,0.0
40.687,1.795,4.477,36.0
41.273,1.826,4.306,38.0
48.216,2.152,6.389,14.0
41.438,1.854,5.252,25.0
41.775,1.873,5.053,34.0
41.813,1.88,4.813,14.0
40.771,1.838,4.459,35.0
41.047,1.855,4.254,38.0
48.119,2.192,6.343,12.0
41.435,1.893,5.222,42.0
41.735,1.91,5.019,38.0
41.941,1.924,4.798,23.0
40.815,1.878,4.434,29.0
40.912,1.887,4.21,39.0
48.144,2.238,6.31,8.0
41.596,1.938,5.211,42.0
41.666,1.945,4.979,35.0
42.056,1.968,4.779,21.0
40.752,1.911,4.396,44.0
40.813,1.918,4.168,39.0
50.891,2.411,6.63,4.0
41.87,1.988,5.212,19.0
41.693,1.984,4.949,40.0
45.562,2.172,5.141,8.0
40.877,1.953,4.377,16.0
41.009,1.963,4.156,34.0
48.169,2.324,6.236,4.0
41.663,2.014,5.152,18.0
41.718,2.02,4.918,38.0
45.717,2.219,5.12,20.0
40.815,1.984,4.336,41.0
41.179,2.005,4.139,32.0
41.519,2.039,5.339,4.0
41.965,2.064,5.153,18.0
41.83,2.061,4.894,17.0
45.97,2.268,5.109,22.0
40.747,2.014,4.293,41.0
40.928,2.027,4.077,34.0
41.501,2.071,5.3,12.0
41.684,2.084,5.081,17.0
45.468,2.277,5.279,6.0
40.779,2.045,4.495,40.0
40.849,2.052,4.267,34.0
40.85,2.056,4.032,39.0
41.481,2.103,5.258,43.0
41.732,2.119,5.047,36.0
42.02,2.137,4.839,16.0
40.771,2.077,4.455,38.0
40.81,2.081,4.224,15.0
40.798,2.084,3.988,40.0
41.606,2.141,5.233,36.0
41.695,2.149,5.002,39.0
41.747,2.154,4.766,11.0
40.756,2.106,4.413,40.0
40.855,2.115,4.188,14.0
40.94,2.122,3.961,33.0
41.649,2.174,5.196,25.0
41.665,2.177,4.956,46.0
41.811,2.188,4.731,38.0
40.7,2.132,4.365,39.0
45.157,2.369,4.583,11.0
40.98,2.153,3.923,30.0
41.603,2.201,5.147,33.0
41.784,2.213,4.927,29.0
41.355,2.193,4.636,17.0
40.726,2.161,4.325,39.0
45.118,2.398,4.531,13.0
40.883,2.175,3.87,36.0
41.755,2.237,5.121,17.0
41.717,2.238,4.873,40.0
40.794,2.19,4.529,38.0
40.689,2.187,4.277,37.0
40.837,2.197,4.056,15.0
41.093,2.213,3.845,35.0
41.826,2.268,5.083,41.0
41.704,2.263,4.825,38.0
62.446,3.392,6.862,8.0
40.751,2.215,4.238,26.0
40.885,2.225,4.015,31.0
41.231,2.246,3.811,31.0
41.824,2.293,5.034,26.0
41.8,2.294,4.788,44.0
40.787,2.24,4.435,15.0
40.958,2.251,4.212,25.0
40.976,2.254,3.976,23.0
41.217,2.269,3.762,40.0
41.695,2.311,4.969,20.0
41.803,2.318,4.738,28.0
40.809,2.265,4.389,35.0
45.96,2.552,4.671,4.0
41.185,2.289,3.948,16.0
41.293,2.297,3.719,41.0
41.691,2.333,4.918,38.0
64.905,3.635,7.278,7.0
40.735,2.283,4.331,36.0
45.96,2.577,4.615,16.0
41.324,2.318,3.91,19.0
41.13,2.309,3.654,30.0
41.766,2.359,4.874,36.0
48.398,2.735,5.366,5.0
40.751,2.304,4.281,39.0
45.968,2.601,4.558,18.0
41.329,2.339,3.859,40.0
40.888,2.315,3.581,51.0
41.766,2.379,4.821,39.0
40.859,2.329,4.478,25.0
40.731,2.322,4.227,23.0
45.559,2.598,4.459,20.0
41.341,2.359,3.807,44.0
40.679,2.322,3.51,44.0
41.815,2.401,4.772,38.0
40.91,2.349,4.43,35.0
58.89,3.383,6.034,7.0
45.367,2.607,4.38,20.0
41.38,2.379,3.755,41.0
40.444,2.326,3.436,40.0
41.83,2.419,4.717,27.0
40.912,2.366,4.375,26.0
45.611,2.638,4.612,13.0
41.302,2.389,3.933,23.0
41.449,2.399,3.706,35.0
40.679,2.355,3.402,25.0
62.954,3.664,7.013,15.0
40.874,2.379,4.315,36.0
44.776,2.606,4.466,19.0
41.313,2.405,3.877,37.0
41.278,2.403,3.634,16.0
40.616,2.365,3.341,15.0
63.083,3.693,6.94,9.0
40.87,2.392,4.258,18.0
44.871,2.626,4.413,24.0
41.341,2.42,3.822,38.0
40.691,2.382,3.526,42.0
40.522,2.372,3.277,28.0
40.967,2.41,4.449,23.0
58.829,3.461,6.046,4.0
45.237,2.661,4.385,19.0
41.338,2.431,3.763,49.0
40.425,2.377,3.445,45.0
40.626,2.389,3.228,40.0
40.914,2.417,4.384,36.0
44.886,2.652,4.548,4.0
44.952,2.655,4.293,6.0
41.615,2.457,3.729,39.0
40.807,2.41,3.419,43.0
40.678,2.402,3.173,48.0
40.845,2.422,4.317,41.0
44.771,2.655,4.471,19.0
41.379,2.453,3.892,34.0
41.235,2.443,3.635,38.0
40.857,2.421,3.364,34.0
41.178,2.439,3.153,34.0
40.832,2.429,4.256,18.0
44.708,2.659,4.399,35.0
41.34,2.457,3.827,38.0
40.617,2.414,3.52,51.0
40.752,2.421,3.296,43.0
41.384,2.458,3.107,36.0
48.207,2.875,4.952,1.0
44.7,2.664,4.332,44.0
41.548,2.476,3.784,32.0
40.509,2.412,3.45,35.0
41.109,2.447,3.263,33.0
41.384,2.463,3.045,37.0
45.098,2.695,4.565,3.0
44.73,2.671,4.267,8.0
41.633,2.484,3.729,35.0
41.07,2.45,3.436,34.0
41.212,2.457,3.209,36.0
41.392,2.466,2.983,39.0
44.822,2.681,4.467,25.0
41.371,2.472,3.882,29.0
41.151,2.458,3.621,37.0
41.054,2.451,3.37,28.0
41.219,2.459,3.145,39.0
41.374,2.467,2.917,39.0
44.694,2.675,4.384,43.0
41.338,2.472,3.814,32.0
40.651,2.429,3.514,38.0
40.967,2.446,3.299,17.0
41.322,2.465,3.088,36.0
41.47,2.473,2.858,37.0
44.74,2.676,4.318,37.0
41.577,2.485,3.77,29.0
40.667,2.429,3.45,37.0
41.228,2.46,3.254,28.0
41.36,2.466,3.025,40.0
41.724,2.486,2.81,27.0
44.736,2.674,4.245,4.0
41.576,2.482,3.704,38.0
41.172,2.456,3.428,34.0
41.18,2.454,3.185,39.0
41.428,2.467,2.964,36.0
41.526,2.47,2.731,36.0
41.335,2.466,3.857,35.0
40.914,2.439,3.579,45.0
40.813,2.43,3.332,31.0
41.32,2.458,3.129,35.0
41.401,2.461,2.895,40.0
41.483,2.463,2.661,36.0
41.491,2.47,3.803,37.0
40.457,2.406,3.473,40.0
40.957,2.433,3.277,38.0
41.483,2.461,3.074,35.0
41.646,2.468,2.845,27.0
41.497,2.457,2.595,8.0
41.717,2.476,3.755,40.0
40.9,2.424,3.443,42.0
40.772,2.414,3.195,48.0
41.499,2.454,3.007,36.0
41.538,2.454,2.769,36.0
41.488,2.448,2.526,11.0
41.215,2.437,3.642,36.0
40.841,2.412,3.371,20.0
41.134,2.426,3.156,30.0
41.439,2.441,2.934,37.0
41.491,2.441,2.697,34.0
41.497,2.438,2.458,34.0
40.484,2.383,3.509,48.0
40.657,2.39,3.288,33.0
41.35,2.427,3.104,35.0
41.416,2.428,2.864,26.0
41.516,2.43,2.63,26.0
41.561,2.43,2.392,40.0
40.587,2.377,3.451,48.0
40.597,2.374,3.216,33.0
41.476,2.422,3.044,28.0
41.296,2.408,2.787,30.0
41.356,2.408,2.551,18.0
41.567,2.416,2.324,8.0
40.733,2.371,3.394,16.0
40.74,2.368,3.158,47.0
41.199,2.391,2.954,32.0
41.124,2.382,2.706,38.0
41.653,2.409,2.499,33.0
52.515,3.033,2.847,19.0
40.581,2.347,3.313,29.0
40.846,2.358,3.097,43.0
41.216,2.375,2.886,29.0
41.056,2.362,2.632,35.0
41.623,2.391,2.427,31.0
52.593,3.016,2.763,26.0
40.608,2.331,3.246,33.0
41.019,2.35,3.04,39.0
40.895,2.339,2.793,40.0
41.104,2.346,2.565,26.0
41.794,2.382,2.366,23.0
52.289,2.975,2.658,21.0
40.528,2.307,3.17,41.0
41.094,2.334,2.975,36.0
41.187,2.336,2.743,25.0
41.293,2.337,2.507,35.0
52.582,2.97,2.888,5.0
52.445,2.957,2.578,13.0
40.661,2.294,3.111,46.0
40.924,2.304,2.894,37.0
41.085,2.308,2.667,36.0
41.207,2.31,2.432,43.0
52.623,2.944,2.801,11.0
52.691,2.943,2.501,11.0
41.275,2.306,3.089,41.0
41.011,2.286,2.831,38.0
41.016,2.281,2.594,38.0
41.696,2.314,2.391,21.0
52.675,2.918,2.716,17.0
52.756,2.916,2.415,26.0
40.857,2.258,2.988,39.0
40.877,2.254,2.752,41.0
40.991,2.255,2.523,39.0
41.915,2.301,2.332,7.0
52.541,2.878,2.62,21.0
52.524,2.871,2.315,26.0
41.037,2.242,2.931,39.0
40.967,2.232,2.688,30.0
41.155,2.238,2.462,37.0
59.36,3.22,3.202,19.0
59.374,3.213,2.859,11.0
59.463,3.21,2.52,12.0
40.961,2.21,2.855,41.0
40.962,2.204,2.618,39.0
59.326,3.184,3.448,21.0
59.359,3.179,3.101,10.0
59.362,3.171,2.757,10.0
59.401,3.165,2.416,26.0
40.962,2.18,2.786,30.0
40.979,2.176,2.549,41.0
59.346,3.142,3.347,15.0
59.368,3.135,3.0,9.0
59.366,3.127,2.657,9.0
59.398,3.121,2.315,40.0
40.909,2.146,2.712,48.0
41.247,2.158,2.495,16.0
59.353,3.097,3.247,8.0
52.681,2.741,2.572,26.0
59.419,3.084,2.559,18.0
59.403,3.074,2.215,43.0
40.931,2.115,2.644,41.0
41.652,2.146,2.449,16.0
59.405,3.052,3.149,7.0
52.68,2.698,2.483,26.0
52.517,2.682,2.172,19.0
59.43,3.027,2.115,25.0
41.002,2.084,2.579,32.0
41.689,2.112,2.381,16.0
59.518,3.007,3.055,7.0
59.405,2.992,2.7,17.0
59.459,2.985,2.359,22.0
59.521,2.979,2.018,5.0
41.245,2.06,2.524,39.0
59.635,2.969,3.305,10.0
59.46,2.95,2.951,10.0
59.431,2.94,2.601,8.0
59.554,2.936,2.263,4.0
50.504,2.482,1.628,12.0
41.645,2.042,2.479,37.0
59.477,2.906,3.196,7.0
59.438,2.894,2.851,21.0
52.92,2.569,2.228,18.0
0.0,0.0,0.0,0.0
50.34,2.427,1.539,16.0
41.653,2.003,2.41,21.0
59.475,2.849,3.097,9.0
59.488,2.839,2.754,14.0
52.525,2.497,2.123,12.0
60.928,2.887,2.112,0.0
50.124,2.367,1.449,13.0
52.975,2.494,2.977,9.0
59.521,2.792,3.001,19.0
52.561,2.455,2.346,9.0
52.698,2.452,2.043,16.0
61.082,2.832,2.016,5.0
49.332,2.279,1.344,8.0
59.505,2.739,3.245,13.0
52.838,2.423,2.576,13.0
52.683,2.406,2.265,22.0
52.651,2.395,1.954,6.0
50.631,2.294,1.587,9.0
49.039,2.213,1.255,10.0
77.815,3.499,4.115,12.0
104.46,4.677,4.921,15.0
66.054,2.945,2.73,10.0
66.081,2.934,2.344,22.0
50.508,2.233,1.5,16.0
48.912,2.154,1.172,8.0
66.005,2.894,3.382,11.0
66.006,2.881,3.001,16.0
66.01,2.868,2.62,23.0
66.037,2.856,2.233,33.0
50.323,2.167,1.413,18.0
48.939,2.098,1.092,9.0
65.944,2.815,3.271,28.0
65.967,2.803,2.892,14.0
66.016,2.792,2.513,32.0
66.06,2.78,2.128,31.0
49.994,2.094,1.322,10.0
49.05,2.045,1.015,4.0
65.956,2.737,3.164,20.0
66.028,2.726,2.788,13.0
66.057,2.714,2.409,26.0
66.13,2.704,2.024,11.0
49.667,2.02,1.234,5.0
0.0,0.0,0.0,0.0
66.192,2.665,3.07,11.0
66.114,2.648,2.686,23.0
66.101,2.635,2.305,3.0
50.845,2.016,1.475,1.0
49.749,1.962,1.157,5.0
62.516,2.452,1.096,28.0
66.155,2.581,2.965,20.0
66.242,2.57,2.587,7.0
190.995,7.371,6.362,6.0
50.61,1.942,1.39,0.0
193.728,7.393,4.206,21.0
62.0,2.353,0.99,13.0
72.525,2.736,3.137,17.0
190.751,7.154,7.154,21.0
72.49,2.702,2.301,6.0
72.522,2.688,1.879,16.0
72.463,2.67,1.461,21.0
61.328,2.247,0.885,11.0
72.449,2.636,3.021,25.0
72.44,2.62,2.605,29.0
72.408,2.602,2.188,33.0
72.39,2.586,1.764,31.0
72.376,2.569,1.348,31.0
72.354,2.552,0.933,28.0
72.408,2.535,2.909,32.0
72.386,2.518,2.492,35.0
72.397,2.502,2.076,37.0
72.365,2.484,1.653,36.0
72.365,2.467,1.237,32.0
72.364,2.452,0.823,30.0
72.425,2.434,2.799,30.0
72.427,2.418,2.384,36.0
72.434,2.401,1.968,38.0
72.432,2.384,1.545,36.0
72.418,2.366,1.129,34.0
72.403,2.349,0.714,30.0
190.764,6.139,7.088,19.0
211.219,6.747,6.637,14.0
120.034,3.805,3.083,8.0
120.017,3.777,2.383,7.0
120.017,3.748,1.694,11.0
78.978,2.447,0.662,7.0
78.866,2.421,2.813,14.0
78.977,2.405,2.364,5.0
78.93,2.383,1.91,23.0
78.905,2.364,1.45,26.0
78.901,2.345,0.997,21.0
78.768,2.322,0.545,11.0
78.84,2.302,2.698,25.0
78.824,2.282,2.246,14.0
78.818,2.262,1.793,14.0
78.867,2.244,1.336,33.0
78.865,2.225,0.884,24.0
78.614,2.198,0.432,7.0
78.8,2.181,2.585,32.0
78.71,2.159,2.131,9.0
74.886,2.034,1.599,4.0
78.889,2.124,1.225,10.0
78.901,2.104,0.774,32.0
71.695,1.894,0.293,12.0
78.91,2.061,2.478,23.0
78.969,2.043,2.028,12.0
78.983,2.022,1.576,4.0
85.308,2.162,1.205,8.0
79.02,1.983,0.665,10.0
71.653,1.779,0.193,13.0
85.294,2.092,2.561,28.0
85.274,2.07,2.073,31.0
85.25,2.047,1.584,36.0
85.238,2.024,1.088,34.0
85.077,1.997,0.599,12.0
71.357,1.657,0.096,4.0
85.241,1.953,2.443,34.0
85.243,1.93,1.956,37.0
85.258,1.908,1.469,42.0
85.249,1.884,0.973,37.0
84.825,1.852,0.484,10.0
69.445,1.498,0.0,2.0
85.337,1.814,2.332,26.0
85.356,1.791,1.845,28.0
85.389,1.769,1.358,23.0
85.421,1.747,0.863,28.0
78.232,1.578,0.343,4.0
70.061,1.394,-0.092,3.0
87.003,1.704,2.264,11.0
87.205,1.684,1.771,43.0
91.925,1.75,1.343,26.0
91.851,1.724,0.809,21.0
77.825,1.439,0.242,4.0
0.0,0.0,0.0,0.0
91.855,1.642,2.273,36.0
91.865,1.616,1.748,30.0
87.696,1.519,1.17,1.0
91.798,1.564,0.691,19.0
74.302,1.245,0.136,3.0
0.0,0.0,0.0,0.0
91.974,1.485,2.16,12.0
91.965,1.459,1.636,26.0
91.987,1.432,1.112,27.0
91.906,1.405,0.578,10.0
0.0,0.0,0.0,0.0
0.0,0.0,0.0,0.0
98.628,1.421,2.197,27.0
98.528,1.39,1.633,28.0
98.567,1.362,1.073,28.0
85.284,1.153,0.434,15.0
75.108,0.994,-0.045,1.0
0.0,0.0,0.0,0.0
98.542,1.243,2.077,32.0
98.51,1.214,1.516,30.0
98.481,1.186,0.956,19.0
85.277,1.001,0.333,6.0
0.0,0.0,0.0,0.0
46.546,0.519,-0.347,0.0
98.62,1.068,1.964,27.0
98.624,1.037,1.403,25.0
98.478,1.007,0.841,15.0
81.897,0.814,0.226,1.0
0.0,0.0,0.0,0.0
0.0,0.0,0.0,0.0
100.096,0.901,1.88,3.0
100.343,0.873,1.315,4.0
98.316,0.825,0.729,12.0
84.343,0.682,0.138,3.0
55.242,0.429,-0.223,0.0
42.768,0.319,-0.415,1.0
111.038,0.793,1.962,10.0
111.172,0.76,1.334,2.0
104.52,0.681,0.66,4.0
0.0,0.0,0.0,0.0
54.784,0.324,-0.28,0.0
42.792,0.24,-0.461,0.0
111.106,0.588,1.846,30.0
111.045,0.552,1.215,23.0
104.14,0.487,0.549,2.0
0.0,0.0,0.0,0.0
49.933,0.202,-0.307,0.0
40.129,0.15,-0.474,0.0
119.854,0.411,1.868,34.0
111.055,0.344,1.101,8.0
94.357,0.264,0.401,2.0
0.0,0.0,0.0,0.0
49.767,0.107,-0.357,0.0
37.878,0.069,-0.486,0.0
111.139,0.167,1.62,18.0
0.0,0.0,0.0,0.0
95.563,0.084,0.311,4.0
0.0,0.0,0.0,0.0
45.389,0.011,-0.37,2.0
0.0,0.0,0.0,0.0
111.129,-0.044,1.512,11.0
111.207,-0.081,0.883,12.0
0.0,0.0,0.0,0.0
0.0,0.0,0.0,0.0
45.356,-0.077,-0.413,0.0
0.0,0.0,0.0,0.0
119.681,-0.279,1.516,6.0
111.148,-0.296,0.779,9.0
0.0,0.0,0.0,0.0
53.278,-0.177,-0.234,0.0
45.034,-0.164,-0.452,0.0
34.922,-0.139,-0.548,0.0
119.697,-0.514,1.408,12.0
110.81,-0.511,0.678,4.0
0.0,0.0,0.0,0.0
0.0,0.0,0.0,0.0
0.0,0.0,0.0,0.0
0.0,0.0,0.0,0.0
119.695,-0.75,1.304,17.0
110.887,-0.732,0.582,5.0
0.0,0.0,0.0,0.0
0.0,0.0,0.0,0.0
40.549,-0.308,-0.477,0.0
0.0,0.0,0.0,0.0
119.679,-0.985,1.204,20.0
0.0,0.0,0.0,0.0
0.0,0.0,0.0,0.0
0.0,0.0,0.0,0.0
0.0,0.0,0.0,0.0
31.216,-0.31,-0.569,0.0
119.766,-1.226,1.109,107.0
0.0,0.0,0.0,0.0
0.0,0.0,0.0,0.0
47.443,-0.534,-0.366,0.0
0.0,0.0,0.0,0.0
30.829,-0.368,-0.585,0.0
139.204,-1.703,1.184,22.0
0.0,0.0,0.0,0.0
0.0,0.0,0.0,0.0
46.816,-0.621,-0.397,0.0
36.06,-0.49,-0.508,0.0
30.372,-0.424,-0.599,0.0
138.828,-1.978,1.08,23.0
0.0,0.0,0.0,0.0
0.0,0.0,0.0,0.0
43.491,-0.665,-0.399,0.0
0.0,0.0,0.0,0.0
0.0,0.0,0.0,0.0
139.087,-2.264,0.986,11.0
0.0,0.0,0.0,0.0
0.0,0.0,0.0,0.0
42.003,-0.727,-0.414,0.0
34.903,-0.616,-0.54,0.0
29.248,-0.526,-0.616,0.0
138.92,-2.542,0.895,12.0
0.0,0.0,0.0,0.0
0.0,0.0,0.0,0.0
41.956,-0.811,-0.44,0.0
34.263,-0.675,-0.551,0.0
0.0,0.0,0.0,0.0
138.869,-2.823,0.809,4.0
0.0,0.0,0.0,0.0
0.0,0.0,0.0,0.0
0.0,0.0,0.0,0.0
32.631,-0.709,-0.544,0.0
28.361,-0.627,-0.632,0.0
0.0,0.0,0.0,0.0
0.0,0.0,0.0,0.0
54.377,-1.255,-0.323,0.0
0.0,0.0,0.0,0.0
0.0,0.0,0.0,0.0
21.904,-0.528,-0.5,0.0
0.0,0.0,0.0,0.0
0.0,0.0,0.0,0.0
0.0,0.0,0.0,0.0
0.0,0.0,0.0,0.0
31.654,-0.818,-0.562,0.0
21.866,-0.572,-0.51,163.0
0.0,0.0,0.0,0.0
0.0,0.0,0.0,0.0
48.042,-1.305,-0.334,1.0
37.933,-1.044,-0.479,0.0
22.02,-0.614,-0.401,0.0
21.867,-0.618,-0.521,161.0
0.0,0.0,0.0,0.0
0.0,0.0,0.0,0.0
0.0,0.0,0.0,0.0
37.994,-1.124,-0.497,0.0
31.214,-0.935,-0.583,0.0
21.895,-0.663,-0.531,0.0
0.0,0.0,0.0,0.0
0.0,0.0,0.0,0.0
47.547,-1.487,-0.372,0.0
38.047,-1.204,-0.513,0.0
0.0,0.0,0.0,0.0
26.624,-0.862,-0.656,0.0
0.0,0.0,0.0,0.0
0.0,0.0,0.0,0.0
46.962,-1.565,-0.385,0.0
37.854,-1.275,-0.525,0.0
30.327,-1.033,-0.589,0.0
26.265,-0.904,-0.657,0.0
0.0,0.0,0.0,0.0
43.818,-1.534,-0.13,0.0
0.0,0.0,0.0,0.0
37.68,-1.347,-0.535,0.0
30.17,-1.089,-0.596,0.0
26.226,-0.956,-0.664,0.0
0.0,0.0,0.0,0.0
0.0,0.0,0.0,0.0
45.37,-1.699,-0.4,0.0
0.0,0.0,0.0,0.0
29.471,-1.125,-0.591,0.0
25.888,-0.998,-0.663,0.0
0.0,0.0,0.0,0.0
58.24,-2.279,-0.206,0.0
0.0,0.0,0.0,0.0
35.279,-1.407,-0.52,0.0
0.0,0.0,0.0,0.0
0.0,0.0,0.0,0.0
0.0,0.0,0.0,0.0
0.0,0.0,0.0,0.0
0.0,0.0,0.0,0.0
0.0,0.0,0.0,0.0
0.0,0.0,0.0,0.0
0.0,0.0,0.0,0.0
0.0,0.0,0.0,0.0
0.0,0.0,0.0,0.0
43.376,-1.891,-0.412,0.0
35.273,-1.551,-0.534,0.0
29.422,-1.304,-0.608,0.0
0.0,0.0,0.0,0.0
0.0,0.0,0.0,0.0
19.994,-0.905,-0.082,0.0
20.001,-0.913,-0.193,14.0
20.007,-0.92,-0.305,15.0
20.057,-0.93,-0.417,8.0
24.637,-1.152,-0.649,0.0
20.032,-0.94,0.026,0.0
19.997,-0.946,-0.084,20.0
19.998,-0.953,-0.195,29.0
20.002,-0.961,-0.307,26.0
20.034,-0.97,-0.419,26.0
20.072,-0.979,-0.531,23.0
20.014,-0.98,0.024,13.0
19.984,-0.986,-0.085,29.0
19.994,-0.993,-0.196,29.0
20.014,-1.002,-0.309,26.0
20.029,-1.01,-0.42,31.0
20.055,-1.019,-0.531,31.0
19.985,-1.019,0.023,23.0
19.991,-1.026,-0.086,27.0
20.023,-1.036,-0.197,25.0
20.027,-1.043,-0.31,4.0
20.041,-1.051,-0.42,10.0
20.063,-1.06,-0.532,14.0
19.981,-1.059,0.023,28.0
20.015,-1.068,-0.086,24.0
42.488,-2.283,-0.418,0.0
0.0,0.0,0.0,0.0
29.067,-1.584,-0.609,0.0
25.285,-1.387,-0.67,0.0
20.007,-1.1,0.024,23.0
20.04,-1.109,-0.086,0.0
0.0,0.0,0.0,0.0
0.0,0.0,0.0,0.0
0.0,0.0,0.0,0.0
20.002,-1.137,-0.528,0.0
19.974,-1.138,0.025,0.0
20.011,-1.147,-0.084,0.0
20.002,-1.154,-0.194,5.0
19.988,-1.161,-0.306,19.0
19.992,-1.168,-0.416,75.0
19.987,-1.176,-0.526,150.0
20.001,-1.179,0.027,150.0
19.983,-1.185,-0.081,151.0
19.98,-1.192,-0.191,151.0
19.984,-1.2,-0.303,150.0
19.983,-1.207,-0.413,150.0
19.962,-1.213,-0.523,7.0
19.996,-1.218,0.03,78.0
20.029,-1.227,-0.079,27.0
20.042,-1.235,-0.189,26.0
20.058,-1.243,-0.301,18.0
20.089,-1.253,-0.412,26.0
20.11,-1.262,-0.523,25.0
20.002,-1.257,0.034,27.0
20.001,-1.264,-0.075,29.0
20.009,-1.272,-0.184,29.0
20.047,-1.281,-0.297,24.0
20.053,-1.289,-0.407,32.0
20.091,-1.299,-0.518,34.0
19.995,-1.295,0.038,28.0
19.994,-1.301,-0.07,30.0
20.011,-1.31,-0.18,30.0
20.044,-1.319,-0.292,25.0
20.072,-1.328,-0.403,23.0
20.097,-1.337,-0.513,21.0
20.0,-1.333,0.043,19.0
20.004,-1.34,-0.065,23.0
20.029,-1.349,-0.175,20.0
20.033,-1.356,-0.287,13.0
20.1,-1.368,-0.398,0.0
0.0,0.0,0.0,0.0
20.066,-1.375,0.049,0.0
20.043,-1.38,-0.059,8.0
20.007,-1.385,-0.169,0.0
0.0,0.0,0.0,0.0
30.504,-2.134,-0.594,0.0
26.457,-1.861,-0.66,0.0
0.0,0.0,0.0,0.0
48.717,-3.447,-0.129,1.0
43.467,-3.091,-0.352,1.0
38.243,-2.733,-0.523,0.0
30.824,-2.213,-0.59,0.0
0.0,0.0,0.0,0.0
82.322,-5.948,0.261,1.0
0.0,0.0,0.0,0.0
39.984,-2.917,-0.309,1.0
38.278,-2.806,-0.509,1.0
0.0,0.0,0.0,0.0
26.808,-1.984,-0.649,0.0
80.884,-5.993,0.289,3.0
0.0,0.0,0.0,0.0
40.475,-3.026,-0.296,3.0
34.663,-2.604,-0.446,1.0
0.0,0.0,0.0,0.0
27.226,-2.064,-0.648,0.0
72.387,-5.493,0.289,2.0
56.948,-4.341,-0.082,1.0
40.18,-3.076,-0.277,15.0
33.024,-2.539,-0.41,1.0
31.539,-2.436,-0.564,0.0
27.602,-2.141,-0.644,0.0
67.86,-5.269,0.302,87.0
51.75,-4.035,-0.05,5.0
40.636,-3.183,-0.261,14.0
34.313,-2.699,-0.41,11.0
29.264,-2.312,-0.509,2.0
0.0,0.0,0.0,0.0
81.873,-6.501,0.406,11.0
51.779,-4.129,-0.024,5.0
40.66,-3.255,-0.24,6.0
35.455,-2.851,-0.406,4.0
28.696,-2.317,-0.484,1.0
26.771,-2.171,-0.597,1.0
85.43,-6.933,0.468,5.0
56.09,-4.569,0.003,5.0
47.432,-3.879,-0.255,1.0
35.335,-2.902,-0.385,54.0
29.114,-2.4,-0.475,15.0
25.313,-2.096,-0.551,2.0
85.001,-7.042,0.513,12.0
56.442,-4.693,0.034,5.0
44.689,-3.731,-0.214,19.0
35.597,-2.983,-0.368,62.0
28.567,-2.403,-0.45,23.0
25.085,-2.119,-0.531,2.0
83.524,-7.06,0.554,6.0
56.532,-4.796,0.069,5.0
45.367,-3.863,-0.19,19.0
35.639,-3.046,-0.346,6.0
29.41,-2.524,-0.445,19.0
25.501,-2.197,-0.524,14.0
87.762,-7.564,0.638,3.0
67.505,-5.839,0.125,4.0
0.0,0.0,0.0,0.0
35.643,-3.106,-0.323,0.0
29.867,-2.612,-0.433,150.0
24.85,-2.181,-0.494,22.0
89.393,-7.851,0.708,4.0
57.933,-5.105,0.145,2.0
47.193,-4.173,-0.136,21.0
39.159,-3.475,-0.329,3.0
29.844,-2.658,-0.412,17.0
25.271,-2.259,-0.486,19.0
89.411,-7.995,0.77,6.0
63.058,-5.657,0.202,3.0
47.912,-4.313,-0.105,22.0
37.879,-3.421,-0.291,5.0
29.856,-2.706,-0.391,29.0
26.935,-2.45,-0.499,7.0
111.288,-10.125,1.039,8.0
71.97,-6.569,0.282,7.0
48.144,-4.408,-0.071,13.0
0.0,0.0,0.0,0.0
29.855,-2.752,-0.369,38.0
28.544,-2.64,-0.507,0.0
111.197,-10.288,1.119,10.0
78.353,-7.272,0.366,2.0
48.621,-4.527,-0.034,6.0
40.67,-3.798,-0.253,16.0
29.851,-2.796,-0.346,1.0
29.195,-2.744,-0.496,0.0
111.449,-10.478,1.208,17.0
83.143,-7.84,0.452,10.0
50.818,-4.806,0.002,24.0
41.334,-3.921,-0.224,16.0
35.6,-3.388,-0.385,12.0
29.253,-2.793,-0.474,4.0
111.663,-10.662,1.3,12.0
85.161,-8.155,0.532,14.0
50.926,-4.89,0.043,21.0
42.812,-4.123,-0.198,19.0
35.697,-3.448,-0.357,19.0
23.715,-2.298,-0.365,0.0
114.968,-11.141,1.432,5.0
85.248,-8.284,0.602,13.0
51.208,-4.99,0.086,4.0
43.785,-4.278,-0.166,19.0
36.067,-3.534,-0.331,12.0
30.147,-2.963,-0.439,2.0
119.099,-11.707,1.584,8.0
87.793,-8.652,0.695,4.0
53.966,-5.333,0.137,3.0
44.753,-4.434,-0.132,19.0
37.265,-3.702,-0.31,16.0
29.91,-2.98,-0.41,28.0
135.451,-13.498,1.92,18.0
87.806,-8.772,0.772,5.0
63.464,-6.357,0.217,1.0
0.0,0.0,0.0,0.0
38.145,-3.841,-0.283,21.0
30.335,-3.063,-0.388,25.0
135.419,-13.674,2.041,150.0
98.347,-9.956,0.953,6.0
53.475,-5.426,0.231,1.0
46.817,-4.763,-0.054,21.0
38.69,-3.946,-0.252,14.0
30.813,-3.15,-0.366,13.0
135.417,-13.848,2.165,22.0
104.618,-10.724,1.11,12.0
79.841,-8.203,0.418,10.0
47.871,-4.93,-0.01,22.0
33.108,-3.418,-0.185,48.0
0.0,0.0,0.0,0.0
104.656,-10.832,1.77,7.0
104.549,-10.845,1.208,5.0
33.123,-3.444,0.205,9.0
33.124,-3.452,0.023,68.0
33.095,-3.457,-0.153,69.0
33.056,-3.461,-0.331,57.0
33.159,-3.472,0.592,1.0
33.161,-3.479,0.415,63.0
33.133,-3.484,0.236,71.0
33.094,-3.488,0.055,79.0
33.099,-3.497,-0.121,76.0
33.076,-3.502,-0.298,71.0
33.146,-3.51,0.625,75.0
33.129,-3.515,0.447,75.0
33.109,-3.52,0.269,81.0
33.095,-3.526,0.088,81.0
33.104,-3.535,-0.088,76.0
33.099,-3.542,-0.265,43.0
33.124,-3.545,0.658,91.0
33.137,-3.554,0.481,81.0
33.123,-3.559,0.303,76.0
33.091,-3.563,0.122,52.0
33.128,-3.574,-0.054,38.0
37.552,-4.06,-0.263,14.0
33.134,-3.582,0.692,85.0
33.139,-3.59,0.515,74.0
33.128,-3.595,0.337,43.0
33.113,-3.6,0.156,5.0
46.711,-5.089,-0.029,20.0
38.412,-4.193,-0.229,19.0
33.142,-3.618,0.727,48.0
33.157,-3.626,0.55,28.0
110.601,-12.12,1.243,9.0
83.469,-9.163,0.482,10.0
47.735,-5.25,0.02,22.0
38.881,-4.284,-0.191,14.0
33.179,-3.656,0.762,1.0
118.916,-13.126,2.098,14.0
112.491,-12.439,1.382,4.0
85.247,-9.443,0.583,13.0
45.804,-5.082,0.068,3.0
0.0,0.0,0.0,0.0
75.174,-8.357,1.808,26.0
119.023,-13.253,2.228,24.0
114.186,-12.735,1.526,10.0
90.203,-10.077,0.714,6.0
50.379,-5.637,0.129,6.0
42.444,-4.757,-0.117,17.0
74.377,-8.338,1.872,33.0
75.204,-8.444,1.49,26.0
75.299,-8.468,1.09,22.0
75.318,-8.483,0.68,7.0
63.766,-7.193,0.235,4.0
0.0,0.0,0.0,0.0
74.432,-8.412,1.955,29.0
75.17,-8.507,1.573,24.0
75.233,-8.526,1.172,27.0
75.253,-8.54,0.762,23.0
75.188,-8.546,0.36,10.0
46.321,-5.272,-0.025,20.0
74.897,-8.528,2.051,17.0
75.171,-8.569,1.657,19.0
75.187,-8.582,1.254,34.0
75.206,-8.597,0.846,32.0
75.188,-8.606,0.445,19.0
46.882,-5.374,0.026,6.0
0.0,0.0,0.0,0.0
75.165,-8.628,1.741,15.0
74.482,-8.561,1.328,35.0
75.207,-8.655,0.931,31.0
75.224,-8.669,0.529,30.0
0.0,0.0,0.0,0.0
78.269,-9.034,2.322,12.0
119.139,-13.767,2.898,8.0
73.679,-8.524,1.398,51.0
75.219,-8.713,1.019,28.0
75.216,-8.723,0.617,28.0
51.415,-5.97,0.148,18.0
74.667,-8.672,2.302,7.0
73.262,-8.518,1.866,11.0
73.52,-8.557,1.48,33.0
75.265,-8.769,1.106,4.0
75.229,-8.775,0.704,25.0
66.147,-7.725,0.266,2.0
74.572,-8.712,2.386,16.0
73.177,-8.557,1.95,19.0
73.41,-8.592,1.563,7.0
118.672,-13.904,1.883,18.0
91.153,-10.69,0.959,7.0
75.206,-8.829,0.39,10.0
78.319,-9.198,2.596,24.0
78.021,-9.171,2.17,4.0
73.553,-8.653,1.652,7.0
73.211,-8.621,1.246,3.0
107.892,-12.717,1.261,2.0
84.087,-9.921,0.534,14.0
74.796,-8.828,2.568,11.0
78.634,-9.288,2.279,11.0
101.57,-12.007,2.402,11.0
73.287,-8.671,1.334,5.0
107.707,-12.754,1.387,7.0
84.674,-10.035,0.638,11.0
75.188,-8.915,2.669,9.0
78.608,-9.326,2.37,24.0
73.321,-8.705,1.82,3.0
73.59,-8.744,1.426,8.0
73.125,-8.695,1.027,34.0
89.776,-10.683,0.782,9.0
78.073,-9.295,2.865,10.0
75.038,-8.939,2.352,11.0
73.279,-8.735,1.906,10.0
73.43,-8.758,1.511,9.0
73.158,-8.732,1.114,25.0
0.0,0.0,0.0,0.0
75.454,-9.017,2.859,4.0
75.08,-8.977,2.443,12.0
73.882,-8.838,2.009,13.0
72.888,-8.724,1.586,22.0
73.302,-8.779,1.204,6.0
100.929,-12.096,1.12,6.0
73.465,-8.809,2.871,20.0
78.034,-9.36,2.633,9.0
78.67,-9.441,2.234,8.0
72.845,-8.746,1.672,33.0
73.264,-8.801,1.291,13.0
73.178,-8.796,0.899,3.0
73.883,-8.885,2.977,8.0
78.266,-9.415,2.734,5.0
78.781,-9.481,2.332,8.0
72.907,-8.777,1.761,23.0
73.192,-8.815,1.377,30.0
73.256,-8.827,0.987,12.0
75.741,-9.132,3.142,8.0
75.302,-9.081,2.721,8.0
75.049,-9.053,2.311,8.0
73.002,-8.809,1.85,12.0
73.107,-8.824,1.463,18.0
73.28,-8.849,1.075,10.0
74.051,-8.947,3.161,12.0
75.77,-9.156,2.829,20.0
75.135,-9.081,2.404,12.0
73.0,-8.825,1.937,7.0
73.265,-8.86,1.553,15.0
73.597,-8.902,1.168,9.0
74.168,-8.977,3.254,15.0
75.514,-9.141,2.908,19.0
75.319,-9.118,2.499,12.0
72.914,-8.828,2.021,10.0
73.317,-8.879,1.641,7.0
73.615,-8.917,1.255,16.0
74.112,-8.983,3.34,19.0
75.741,-9.18,3.007,11.0
75.41,-9.141,2.591,18.0
72.938,-8.841,2.109,6.0
94.123,-11.41,2.218,6.0
73.564,-8.919,1.341,6.0
73.596,-8.93,3.403,22.0
75.612,-9.173,3.09,27.0
75.466,-9.155,2.682,18.0
75.031,-9.102,2.257,8.0
73.195,-8.879,1.81,7.0
73.372,-8.901,1.424,7.0
73.503,-8.924,3.486,34.0
75.256,-9.135,3.166,19.0
75.495,-9.163,2.771,20.0
75.098,-9.113,2.348,18.0
73.219,-8.884,1.898,4.0
73.434,-8.91,1.511,12.0
73.368,-8.91,3.567,30.0
74.057,-8.991,3.203,9.0
75.444,-9.157,2.859,23.0
75.292,-9.137,2.442,25.0
92.878,-11.269,2.516,5.0
73.508,-8.918,1.598,8.0
72.492,-8.802,3.609,23.0
74.153,-9.001,3.293,15.0
75.575,-9.17,2.952,13.0
75.412,-9.148,2.534,22.0
72.945,-8.846,2.061,9.0
94.081,-11.408,2.154,5.0
72.389,-8.785,3.688,24.0
73.786,-8.951,3.363,18.0
75.765,-9.187,3.047,12.0
75.425,-9.142,2.622,20.0
74.989,-9.087,2.204,2.0
73.119,-8.858,1.757,7.0
72.965,-8.847,3.801,13.0
73.431,-8.899,3.43,28.0
0.0,0.0,0.0,0.0
75.524,-9.144,2.711,19.0
75.06,-9.084,2.292,9.0
73.058,-8.839,1.839,8.0
73.179,-8.862,3.895,13.0
73.319,-8.873,3.509,35.0
73.998,-8.951,3.143,10.0
75.764,-9.159,2.805,18.0
75.147,-9.08,2.379,11.0
73.014,-8.818,1.92,8.0
72.733,-8.793,3.953,9.0
73.178,-8.841,3.584,28.0
74.037,-8.939,3.228,16.0
75.75,-9.14,2.888,14.0
77.85,-9.388,2.551,9.0
72.948,-8.792,1.999,9.0
70.152,-8.464,3.891,9.0
72.376,-8.726,3.625,28.0
73.853,-8.898,3.301,22.0
73.553,-8.855,2.886,9.0
78.033,-9.388,2.643,10.0
78.699,-9.463,2.243,7.0
70.088,-8.436,3.964,12.0
72.371,-8.703,3.705,47.0
73.631,-8.848,3.373,26.0
73.959,-8.881,2.983,11.0
78.598,-9.431,2.748,10.0
78.688,-9.435,2.329,11.0
69.921,-8.393,4.032,22.0
72.445,-8.688,3.787,17.0
73.511,-8.808,3.447,30.0
73.458,-8.794,3.042,14.0
78.474,-9.387,2.828,10.0
74.983,-8.962,2.299,12.0
69.91,-8.365,4.106,7.0
70.219,-8.393,3.746,12.0
0.0,0.0,0.0,0.0
73.333,-8.749,3.115,20.0
75.498,-8.999,2.8,9.0
75.086,-8.942,2.381,15.0
71.979,-8.582,4.304,7.0
70.187,-8.359,3.818,21.0
0.0,0.0,0.0,0.0
73.852,-8.778,3.213,23.0
75.419,-8.955,2.876,8.0
75.015,-8.899,2.457,15.0
71.99,-8.55,4.379,23.0
70.16,-8.323,3.889,12.0
0.0,0.0,0.0,0.0
73.55,-8.706,3.276,42.0
73.496,-8.69,2.877,11.0
74.781,-8.833,2.525,9.0
71.993,-8.514,4.453,15.0
70.105,-8.28,3.957,11.0
72.326,-8.532,3.692,16.0
73.349,-8.643,3.341,35.0
73.114,-8.605,2.936,16.0
74.671,-8.779,2.597,9.0
75.978,-8.943,4.776,4.0
70.227,-8.255,4.035,15.0
71.943,-8.446,3.744,13.0
73.545,-8.623,3.423,39.0
73.081,-8.559,3.006,16.0
74.866,-8.757,2.676,7.0
33.36,-3.907,2.13,1.0
70.26,-8.217,4.106,10.0
72.104,-8.421,3.823,14.0
73.431,-8.564,3.489,35.0
73.174,-8.523,3.081,34.0
72.625,-8.449,2.666,17.0
33.33,-3.882,2.16,2.0
71.747,-8.344,4.261,28.0
70.114,-8.143,3.784,8.0
73.033,-8.47,3.538,35.0
73.355,-8.495,3.158,28.0
72.585,-8.395,2.731,21.0
74.409,-8.617,4.892,12.0
71.923,-8.316,4.338,14.0
70.132,-8.097,3.849,9.0
72.996,-8.415,3.604,38.0
73.367,-8.445,3.225,31.0
73.245,-8.419,2.823,37.0
74.412,-8.564,4.96,19.0
72.728,-8.356,4.453,14.0
72.195,-8.282,4.028,10.0
72.845,-8.343,3.662,41.0
73.51,-8.406,3.297,18.0
73.399,-8.381,2.894,37.0
77.512,-8.862,5.236,6.0
74.442,-8.496,4.624,8.0
72.193,-8.226,4.091,29.0
0.0,0.0,0.0,0.0
72.703,-8.257,3.324,11.0
0.0,0.0,0.0,0.0
33.238,-3.773,2.274,16.0
33.237,-3.766,2.093,2.0
72.13,-8.16,4.15,14.0
70.809,-7.996,3.682,12.0
69.605,-7.847,3.242,19.0
72.303,-8.138,2.974,12.0
33.223,-3.744,2.301,75.0
33.206,-3.735,2.118,53.0
33.19,-3.726,1.937,44.0
33.191,-3.719,1.753,38.0
33.199,-3.714,1.573,31.0
33.195,-3.707,1.392,16.0
33.22,-3.714,2.328,82.0
33.204,-3.705,2.145,74.0
33.2,-3.697,1.964,81.0
33.19,-3.689,1.78,78.0
33.182,-3.682,1.598,77.0
33.176,-3.674,1.418,68.0
33.229,-3.685,2.354,73.0
33.209,-3.675,2.172,57.0
33.201,-3.667,1.99,76.0
33.183,-3.658,1.804,81.0
33.175,-3.65,1.623,78.0
33.166,-3.642,1.442,77.0
33.248,-3.655,2.381,7.0
33.216,-3.644,2.197,28.0
33.235,-3.639,2.017,61.0
33.213,-3.629,1.831,66.0
33.188,-3.618,1.648,66.0
33.183,-3.611,1.467,68.0
70.242,-7.654,5.082,25.0
69.725,-7.581,4.663,26.0
70.012,-7.595,4.299,9.0
70.164,-7.595,3.918,9.0
33.203,-3.587,1.672,2.0
33.191,-3.578,1.491,15.0
33.313,-3.596,2.433,54.0
33.304,-3.586,2.25,49.0
70.243,-7.547,4.362,15.0
70.314,-7.539,3.974,24.0
69.517,-7.437,3.548,19.0
71.754,-7.66,3.271,30.0
33.293,-3.559,2.454,43.0
33.302,-3.551,2.272,55.0
0.0,0.0,0.0,0.0
70.269,-7.459,4.016,35.0
69.637,-7.375,3.599,25.0
71.921,-7.6,3.324,33.0
33.311,-3.524,2.477,70.0
33.287,-3.513,2.292,50.0
69.141,-7.28,4.381,9.0
69.324,-7.281,4.005,17.0
71.429,-7.485,3.735,10.0
71.988,-7.527,3.37,35.0
33.282,-3.484,2.494,54.0
33.28,-3.475,2.311,51.0
69.179,-7.205,4.424,16.0
68.841,-7.152,4.017,27.0
71.462,-7.407,3.779,25.0
71.956,-7.44,3.41,26.0
33.266,-3.443,2.512,53.0
33.273,-3.435,2.329,52.0
69.335,-7.141,4.473,13.0
68.892,-7.077,4.058,17.0
71.353,-7.312,3.81,26.0
76.652,-7.836,3.673,9.0
33.265,-3.404,2.53,54.0
33.261,-3.394,2.346,53.0
69.539,-7.078,4.522,10.0
69.021,-7.007,4.101,13.0
71.431,-7.233,3.852,15.0
74.726,-7.548,3.618,7.0
33.25,-3.362,2.545,50.0
33.249,-3.353,2.361,53.0
33.254,-3.344,2.178,34.0
69.275,-6.948,4.15,26.0
71.561,-7.159,3.892,21.0
71.052,-7.089,3.473,9.0
33.238,-3.319,2.56,55.0
33.244,-3.311,2.376,53.0
33.241,-3.301,2.192,43.0
0.0,0.0,0.0,0.0
71.129,-7.025,3.9,19.0
71.224,-7.015,3.513,16.0
33.237,-3.277,2.574,55.0
33.243,-3.268,2.39,53.0
33.248,-3.259,2.207,45.0
71.758,-7.014,4.359,20.0
71.833,-7.002,3.967,13.0
71.444,-6.945,3.552,8.0
33.223,-3.232,2.586,55.0
33.237,-3.224,2.402,53.0
33.231,-3.214,2.218,47.0
69.978,-6.748,4.277,36.0
74.465,-7.16,4.14,5.0
0.0,0.0,0.0,0.0
33.221,-3.188,2.598,54.0
33.213,-3.177,2.413,51.0
33.225,-3.169,2.229,49.0
69.889,-6.646,4.295,18.0
70.372,-6.672,3.935,16.0
70.202,-6.636,3.538,10.0
33.207,-3.142,2.607,19.0
33.203,-3.131,2.422,17.0
33.215,-3.123,2.239,23.0
69.882,-6.55,4.315,29.0
69.653,-6.509,3.915,7.0
71.416,-6.653,3.619,24.0
71.155,-6.635,5.606,13.0
70.448,-6.548,5.159,29.0
70.558,-6.537,4.774,19.0
70.346,-6.496,4.362,14.0
69.774,-6.423,3.939,25.0
71.434,-6.555,3.637,11.0
71.083,-6.528,5.618,16.0
70.417,-6.446,5.172,28.0
70.745,-6.454,4.803,27.0
71.322,-6.486,4.438,18.0
71.256,-6.459,4.038,29.0
71.39,-6.451,3.65,14.0
70.947,-6.415,5.622,13.0
70.413,-6.344,5.186,25.0
70.541,-6.335,4.802,23.0
71.036,-6.357,4.434,13.0
70.64,-6.302,4.016,22.0
67.978,-6.044,3.487,23.0
71.019,-6.319,5.639,12.0
69.933,-6.2,5.162,12.0
70.746,-6.251,4.827,31.0
71.114,-6.261,4.448,17.0
71.081,-6.238,4.051,16.0
67.962,-5.944,3.495,28.0
70.907,-6.205,5.638,10.0
70.981,-6.189,5.247,22.0
70.226,-6.102,4.799,14.0
75.431,-6.531,4.726,8.0
71.007,-6.126,4.053,22.0
67.952,-5.842,3.5,25.0
70.604,-6.074,5.62,18.0
70.752,-6.064,5.236,15.0
70.182,-5.993,4.801,27.0
71.457,-6.081,4.481,25.0
71.455,-6.058,4.083,28.0
67.939,-5.74,3.503,30.0
70.932,-5.995,5.649,6.0
70.575,-5.943,5.225,17.0
70.262,-5.895,4.808,28.0
71.668,-5.991,4.497,10.0
71.408,-5.947,4.081,11.0
67.953,-5.639,3.504,29.0
73.014,-6.06,5.815,22.0
70.534,-5.832,5.222,13.0
71.054,-5.852,4.862,35.0
71.992,-5.908,4.515,15.0
71.563,-5.85,4.088,24.0
71.15,-5.795,3.667,16.0
73.139,-5.958,5.823,11.0
70.561,-5.725,5.221,10.0
71.126,-5.748,4.863,29.0
71.813,-5.781,4.5,8.0
71.335,-5.72,4.07,26.0
71.273,-5.694,3.668,20.0
73.126,-5.842,5.815,10.0
70.909,-5.641,5.24,10.0
70.746,-5.606,4.831,17.0
71.812,-5.669,4.492,19.0
67.954,-5.343,3.87,25.0
67.945,-5.321,3.489,51.0
67.996,-5.325,5.399,21.0
67.985,-5.302,5.015,69.0
67.967,-5.279,4.631,83.0
67.962,-5.257,4.242,74.0
67.967,-5.236,3.861,38.0
67.925,-5.213,3.477,12.0
68.01,-5.218,5.389,8.0
74.638,-5.702,5.494,10.0
71.236,-5.42,4.841,11.0
72.22,-5.471,4.494,12.0
71.728,-5.412,4.061,29.0
67.891,-5.102,3.462,53.0
73.411,-5.514,5.802,17.0
78.922,-5.903,5.791,11.0
71.955,-5.359,4.875,4.0
71.903,-5.333,4.458,28.0
71.39,-5.272,4.025,31.0
67.9,-4.994,3.447,58.0
73.44,-5.4,5.786,11.0
79.139,-5.793,5.787,12.0
71.56,-5.215,4.829,16.0
71.686,-5.202,4.426,24.0
71.069,-5.135,3.988,32.0
67.898,-4.885,3.428,60.0
73.846,-5.31,5.797,24.0
72.277,-5.173,5.264,8.0
76.694,-5.465,5.152,11.0
71.626,-5.081,4.4,9.0
71.157,-5.025,3.97,10.0
67.889,-4.773,3.405,55.0
72.36,-5.085,5.656,21.0
72.037,-5.038,5.222,11.0
71.582,-4.983,4.784,22.0
71.572,-4.96,4.371,18.0
70.53,-4.866,3.91,34.0
72.86,-5.004,3.628,7.0
72.519,-4.977,5.641,18.0
72.216,-4.932,5.207,9.0
71.607,-4.867,4.758,32.0
71.377,-4.83,4.331,40.0
70.539,-4.751,3.882,32.0
70.874,-4.751,3.5,9.0
71.695,-4.802,5.547,10.0
72.053,-4.802,5.165,11.0
71.598,-4.749,4.726,20.0
71.015,-4.688,4.279,17.0
70.457,-4.629,3.846,30.0
70.943,-4.639,3.472,21.0
71.85,-4.692,5.525,8.0
74.648,-4.851,5.316,11.0
71.712,-4.637,4.7,19.0
70.946,-4.565,4.24,13.0
70.653,-4.524,3.822,41.0
70.964,-4.522,3.437,12.0
73.439,-4.673,5.61,11.0
72.077,-4.565,5.096,7.0
71.599,-4.511,4.655,38.0
70.613,-4.427,4.183,45.0
70.887,-4.422,3.798,21.0
20.019,-1.243,0.959,7.0
72.77,-4.511,5.519,6.0
58.655,-3.617,4.114,32.0
58.795,-3.607,3.79,29.0
71.079,-4.338,4.17,33.0
19.978,-1.213,1.058,10.0
19.978,-1.207,0.945,22.0
58.841,-3.549,4.428,25.0
58.604,-3.516,4.076,32.0
58.73,-3.505,3.751,32.0
71.472,-4.243,4.15,22.0
19.966,-1.179,1.046,19.0
19.968,-1.173,0.932,24.0
58.777,-3.447,4.386,20.0
58.965,-3.439,4.063,33.0
58.906,-3.418,3.723,33.0
71.668,-4.136,4.115,22.0
19.972,-1.146,1.033,23.0
19.95,-1.139,0.918,22.0
58.759,-3.348,4.345,10.0
58.877,-3.336,4.018,33.0
58.682,-3.308,3.669,32.0
58.647,-3.287,3.327,19.0
19.953,-1.112,1.018,18.0
19.984,-1.108,0.906,23.0
64.201,-3.552,4.701,17.0
58.812,-3.236,3.971,23.0
58.551,-3.204,3.619,32.0
58.594,-3.189,3.281,17.0
19.978,-1.081,1.005,19.0
20.01,-1.076,0.892,5.0
64.228,-3.447,4.655,40.0
58.565,-3.125,3.909,32.0
58.408,-3.099,3.565,32.0
58.815,-3.102,3.248,28.0
20.022,-1.05,0.991,2.0
83.54,-4.357,3.661,29.0
59.958,-3.118,4.298,23.0
58.459,-3.022,3.855,32.0
58.41,-3.003,3.518,32.0
73.423,-3.753,3.996,13.0
73.679,-3.744,3.589,30.0
73.357,-3.705,3.155,22.0
57.056,-2.874,4.042,23.0
58.553,-2.931,3.812,32.0
58.232,-2.898,3.458,30.0
73.399,-3.631,3.932,16.0
83.496,-4.106,3.996,8.0
0.0,0.0,0.0,0.0
0.0,0.0,0.0,0.0
58.519,-2.833,3.759,32.0
58.214,-2.801,3.405,32.0
79.482,-3.8,4.186,15.0
83.433,-3.965,3.918,12.0
85.792,-4.052,3.538,13.0
58.982,-2.776,4.072,36.0
58.138,-2.719,3.68,32.0
58.19,-2.704,3.35,32.0
73.251,-3.383,3.79,21.0
85.671,-3.932,3.942,3.0
95.164,-4.341,3.835,23.0
58.185,-2.644,3.961,26.0
58.288,-2.631,3.633,19.0
67.3,-3.017,3.808,14.0
80.74,-3.596,4.098,33.0
94.221,-4.17,4.243,19.0
100.087,-4.401,3.934,17.0
