X,Y,Z,Reflectivity
10.508,1.071,-0.874,0.0
9.964,1.015,-0.887,0.0
13.621,1.383,-0.833,0.0
12.758,1.296,-0.854,0.0
11.794,1.197,-0.857,0.0
11.007,1.117,-0.864,0.0
10.369,1.052,-0.874,0.0
9.908,1.005,-0.892,0.0
13.491,1.364,-0.84,0.0
12.425,1.256,-0.845,0.0
11.622,1.174,-0.857,0.0
10.882,1.099,-0.866,0.0
10.353,1.046,-0.883,0.0
9.828,0.992,-0.895,0.0
13.289,1.337,-0.841,0.0
12.396,1.247,-0.856,0.0
11.459,1.152,-0.857,0.0
10.771,1.082,-0.868,0.0
10.251,1.03,-0.885,0.0
9.704,0.975,-0.894,0.0
13.177,1.319,-0.847,0.0
12.137,1.214,-0.85,0.0
11.304,1.13,-0.856,0.0
10.669,1.066,-0.871,0.0
10.22,1.021,-0.893,0.0
9.694,0.968,-0.903,0.0
13.081,1.301,-0.854,0.0
11.938,1.187,-0.848,0.0
11.204,1.114,-0.86,0.0
10.579,1.051,-0.874,0.0
10.058,0.999,-0.889,0.0
9.595,0.952,-0.903,0.0
12.829,1.269,-0.85,0.0
11.816,1.168,-0.85,0.0
11.07,1.093,-0.86,0.0
10.489,1.035,-0.876,0.0
10.01,0.988,-0.894,0.0
9.498,0.937,-0.903,0.0
12.536,1.231,-0.842,0.0
11.773,1.156,-0.858,0.0
11.017,1.081,-0.866,0.0
10.379,1.018,-0.877,0.0
9.887,0.969,-0.892,0.0
9.419,0.922,-0.904,0.0
12.438,1.213,-0.847,0.0
11.584,1.129,-0.855,0.0
10.889,1.061,-0.866,0.0
10.311,1.004,-0.88,0.0
9.73,0.947,-0.887,0.0
9.351,0.909,-0.906,0.0
12.335,1.194,-0.851,0.0
11.434,1.106,-0.854,0.0
10.783,1.042,-0.867,0.0
10.246,0.99,-0.884,0.0
9.714,0.938,-0.894,0.0
9.269,0.894,-0.906,0.0
12.182,1.17,-0.85,0.0
11.347,1.089,-0.857,0.0
10.713,1.027,-0.87,0.0
10.118,0.969,-0.881,0.0
9.73,0.932,-0.903,0.0
9.232,0.883,-0.91,0.0
12.017,1.145,-0.848,0.0
11.246,1.07,-0.858,0.0
10.596,1.008,-0.869,0.0
10.078,0.957,-0.886,0.0
9.611,0.912,-0.9,0.0
9.173,0.87,-0.911,0.0
11.899,1.124,-0.849,0.0
11.14,1.051,-0.859,0.0
10.5,0.99,-0.869,0.0
9.964,0.938,-0.883,0.0
9.521,0.896,-0.898,0.0
9.115,0.857,-0.912,0.0
11.837,1.108,-0.854,0.0
11.038,1.032,-0.859,0.0
10.457,0.977,-0.874,0.0
9.935,0.927,-0.888,0.0
9.465,0.882,-0.9,0.0
9.044,0.842,-0.912,0.0
11.741,1.088,-0.855,0.0
10.901,1.009,-0.856,0.0
10.383,0.96,-0.875,0.0
9.852,0.91,-0.887,0.0
9.48,0.875,-0.908,0.0
9.017,0.832,-0.915,0.0
11.619,1.066,-0.854,0.0
10.919,1.001,-0.865,0.0
10.34,0.947,-0.878,0.0
9.916,0.907,-0.9,0.0
9.385,0.858,-0.905,0.0
8.958,0.818,-0.915,0.0
11.481,1.043,-0.851,0.0
10.816,0.981,-0.863,0.0
10.277,0.931,-0.879,0.0
9.785,0.885,-0.894,0.0
9.353,0.846,-0.908,0.0
8.863,0.8,-0.911,0.0
11.433,1.027,-0.855,0.0
10.755,0.965,-0.865,0.0
10.217,0.915,-0.88,0.0
9.755,0.873,-0.897,0.0
9.252,0.827,-0.904,0.0
8.861,0.791,-0.916,0.0
11.323,1.006,-0.853,0.0
10.681,0.947,-0.865,0.0
10.174,0.901,-0.882,0.0
9.741,0.862,-0.901,0.0
9.23,0.816,-0.907,0.0
8.786,0.775,-0.913,0.0
11.3,0.992,-0.857,0.0
10.674,0.936,-0.87,0.0
10.095,0.884,-0.881,0.0
9.636,0.842,-0.896,0.0
9.154,0.799,-0.904,0.0
8.785,0.766,-0.918,0.0
11.239,0.975,-0.858,0.0
10.647,0.922,-0.873,0.0
10.119,0.875,-0.888,0.0
0.0,0.0,0.0,0.0
9.167,0.79,-0.91,0.0
8.764,0.754,-0.92,0.0
11.191,0.958,-0.86,0.0
10.554,0.902,-0.871,0.0
10.079,0.86,-0.889,0.0
0.0,0.0,0.0,0.0
9.14,0.778,-0.911,0.0
8.728,0.742,-0.92,0.0
11.096,0.937,-0.857,0.0
10.524,0.888,-0.873,0.0
10.023,0.844,-0.888,0.0
9.578,0.805,-0.904,0.0
9.036,0.759,-0.904,0.0
8.72,0.731,-0.922,0.0
11.071,0.923,-0.859,0.0
10.482,0.872,-0.873,0.0
9.965,0.828,-0.886,0.0
9.544,0.791,-0.904,0.0
9.119,0.755,-0.916,0.0
8.651,0.715,-0.918,0.0
11.0,0.904,-0.858,0.0
10.443,0.857,-0.873,0.0
9.964,0.816,-0.89,0.0
9.485,0.775,-0.902,0.0
9.052,0.739,-0.912,0.0
8.662,0.706,-0.922,0.0
11.012,0.892,-0.862,0.0
10.419,0.842,-0.874,0.0
9.952,0.803,-0.892,0.0
9.477,0.763,-0.904,0.0
9.01,0.724,-0.91,0.0
8.61,0.691,-0.919,0.0
10.934,0.872,-0.859,0.0
10.381,0.826,-0.874,0.0
9.875,0.785,-0.887,0.0
9.462,0.75,-0.905,0.0
8.977,0.711,-0.909,0.0
8.619,0.681,-0.922,0.0
10.943,0.859,-0.862,0.0
10.368,0.812,-0.875,0.0
9.864,0.772,-0.888,0.0
9.449,0.737,-0.905,0.0
8.943,0.697,-0.908,0.0
8.598,0.668,-0.921,0.0
10.903,0.843,-0.861,0.0
10.339,0.797,-0.875,0.0
9.876,0.76,-0.891,0.0
0.0,0.0,0.0,0.0
8.935,0.685,-0.908,0.0
8.589,0.657,-0.922,0.0
10.903,0.829,-0.862,0.0
10.378,0.787,-0.879,0.0
9.877,0.747,-0.892,0.0
0.0,0.0,0.0,0.0
8.929,0.673,-0.909,0.0
8.599,0.646,-0.924,0.0
10.918,0.816,-0.865,0.0
10.357,0.772,-0.878,0.0
9.897,0.736,-0.895,0.0
0.0,0.0,0.0,0.0
8.993,0.666,-0.916,0.0
8.568,0.633,-0.921,0.0
10.883,0.799,-0.862,0.0
10.344,0.758,-0.878,0.0
9.856,0.72,-0.892,0.0
0.0,0.0,0.0,0.0
8.973,0.652,-0.914,0.0
8.598,0.624,-0.924,0.0
10.898,0.786,-0.864,0.0
10.335,0.743,-0.877,0.0
9.849,0.706,-0.891,0.0
0.0,0.0,0.0,0.0
8.955,0.639,-0.912,0.0
8.567,0.61,-0.921,0.0
10.916,0.772,-0.865,0.0
10.367,0.731,-0.879,0.0
9.876,0.695,-0.893,0.0
9.382,0.659,-0.902,0.0
8.944,0.626,-0.91,0.0
8.562,0.598,-0.92,0.0
10.923,0.758,-0.865,0.0
10.382,0.719,-0.88,0.0
9.881,0.682,-0.893,0.0
9.411,0.648,-0.904,0.0
9.042,0.621,-0.919,0.0
8.604,0.589,-0.923,0.0
10.904,0.742,-0.862,0.0
10.372,0.704,-0.878,0.0
9.839,0.666,-0.888,0.0
9.452,0.638,-0.907,0.0
8.998,0.605,-0.914,0.0
8.622,0.579,-0.924,0.0
10.946,0.73,-0.863,0.0
10.359,0.689,-0.875,0.0
9.908,0.657,-0.892,0.0
9.447,0.624,-0.904,0.0
9.027,0.595,-0.915,0.0
8.627,0.567,-0.923,0.0
10.969,0.716,-0.863,0.0
10.354,0.674,-0.872,0.0
9.923,0.644,-0.891,0.0
9.499,0.615,-0.907,0.0
9.017,0.582,-0.912,0.0
8.618,0.554,-0.92,0.0
10.999,0.703,-0.863,0.0
10.431,0.664,-0.876,0.0
9.946,0.632,-0.891,0.0
9.465,0.599,-0.901,0.0
9.047,0.571,-0.912,0.0
8.69,0.547,-0.925,0.0
11.013,0.688,-0.861,0.0
10.474,0.652,-0.877,0.0
9.97,0.619,-0.89,0.0
9.508,0.589,-0.903,0.0
9.065,0.559,-0.911,0.0
8.695,0.535,-0.922,0.0
11.078,0.677,-0.862,0.0
10.509,0.64,-0.876,0.0
10.017,0.608,-0.891,0.0
9.538,0.577,-0.902,0.0
9.112,0.549,-0.912,0.0
8.697,0.523,-0.919,0.0
11.112,0.663,-0.86,0.0
10.51,0.625,-0.872,0.0
10.029,0.594,-0.888,0.0
9.547,0.564,-0.899,0.0
9.136,0.538,-0.911,0.0
8.723,0.512,-0.919,0.0
11.178,0.651,-0.861,0.0
10.601,0.615,-0.875,0.0
10.095,0.584,-0.889,0.0
9.591,0.553,-0.899,0.0
9.155,0.526,-0.909,0.0
8.791,0.503,-0.922,0.0
11.194,0.636,-0.857,0.0
10.618,0.601,-0.871,0.0
10.114,0.571,-0.886,0.0
9.648,0.542,-0.899,0.0
9.229,0.517,-0.912,0.0
8.827,0.492,-0.921,0.0
11.234,0.622,-0.854,0.0
10.664,0.589,-0.87,0.0
10.159,0.558,-0.884,0.0
9.718,0.532,-0.901,0.0
9.241,0.504,-0.908,0.0
8.85,0.481,-0.918,0.0
11.368,0.613,-0.858,0.0
10.753,0.578,-0.871,0.0
10.205,0.546,-0.882,0.0
9.752,0.52,-0.898,0.0
9.31,0.494,-0.909,0.0
8.875,0.469,-0.916,0.0
11.443,0.601,-0.857,0.0
10.783,0.564,-0.867,0.0
10.278,0.536,-0.882,0.0
9.83,0.51,-0.899,0.0
9.378,0.485,-0.91,0.0
8.914,0.459,-0.914,0.0
11.531,0.589,-0.856,0.0
10.874,0.553,-0.867,0.0
10.326,0.523,-0.88,0.0
9.851,0.497,-0.895,0.0
9.451,0.475,-0.91,0.0
9.014,0.451,-0.918,0.0
11.598,0.576,-0.853,0.0
10.997,0.544,-0.869,0.0
10.412,0.513,-0.88,0.0
9.917,0.486,-0.894,0.0
9.514,0.464,-0.909,0.0
9.034,0.439,-0.913,0.0
11.662,0.563,-0.849,0.0
11.076,0.532,-0.867,0.0
10.469,0.501,-0.877,0.0
9.945,0.474,-0.889,0.0
9.537,0.452,-0.904,0.0
9.096,0.429,-0.913,0.0
11.769,0.551,-0.848,0.0
11.177,0.521,-0.866,0.0
10.566,0.49,-0.877,0.0
10.037,0.464,-0.889,0.0
9.621,0.442,-0.905,0.0
9.175,0.42,-0.913,0.0
11.9,0.541,-0.848,0.0
11.257,0.509,-0.863,0.0
10.582,0.476,-0.869,0.0
10.135,0.454,-0.889,0.0
9.745,0.434,-0.908,0.0
9.233,0.41,-0.911,0.0
12.02,0.53,-0.846,0.0
11.317,0.496,-0.858,0.0
10.717,0.467,-0.871,0.0
10.174,0.441,-0.884,0.0
9.745,0.42,-0.899,0.0
9.328,0.401,-0.912,0.0
12.199,0.52,-0.848,0.0
11.372,0.482,-0.852,0.0
10.863,0.458,-0.873,0.0
10.266,0.431,-0.882,0.0
9.858,0.412,-0.901,0.0
9.355,0.389,-0.906,0.0
12.347,0.509,-0.846,0.0
11.532,0.473,-0.853,0.0
10.986,0.448,-0.872,0.0
10.383,0.421,-0.882,0.0
9.918,0.4,-0.896,0.0
9.463,0.38,-0.907,0.0
12.461,0.497,-0.842,0.0
11.644,0.461,-0.85,0.0
11.081,0.436,-0.869,1.0
10.472,0.41,-0.879,0.0
9.975,0.388,-0.891,0.0
9.564,0.37,-0.907,0.0
12.767,0.491,-0.849,0.0
11.807,0.452,-0.849,0.0
11.17,0.425,-0.864,0.0
10.561,0.399,-0.875,0.0
10.072,0.378,-0.889,0.0
9.694,0.362,-0.909,0.0
12.951,0.48,-0.848,0.0
11.954,0.441,-0.847,0.0
11.317,0.415,-0.863,0.0
10.721,0.39,-0.877,0.0
10.185,0.369,-0.888,0.0
9.741,0.35,-0.902,0.0
13.155,0.47,-0.846,0.0
12.173,0.432,-0.849,0.0
11.384,0.402,-0.855,0.0
10.853,0.381,-0.875,0.0
10.277,0.358,-0.884,0.0
9.822,0.34,-0.898,0.0
13.346,0.459,-0.844,0.0
12.368,0.423,-0.848,0.0
11.557,0.392,-0.855,0.0
10.964,0.37,-0.871,0.0
10.395,0.348,-0.882,0.0
9.927,0.33,-0.896,0.0
13.552,0.448,-0.84,0.0
12.5,0.41,-0.842,0.0
11.736,0.383,-0.854,0.0
11.113,0.36,-0.869,1.0
10.507,0.338,-0.879,0.0
10.055,0.321,-0.895,0.0
13.741,0.436,-0.835,0.0
12.712,0.401,-0.841,0.0
11.881,0.372,-0.85,0.0
11.254,0.35,-0.866,1.0
10.663,0.329,-0.878,0.0
10.161,0.311,-0.892,0.0
13.971,0.425,-0.832,0.0
13.099,0.396,-0.85,0.0
12.089,0.363,-0.849,0.0
11.382,0.339,-0.862,0.0
10.834,0.32,-0.878,0.0
10.267,0.301,-0.888,0.0
14.246,0.416,-0.83,0.0
13.298,0.385,-0.845,0.0
12.34,0.355,-0.851,0.0
11.48,0.327,-0.854,0.0
10.961,0.31,-0.874,0.0
10.386,0.292,-0.884,0.0
14.454,0.404,-0.822,0.0
13.529,0.375,-0.842,0.0
12.599,0.346,-0.851,0.0
11.663,0.318,-0.852,0.0
11.137,0.301,-0.873,1.0
10.501,0.282,-0.879,0.0
14.644,0.391,-0.813,0.0
13.812,0.366,-0.841,0.0
12.825,0.337,-0.849,0.0
11.869,0.309,-0.85,0.0
11.294,0.292,-0.869,0.0
10.71,0.274,-0.881,0.0
15.006,0.382,-0.812,0.0
13.971,0.353,-0.83,0.0
13.134,0.329,-0.85,0.0
12.152,0.302,-0.853,0.0
11.407,0.281,-0.861,0.0
10.876,0.265,-0.879,0.0
15.366,0.373,-0.809,0.0
14.257,0.343,-0.827,0.0
13.383,0.319,-0.847,0.0
12.379,0.292,-0.85,0.0
11.585,0.271,-0.858,0.0
11.049,0.256,-0.877,0.0
15.648,0.361,-0.801,0.0
14.592,0.333,-0.824,0.0
13.58,0.307,-0.839,0.0
12.535,0.281,-0.842,0.0
11.755,0.261,-0.852,0.0
11.215,0.247,-0.873,1.0
16.086,0.352,-0.799,0.0
14.921,0.323,-0.82,0.0
13.907,0.298,-0.838,0.0
13.046,0.277,-0.856,0.0
12.011,0.253,-0.852,0.0
11.374,0.237,-0.867,1.0
16.53,0.343,-0.795,0.0
15.215,0.312,-0.812,0.0
14.109,0.287,-0.828,0.0
13.203,0.266,-0.846,0.0
12.305,0.245,-0.854,0.0
11.471,0.226,-0.857,0.0
16.957,0.333,-0.789,0.0
15.546,0.302,-0.805,0.0
14.486,0.278,-0.827,0.0
13.54,0.258,-0.846,0.0
12.513,0.236,-0.848,0.0
11.701,0.218,-0.855,0.0
17.56,0.325,-0.789,1.0
16.002,0.293,-0.803,0.0
14.777,0.268,-0.819,0.0
13.818,0.248,-0.841,0.0
12.898,0.229,-0.853,0.0
11.936,0.21,-0.852,0.0
17.649,0.308,-0.764,1.0
16.46,0.284,-0.799,0.0
15.143,0.259,-0.814,0.0
14.151,0.239,-0.837,0.0
13.122,0.219,-0.845,0.0
12.268,0.203,-0.855,0.0
18.382,0.302,-0.765,0.0
16.836,0.273,-0.789,0.0
15.583,0.25,-0.812,0.0
14.441,0.229,-0.83,0.0
13.481,0.211,-0.846,0.0
12.524,0.194,-0.852,0.0
18.809,0.29,-0.75,0.0
17.55,0.267,-0.792,1.0
15.906,0.239,-0.801,0.0
14.776,0.22,-0.823,0.0
13.791,0.202,-0.841,0.0
12.944,0.188,-0.858,0.0
19.65,0.283,-0.75,0.0
17.959,0.256,-0.78,0.0
16.434,0.231,-0.799,0.0
15.149,0.21,-0.818,0.0
14.122,0.194,-0.837,0.0
13.099,0.177,-0.845,0.0
20.202,0.272,-0.735,0.0
18.358,0.244,-0.764,0.0
16.845,0.221,-0.79,0.0
15.452,0.2,-0.807,0.0
14.511,0.185,-0.834,0.0
13.537,0.17,-0.849,0.0
21.077,0.264,-0.729,0.0
18.98,0.234,-0.756,0.0
17.354,0.211,-0.782,0.0
15.966,0.192,-0.804,0.0
14.8,0.175,-0.823,0.0
13.845,0.162,-0.843,0.0
21.898,0.254,-0.718,0.0
19.648,0.225,-0.747,0.0
17.828,0.201,-0.771,0.0
16.52,0.184,-0.802,0.0
15.187,0.166,-0.817,0.0
14.132,0.153,-0.834,0.0
22.679,0.244,-0.702,0.0
20.287,0.215,-0.734,0.0
18.501,0.193,-0.766,0.0
16.928,0.174,-0.79,0.0
15.595,0.158,-0.81,0.0
14.457,0.144,-0.826,0.0
23.481,0.232,-0.683,0.0
21.215,0.207,-0.728,0.0
19.067,0.183,-0.753,0.0
17.519,0.165,-0.785,0.0
16.077,0.149,-0.804,0.0
14.958,0.137,-0.827,0.0
24.734,0.225,-0.673,0.0
22.021,0.197,-0.714,0.0
19.805,0.174,-0.745,0.0
17.993,0.156,-0.772,0.0
16.667,0.142,-0.802,0.0
15.33,0.128,-0.818,0.0
26.202,0.218,-0.663,0.0
0.0,0.0,0.0,0.0
20.472,0.164,-0.731,0.0
18.612,0.147,-0.763,0.0
17.118,0.133,-0.791,0.0
15.904,0.121,-0.818,0.0
27.644,0.209,-0.646,0.0
24.048,0.179,-0.687,0.0
21.469,0.156,-0.725,0.0
19.245,0.138,-0.752,0.0
17.73,0.124,-0.785,0.0
16.288,0.112,-0.805,0.0
29.101,0.199,-0.624,0.0
25.124,0.169,-0.669,0.0
22.399,0.147,-0.712,0.0
20.075,0.13,-0.745,0.0
18.308,0.116,-0.774,0.0
16.866,0.105,-0.801,0.0
30.708,0.189,-0.598,0.0
26.355,0.159,-0.649,0.0
23.384,0.138,-0.697,0.0
21.11,0.122,-0.741,0.0
19.034,0.108,-0.767,0.0
17.287,0.096,-0.786,0.0
0.0,0.0,0.0,0.0
0.0,0.0,0.0,0.0
24.631,0.13,-0.685,0.0
21.853,0.112,-0.723,0.0
19.575,0.098,-0.749,0.0
17.967,0.088,-0.78,0.0
35.395,0.173,-0.547,0.0
29.504,0.141,-0.608,0.0
26.259,0.122,-0.677,0.0
22.75,0.104,-0.706,0.0
20.505,0.091,-0.743,0.0
18.61,0.081,-0.771,0.0
37.558,0.162,-0.504,0.0
31.703,0.133,-0.589,0.0
27.496,0.113,-0.653,0.0
24.092,0.096,-0.699,0.0
21.339,0.083,-0.73,0.0
19.245,0.073,-0.757,0.0
42.851,0.161,-0.488,0.0
33.621,0.123,-0.556,0.0
29.16,0.104,-0.632,0.0
25.555,0.088,-0.689,0.0
22.389,0.075,-0.719,0.0
20.1,0.066,-0.749,0.0
42.903,0.139,-0.399,0.0
0.0,0.0,0.0,0.0
30.814,0.094,-0.605,0.0
26.398,0.078,-0.657,0.0
23.366,0.067,-0.702,0.0
21.021,0.059,-0.74,0.0
0.0,0.0,0.0,0.0
0.0,0.0,0.0,0.0
33.815,0.088,-0.594,0.0
27.788,0.07,-0.634,0.0
24.401,0.059,-0.683,0.0
21.805,0.051,-0.723,0.0
0.0,0.0,0.0,0.0
42.891,0.096,-0.443,1.0
35.729,0.077,-0.552,0.0
30.119,0.063,-0.624,0.0
26.078,0.052,-0.675,0.0
22.904,0.044,-0.711,0.0
0.0,0.0,0.0,0.0
45.765,0.084,-0.375,0.0
38.212,0.068,-0.511,0.0
0.0,0.0,0.0,0.0
0.0,0.0,0.0,0.0
0.0,0.0,0.0,0.0
0.0,0.0,0.0,0.0
0.0,0.0,0.0,0.0
42.823,0.061,-0.482,0.0
0.0,0.0,0.0,0.0
29.363,0.038,-0.636,0.0
25.454,0.031,-0.682,0.0
0.0,0.0,0.0,0.0
0.0,0.0,0.0,0.0
45.475,0.05,-0.416,3.0
36.334,0.038,-0.523,0.0
30.951,0.031,-0.605,0.0
26.604,0.025,-0.657,0.0
95.599,0.088,0.312,5.0
0.0,0.0,0.0,0.0
49.485,0.04,-0.347,0.0
40.583,0.031,-0.497,0.0
33.301,0.024,-0.58,0.0
28.497,0.019,-0.643,0.0
110.591,0.073,0.597,3.0
0.0,0.0,0.0,0.0
55.082,0.032,-0.269,0.0
44.859,0.024,-0.454,1.0
35.513,0.017,-0.542,0.0
0.0,0.0,0.0,0.0
111.038,0.049,0.836,10.0
95.61,0.039,0.229,2.0
0.0,0.0,0.0,0.0
45.65,0.015,-0.364,0.0
0.0,0.0,0.0,0.0
31.952,0.008,-0.583,0.0
111.147,0.028,1.076,10.0
110.217,0.025,0.5,2.0
0.0,0.0,0.0,0.0
0.0,0.0,0.0,0.0
44.634,0.006,-0.489,0.0
35.405,0.004,-0.57,0.0
111.118,0.012,1.316,12.0
110.971,0.009,0.745,13.0
0.0,0.0,0.0,0.0
0.0,0.0,0.0,0.0
45.331,0.001,-0.399,2.0
37.106,0.0,-0.517,0.0
111.114,0.0,1.558,10.0
117.231,-0.001,1.04,9.0
97.343,-0.002,0.363,2.0
0.0,0.0,0.0,0.0
0.0,0.0,0.0,0.0
40.436,-0.002,-0.476,0.0
112.497,-0.008,1.819,7.0
117.331,-0.009,1.295,12.0
110.696,-0.009,0.654,10.0
0.0,0.0,0.0,0.0
0.0,0.0,0.0,0.0
44.92,-0.004,-0.432,2.0
112.876,-0.012,2.07,4.0
111.135,-0.011,1.465,11.0
117.301,-0.012,0.943,6.0
95.543,-0.009,0.266,2.0
0.0,0.0,0.0,0.0
0.0,0.0,0.0,0.0
114.223,-0.011,2.337,9.0
111.187,-0.01,1.703,8.0
117.298,-0.01,1.194,13.0
110.481,-0.008,0.546,3.0
0.0,0.0,0.0,0.0
0.0,0.0,0.0,0.0
114.971,-0.007,2.601,9.0
112.611,-0.005,1.967,6.0
117.308,-0.003,1.445,10.0
111.045,-0.001,0.785,12.0
95.298,0.0,0.183,1.0
0.0,0.0,0.0,0.0
117.377,0.001,2.907,26.0
113.892,0.003,2.234,5.0
111.206,0.006,1.607,11.0
117.321,0.009,1.081,9.0
102.917,0.011,0.419,1.0
0.0,0.0,0.0,0.0
117.398,0.015,3.158,25.0
114.404,0.017,2.488,10.0
112.554,0.021,1.868,9.0
111.096,0.024,1.261,15.0
110.867,0.028,0.689,13.0
0.0,0.0,0.0,0.0
70.192,0.019,2.038,16.0
117.377,0.037,2.803,17.0
112.716,0.039,2.112,6.0
117.287,0.046,1.58,12.0
117.181,0.05,0.977,4.0
95.603,0.045,0.304,5.0
70.006,0.032,2.18,18.0
117.43,0.06,3.053,23.0
113.9,0.063,2.373,6.0
117.286,0.07,1.829,9.0
111.139,0.072,1.162,17.0
110.493,0.077,0.586,6.0
69.921,0.048,2.326,21.0
70.183,0.052,1.973,20.0
114.155,0.091,2.622,9.0
112.419,0.095,1.993,7.0
111.133,0.1,1.397,17.0
111.097,0.107,0.825,9.0
69.898,0.067,2.476,30.0
70.017,0.071,2.118,19.0
117.462,0.126,2.949,20.0
112.596,0.128,2.234,7.0
111.114,0.133,1.631,13.0
111.197,0.14,1.059,16.0
70.115,0.088,2.63,19.0
69.966,0.092,2.263,32.0
70.131,0.097,1.906,18.0
113.022,0.164,2.477,5.0
117.394,0.179,1.969,16.0
111.138,0.177,1.289,23.0
70.189,0.112,2.779,7.0
69.897,0.116,2.407,33.0
70.001,0.121,2.049,29.0
117.54,0.213,2.822,8.0
117.482,0.222,2.214,6.0
111.133,0.218,1.522,14.0
70.193,0.138,2.927,18.0
69.979,0.143,2.555,28.0
69.795,0.148,2.188,28.0
70.269,0.155,1.834,4.0
112.721,0.258,2.359,1.0
119.876,0.284,1.889,29.0
70.211,0.167,3.073,12.0
70.244,0.173,2.71,24.0
69.872,0.178,2.335,28.0
70.163,0.185,1.975,30.0
119.834,0.326,2.752,12.0
119.827,0.337,2.134,18.0
102.899,0.29,4.714,15.0
111.249,0.324,4.52,16.0
70.09,0.211,2.486,30.0
69.858,0.216,2.109,38.0
119.835,0.383,2.999,14.0
119.862,0.394,2.378,3.0
80.54,0.266,3.855,9.0
70.099,0.238,2.992,16.0
70.07,0.245,2.627,29.0
69.744,0.251,2.247,38.0
119.786,0.443,3.24,11.0
119.872,0.456,2.62,29.0
81.178,0.309,4.049,11.0
103.062,0.404,4.605,5.0
70.252,0.282,2.775,11.0
69.885,0.288,2.392,22.0
70.083,0.297,2.035,22.0
119.841,0.521,2.862,7.0
78.651,0.343,4.081,11.0
80.382,0.36,3.754,4.0
70.089,0.321,2.91,7.0
70.015,0.329,2.537,14.0
70.085,0.337,2.177,25.0
111.156,0.548,2.875,13.0
80.842,0.4,4.358,14.0
80.605,0.409,3.926,12.0
70.189,0.364,3.054,4.0
70.002,0.371,2.674,10.0
69.97,0.379,2.31,8.0
111.103,0.616,3.093,21.0
80.252,0.447,4.485,13.0
78.666,0.448,3.987,9.0
102.567,0.597,4.665,9.0
70.075,0.416,2.815,4.0
104.834,0.636,3.667,15.0
111.04,0.687,3.306,28.0
86.231,0.536,4.987,3.0
81.252,0.516,4.276,8.0
80.804,0.523,3.831,9.0
104.751,0.692,4.41,19.0
69.87,0.471,2.579,13.0
104.84,0.72,3.323,15.0
0.0,0.0,0.0,0.0
81.143,0.571,4.427,11.0
78.682,0.565,3.883,8.0
97.646,0.714,4.299,18.0
70.133,0.522,2.723,11.0
69.755,0.529,2.346,9.0
74.133,0.565,4.574,9.0
80.635,0.626,4.553,8.0
81.319,0.642,4.167,16.0
80.574,0.648,3.7,12.0
70.081,0.574,2.853,10.0
69.683,0.58,2.474,12.0
60.016,0.502,3.815,19.0
78.306,0.667,4.569,13.0
81.437,0.705,4.326,14.0
80.61,0.71,3.854,10.0
70.019,0.627,2.982,12.0
69.862,0.636,2.61,16.0
59.997,0.549,3.927,14.0
78.494,0.73,4.726,7.0
81.406,0.769,4.475,6.0
78.661,0.755,3.905,12.0
70.225,0.685,3.118,6.0
97.936,0.97,3.838,23.0
41.555,0.414,2.795,3.0
60.051,0.607,3.725,5.0
78.441,0.805,4.455,9.0
81.597,0.85,4.199,3.0
70.323,0.744,3.25,4.0
98.627,1.059,4.042,16.0
41.568,0.448,2.872,32.0
60.142,0.659,3.84,13.0
80.612,0.896,4.723,11.0
81.394,0.918,4.335,5.0
78.735,0.901,3.781,9.0
70.027,0.812,2.995,15.0
41.492,0.484,2.942,46.0
60.221,0.713,3.953,15.0
80.186,0.962,4.842,7.0
81.201,0.988,4.469,10.0
81.06,0.999,4.035,9.0
98.646,1.233,4.393,25.0
41.459,0.521,3.012,35.0
67.076,0.854,4.521,11.0
74.468,0.961,4.626,3.0
78.413,1.025,4.451,3.0
81.086,1.074,4.177,5.0
78.747,1.056,3.643,10.0
41.39,0.558,3.079,24.0
41.467,0.567,2.866,10.0
74.323,1.029,4.746,4.0
80.271,1.125,4.694,4.0
81.257,1.152,4.324,11.0
98.048,1.408,4.703,13.0
41.358,0.597,3.147,34.0
41.647,0.609,2.95,30.0
67.843,1.004,4.447,2.0
80.461,1.206,4.842,9.0
81.283,1.233,4.463,5.0
98.106,1.505,4.87,9.0
41.046,0.633,3.193,48.0
41.466,0.647,3.006,35.0
41.486,0.655,2.788,13.0
74.306,1.188,4.595,9.0
80.02,1.293,4.526,1.0
85.576,1.399,4.388,4.0
40.773,0.67,3.239,42.0
41.333,0.687,3.064,32.0
41.577,0.699,2.862,1.0
74.257,1.262,4.712,6.0
74.415,1.278,4.328,7.0
91.445,1.588,4.835,13.0
40.778,0.712,3.305,43.0
40.947,0.723,3.102,41.0
41.303,0.737,2.91,15.0
78.857,1.422,5.129,4.0
74.319,1.354,4.44,5.0
81.123,1.494,4.417,7.0
40.816,0.756,3.372,42.0
40.91,0.765,3.162,40.0
41.052,0.776,2.955,26.0
74.413,1.421,4.955,5.0
78.267,1.51,4.797,5.0
80.918,1.577,4.531,9.0
40.925,0.802,3.445,45.0
41.033,0.813,3.236,39.0
41.028,0.82,3.017,39.0
41.361,0.835,2.817,4.0
83.485,1.702,5.243,3.0
70.191,1.445,4.036,3.0
40.7,0.843,3.488,42.0
40.83,0.854,3.281,42.0
40.891,0.863,3.069,38.0
41.323,0.881,2.877,23.0
78.944,1.698,5.077,6.0
70.772,1.537,4.175,2.0
40.652,0.888,3.545,34.0
40.745,0.898,3.335,44.0
40.757,0.907,3.118,38.0
41.047,0.921,2.917,16.0
70.539,1.597,4.637,7.0
74.163,1.695,4.481,7.0
40.64,0.934,3.602,40.0
40.594,0.941,3.381,43.0
40.833,0.955,3.182,37.0
41.01,0.967,2.973,16.0
65.158,1.551,4.375,3.0
74.132,1.779,4.582,13.0
40.628,0.981,3.658,24.0
40.605,0.989,3.438,43.0
40.835,1.003,3.239,32.0
40.854,1.011,3.017,17.0
41.136,1.027,2.818,6.0
71.97,1.812,4.547,34.0
40.675,1.031,3.719,26.0
40.869,1.044,3.517,15.0
40.737,1.049,3.287,39.0
40.816,1.059,3.07,40.0
41.111,1.076,2.872,15.0
70.753,1.866,4.564,9.0
40.773,1.082,3.782,30.0
40.573,1.085,3.545,41.0
40.699,1.097,3.337,40.0
40.827,1.109,3.124,40.0
41.023,1.123,2.919,8.0
65.359,1.803,4.301,14.0
40.646,1.129,3.823,37.0
40.54,1.134,3.594,43.0
40.65,1.146,3.385,45.0
40.755,1.157,3.17,38.0
41.06,1.175,2.973,25.0
65.361,1.884,4.383,17.0
40.843,1.185,3.893,46.0
40.496,1.183,3.642,45.0
40.594,1.195,3.432,42.0
40.799,1.21,3.225,45.0
61.585,1.84,4.537,3.0
65.392,1.967,4.466,2.0
41.18,1.247,3.976,51.0
40.567,1.237,3.697,39.0
40.473,1.243,3.47,35.0
40.783,1.261,3.272,38.0
51.924,1.616,3.886,9.0
66.606,2.088,4.627,10.0
41.195,1.3,4.026,45.0
40.507,1.287,3.74,44.0
40.56,1.297,3.525,30.0
40.613,1.308,3.306,36.0
44.99,1.458,3.419,14.0
45.105,1.472,3.185,16.0
41.122,1.351,4.067,48.0
40.386,1.335,3.775,42.0
40.445,1.346,3.561,34.0
40.517,1.358,3.344,36.0
40.828,1.377,3.149,45.0
45.139,1.532,3.237,13.0
40.734,1.392,4.074,41.0
40.537,1.394,3.834,32.0
40.605,1.405,3.619,29.0
40.547,1.412,3.39,24.0
40.655,1.424,3.179,36.0
40.712,1.435,2.963,36.0
40.723,1.445,4.116,40.0
40.524,1.447,3.875,47.0
40.266,1.446,3.631,39.0
40.404,1.46,3.42,34.0
40.481,1.471,3.207,39.0
40.62,1.486,2.997,41.0
40.92,1.506,4.178,42.0
40.445,1.498,3.909,39.0
40.285,1.501,3.674,45.0
40.406,1.514,3.46,38.0
40.46,1.525,3.245,37.0
40.618,1.539,3.037,37.0
40.575,1.548,4.183,29.0
40.607,1.558,3.964,33.0
40.38,1.558,3.721,43.0
40.42,1.568,3.5,49.0
40.418,1.577,3.28,40.0
40.679,1.597,3.08,34.0
40.576,1.603,4.221,38.0
40.467,1.608,3.988,41.0
40.402,1.614,3.76,38.0
40.366,1.621,3.532,38.0
40.33,1.628,3.309,44.0
40.514,1.644,3.103,49.0
40.488,1.655,4.248,37.0
40.428,1.661,4.02,34.0
40.662,1.679,3.82,29.0
40.42,1.677,3.572,41.0
40.356,1.683,3.346,37.0
40.371,1.693,3.127,41.0
40.565,1.713,4.291,40.0
41.214,1.749,4.133,17.0
40.469,1.726,3.836,33.0
40.371,1.73,3.601,40.0
40.401,1.74,3.383,37.0
40.368,1.748,3.159,35.0
40.581,1.769,4.325,39.0
41.371,1.812,4.182,17.0
40.596,1.787,3.88,41.0
40.39,1.786,3.634,35.0
40.57,1.803,3.428,15.0
40.367,1.803,3.19,39.0
43.142,1.941,4.632,2.0
41.456,1.873,4.222,22.0
40.756,1.85,3.926,41.0
40.401,1.843,3.666,39.0
45.266,2.074,3.858,4.0
40.428,1.861,3.224,28.0
40.801,1.892,4.41,31.0
40.863,1.903,4.191,39.0
40.756,1.907,3.955,38.0
40.497,1.903,3.702,45.0
40.312,1.903,3.464,37.0
40.451,1.918,3.254,22.0
40.762,1.946,4.433,30.0
40.921,1.963,4.224,32.0
40.915,1.97,3.997,40.0
40.307,1.95,3.712,45.0
40.327,1.959,3.491,33.0
40.411,1.972,3.276,17.0
40.831,2.006,4.467,47.0
40.846,2.015,4.242,36.0
40.749,2.02,4.006,40.0
40.669,2.024,3.77,39.0
40.415,2.019,3.523,29.0
40.333,2.024,3.293,36.0
40.834,2.063,4.491,41.0
40.94,2.076,4.276,34.0
40.84,2.08,4.038,41.0
40.727,2.082,3.798,34.0
40.541,2.081,3.556,49.0
40.288,2.077,3.312,42.0
40.754,2.115,4.505,37.0
40.753,2.124,4.278,40.0
40.878,2.138,4.064,34.0
40.687,2.137,3.815,32.0
41.379,2.181,3.651,23.0
40.421,2.139,3.343,39.0
41.074,2.189,4.561,17.0
40.771,2.181,4.3,38.0
45.24,2.43,4.519,14.0
40.947,2.207,3.859,40.0
41.162,2.227,3.651,43.0
40.506,2.199,3.369,38.0
40.984,2.241,4.569,37.0
40.753,2.236,4.316,43.0
40.971,2.256,4.111,30.0
41.197,2.277,3.9,26.0
41.29,2.29,3.679,45.0
40.447,2.251,3.38,40.0
41.358,2.318,4.628,20.0
40.774,2.293,4.334,35.0
45.952,2.592,4.629,13.0
45.805,2.594,4.354,9.0
41.369,2.35,3.702,42.0
40.433,2.305,3.394,40.0
41.886,2.405,4.702,6.0
40.911,2.356,4.364,33.0
45.243,2.615,4.573,10.0
41.27,2.393,3.937,17.0
41.398,2.409,3.718,42.0
40.421,2.359,3.406,44.0
41.803,2.457,4.706,27.0
40.937,2.413,4.379,25.0
44.76,2.647,4.538,3.0
44.797,2.658,4.287,5.0
41.597,2.476,3.748,32.0
40.571,2.424,3.43,43.0
41.684,2.507,4.704,38.0
40.936,2.469,4.39,24.0
45.484,2.752,4.623,2.0
44.944,2.728,4.312,26.0
41.966,2.555,3.792,16.0
41.08,2.509,3.483,34.0
41.624,2.56,4.707,8.0
52.309,3.226,5.622,11.0
52.312,3.236,5.328,23.0
45.303,2.811,4.356,19.0
42.114,2.621,3.814,30.0
41.912,2.616,3.561,31.0
52.182,3.279,5.911,6.0
52.255,3.293,5.625,15.0
52.282,3.305,5.334,20.0
52.327,3.317,5.04,10.0
42.166,2.681,3.825,32.0
42.049,2.681,3.579,22.0
46.79,3.004,5.307,4.0
52.268,3.364,5.634,14.0
52.313,3.377,5.344,19.0
42.572,2.755,4.105,7.0
42.392,2.751,3.85,37.0
44.956,2.926,3.831,5.0
41.703,2.731,4.734,35.0
46.63,3.062,5.03,13.0
42.221,2.78,4.316,4.0
45.383,2.996,4.38,3.0
42.143,2.789,3.83,21.0
41.955,2.785,3.578,27.0
41.677,2.784,4.733,43.0
42.288,2.832,4.563,12.0
42.242,2.837,4.32,2.0
45.195,3.043,4.363,8.0
41.957,2.832,3.814,31.0
41.94,2.838,3.577,19.0
41.626,2.835,4.727,40.0
42.212,2.882,4.555,11.0
46.467,3.18,4.752,6.0
41.941,2.877,4.048,15.0
42.229,2.904,3.838,17.0
41.566,2.865,3.544,38.0
41.651,2.89,4.729,35.0
53.093,3.692,5.727,6.0
46.423,3.236,4.745,3.0
52.938,3.698,5.107,8.0
42.169,2.952,3.83,16.0
41.586,2.919,3.543,38.0
41.659,2.943,4.726,46.0
53.079,3.759,5.721,11.0
41.885,2.972,4.277,6.0
41.368,2.942,3.987,31.0
41.481,2.957,3.763,26.0
41.483,2.964,3.53,32.0
41.621,2.993,4.717,39.0
46.054,3.319,4.958,13.0
41.821,3.02,4.265,5.0
41.261,2.986,3.97,48.0
41.355,2.999,3.746,37.0
41.36,3.006,3.513,39.0
41.629,3.045,4.711,43.0
46.028,3.373,4.947,18.0
46.031,3.38,4.686,11.0
41.651,3.064,4.0,17.0
41.476,3.058,3.749,16.0
41.488,3.066,3.515,34.0
41.569,3.091,4.696,43.0
46.034,3.429,4.938,14.0
41.229,3.078,4.188,25.0
41.475,3.102,3.974,22.0
41.292,3.094,3.723,34.0
41.394,3.108,3.498,32.0
41.691,3.15,4.699,37.0
61.077,4.624,6.536,4.0
41.225,3.126,4.177,32.0
41.305,3.138,3.946,25.0
41.317,3.145,3.713,37.0
41.402,3.158,3.487,36.0
41.876,3.213,4.708,26.0
45.218,3.476,4.825,14.0
41.187,3.171,4.161,29.0
41.083,3.169,3.912,42.0
41.349,3.195,3.703,24.0
41.367,3.202,3.471,33.0
45.224,3.522,5.069,15.0
45.217,3.528,4.81,19.0
41.188,3.219,4.146,29.0
41.127,3.219,3.902,40.0
41.37,3.244,3.69,34.0
41.448,3.256,3.462,31.0
45.215,3.573,5.051,26.0
45.256,3.582,4.797,19.0
41.18,3.264,4.13,37.0
41.116,3.265,3.885,39.0
41.359,3.289,3.673,38.0
41.504,3.306,3.45,28.0
45.227,3.625,5.033,33.0
45.28,3.634,4.78,40.0
41.227,3.314,4.117,35.0
41.184,3.315,3.874,38.0
41.279,3.328,3.648,33.0
41.514,3.353,3.432,29.0
50.778,4.125,5.628,26.0
45.316,3.686,4.763,7.0
41.215,3.357,4.096,28.0
41.775,3.408,3.909,17.0
41.304,3.374,3.63,28.0
45.556,3.727,3.745,5.0
50.7,4.172,5.594,14.0
41.134,3.389,4.303,9.0
47.833,3.946,4.73,3.0
42.074,3.476,3.916,21.0
41.194,3.408,3.599,44.0
41.381,3.428,3.38,24.0
51.206,4.266,5.623,11.0
48.025,4.006,4.998,7.0
47.753,3.988,4.696,2.0
47.905,4.006,4.433,10.0
41.282,3.457,3.584,38.0
41.314,3.464,3.352,26.0
47.98,4.046,5.241,15.0
58.348,4.925,6.039,3.0
41.28,3.489,4.036,27.0
41.285,3.493,3.796,41.0
41.336,3.502,3.565,23.0
41.508,3.521,3.343,26.0
47.91,4.087,5.204,12.0
61.505,5.252,6.328,4.0
41.298,3.53,4.012,28.0
41.321,3.536,3.773,35.0
41.279,3.537,3.533,35.0
41.525,3.562,3.318,32.0
47.95,4.135,5.178,11.0
44.921,3.878,4.592,1.0
41.558,3.591,4.01,39.0
41.335,3.576,3.748,36.0
41.294,3.576,3.508,28.0
41.453,3.594,3.285,36.0
47.784,4.165,5.127,31.0
41.267,3.6,4.19,8.0
41.399,3.615,3.966,36.0
41.37,3.616,3.722,16.0
41.335,3.617,3.483,30.0
41.453,3.631,3.256,27.0
45.924,4.043,4.895,11.0
41.323,3.641,4.167,16.0
41.387,3.65,3.936,37.0
45.915,4.053,4.098,4.0
41.522,3.669,3.468,28.0
41.514,3.672,3.23,26.0
45.89,4.079,4.857,24.0
41.282,3.672,4.132,35.0
41.454,3.691,3.91,25.0
41.249,3.676,3.65,33.0
41.599,3.71,3.443,20.0
41.491,3.704,3.197,36.0
45.882,4.116,4.82,25.0
41.244,3.703,4.095,39.0
41.341,3.714,3.867,16.0
41.269,3.711,3.619,23.0
41.604,3.744,3.41,33.0
41.462,3.735,3.161,39.0
45.921,4.157,4.786,12.0
41.32,3.742,4.069,40.0
41.314,3.744,3.83,23.0
41.287,3.745,3.586,31.0
41.56,3.772,3.372,27.0
41.498,3.77,3.129,36.0
48.19,4.399,4.981,13.0
41.294,3.771,4.03,40.0
41.316,3.775,3.795,30.0
41.268,3.774,3.549,38.0
41.523,3.8,3.333,31.0
41.484,3.799,3.092,43.0
48.087,4.424,4.928,8.0
41.377,3.809,4.002,44.0
41.274,3.801,3.754,40.0
41.58,3.832,3.539,37.0
41.493,3.826,3.293,36.0
41.525,3.832,3.057,41.0
48.107,4.459,4.886,8.0
45.446,4.214,4.353,4.0
41.204,3.823,3.71,37.0
41.574,3.859,3.499,39.0
41.51,3.855,3.256,37.0
41.614,3.868,3.025,38.0
0.0,0.0,0.0,0.0
41.539,3.879,3.939,26.0
41.272,3.856,3.676,32.0
41.651,3.893,3.466,19.0
41.5,3.881,3.215,41.0
41.57,3.889,2.983,21.0
44.801,4.21,4.464,21.0
41.34,3.886,3.88,36.0
41.228,3.876,3.632,14.0
41.558,3.909,3.418,28.0
41.492,3.905,3.174,44.0
41.587,3.916,2.942,7.0
44.992,4.253,4.438,20.0
41.266,3.902,3.832,43.0
41.473,3.923,3.612,17.0
41.624,3.939,3.381,38.0
41.504,3.929,3.133,40.0
43.804,4.149,3.055,20.0
45.024,4.28,4.395,12.0
41.326,3.93,3.795,46.0
41.678,3.964,3.587,18.0
41.757,3.973,3.349,27.0
41.587,3.958,3.096,38.0
43.746,4.166,3.005,20.0
41.74,3.99,4.03,23.0
41.366,3.954,3.754,36.0
41.879,4.004,3.559,34.0
41.464,3.965,3.281,40.0
41.84,4.003,3.07,17.0
43.534,4.166,2.944,30.0
41.678,4.003,3.978,14.0
41.661,4.002,3.736,17.0
41.88,4.023,3.514,35.0
41.556,3.993,3.243,39.0
44.345,4.262,3.205,5.0
43.319,4.164,2.882,35.0
41.641,4.017,3.929,17.0
0.0,0.0,0.0,0.0
41.896,4.042,3.468,32.0
41.515,4.006,3.193,38.0
44.398,4.285,3.16,3.0
58.049,5.604,3.797,6.0
41.708,4.04,3.887,36.0
42.054,4.073,3.677,31.0
41.867,4.055,3.419,36.0
41.641,4.033,3.156,35.0
42.238,4.091,2.958,16.0
58.012,5.621,3.729,2.0
41.713,4.054,3.84,33.0
41.967,4.079,3.62,27.0
41.682,4.051,3.355,30.0
41.756,4.058,3.116,40.0
43.161,4.195,2.972,17.0
72.82,7.079,4.596,31.0
41.812,4.077,3.799,39.0
41.977,4.092,3.572,30.0
41.538,4.049,3.295,29.0
42.073,4.101,3.09,19.0
43.184,4.209,2.923,17.0
72.874,7.104,4.514,22.0
41.946,4.1,3.762,24.0
42.075,4.112,3.53,30.0
41.565,4.062,3.247,26.0
42.019,4.106,3.036,16.0
42.971,4.199,2.857,15.0
72.794,7.113,4.423,31.0
43.863,4.297,3.88,6.0
42.073,4.121,3.479,31.0
41.628,4.077,3.202,39.0
42.261,4.138,3.002,17.0
42.868,4.197,2.799,4.0
72.767,7.124,4.332,32.0
43.848,4.303,3.825,8.0
41.913,4.113,3.413,32.0
41.884,4.109,3.169,39.0
43.112,4.228,3.009,18.0
73.122,7.171,4.683,20.0
72.972,7.155,4.254,26.0
41.985,4.126,3.61,26.0
41.903,4.117,3.361,27.0
42.122,4.137,3.135,39.0
43.365,4.258,2.972,18.0
72.971,7.164,4.582,28.0
73.216,7.187,4.176,23.0
42.044,4.136,3.561,31.0
44.33,4.359,3.499,7.0
42.163,4.145,3.084,17.0
43.044,4.23,2.896,28.0
72.866,7.159,4.482,25.0
73.152,7.185,4.079,22.0
42.114,4.145,3.512,29.0
41.856,4.118,3.249,17.0
42.056,4.136,3.022,16.0
42.849,4.212,2.827,17.0
72.776,7.152,4.383,34.0
73.158,7.188,3.985,23.0
41.983,4.132,3.447,33.0
41.948,4.126,3.202,29.0
42.104,4.14,2.97,16.0
73.153,7.19,4.731,21.0
72.814,7.154,4.29,30.0
73.241,7.194,3.893,24.0
41.958,4.128,3.389,30.0
42.085,4.138,3.156,36.0
43.3,4.255,2.997,18.0
73.066,7.177,4.629,27.0
73.151,7.183,4.213,23.0
73.241,7.189,3.797,11.0
44.337,4.358,3.523,5.0
42.156,4.141,3.106,30.0
43.186,4.24,2.932,20.0
72.869,7.151,4.52,34.0
73.152,7.175,4.116,23.0
88.769,8.703,4.484,12.0
41.662,4.09,3.254,17.0
42.119,4.132,3.046,14.0
42.909,4.207,2.856,17.0
72.785,7.132,4.417,33.0
73.067,7.156,4.013,32.0
88.792,8.691,4.366,10.0
41.672,4.083,3.198,43.0
42.355,4.148,3.006,17.0
73.044,7.148,4.763,14.0
72.773,7.117,4.318,33.0
73.131,7.148,3.918,31.0
90.62,8.853,4.333,10.0
41.902,4.097,3.159,38.0
42.935,4.195,2.989,18.0
72.995,7.127,4.659,22.0
73.01,7.123,4.232,32.0
90.734,8.846,4.737,10.0
90.658,8.834,4.212,14.0
42.062,4.102,3.113,24.0
43.235,4.212,2.95,18.0
72.842,7.092,4.551,31.0
73.028,7.105,4.133,31.0
90.817,8.829,4.618,12.0
90.773,8.819,4.094,16.0
42.05,4.088,3.055,27.0
43.203,4.196,2.889,17.0
72.864,7.071,4.452,28.0
73.064,7.084,4.036,22.0
91.007,8.818,4.502,14.0
90.921,8.803,3.976,16.0
42.051,4.073,2.996,29.0
58.031,5.615,3.8,5.0
72.897,7.048,4.353,16.0
73.134,7.064,3.938,34.0
91.137,8.796,4.383,15.0
91.088,8.784,3.857,14.0
0.0,0.0,0.0,0.0
72.859,7.021,4.67,26.0
73.047,7.032,4.261,24.0
73.363,7.056,3.848,21.0
91.356,8.779,4.267,16.0
91.287,8.765,3.739,14.0
43.53,4.179,2.98,27.0
72.765,6.979,4.562,34.0
73.254,7.019,4.17,23.0
91.579,8.766,4.678,15.0
91.55,8.755,4.15,15.0
91.502,8.743,3.621,14.0
43.697,4.174,2.931,23.0
72.853,6.952,4.467,25.0
73.628,7.018,4.09,19.0
91.852,8.746,4.564,14.0
91.772,8.729,4.032,16.0
91.735,8.717,3.504,14.0
44.496,4.227,2.922,31.0
73.269,6.952,4.389,25.0
84.513,8.01,4.576,11.0
92.098,8.719,4.448,15.0
92.071,8.707,3.917,12.0
91.951,8.687,3.384,6.0
58.068,5.483,3.733,10.0
73.586,6.94,4.306,17.0
85.065,8.012,4.487,22.0
92.402,8.693,4.334,14.0
92.333,8.677,3.8,14.0
90.852,8.529,3.218,1.0
72.642,6.814,4.569,11.0
84.644,7.93,4.836,13.0
85.464,7.997,4.392,16.0
92.71,8.663,4.221,13.0
92.621,8.646,3.685,19.0
91.01,8.485,3.098,1.0
72.713,6.773,4.473,14.0
84.456,7.856,4.709,37.0
85.642,7.956,4.282,22.0
92.996,8.627,4.105,16.0
92.937,8.612,3.569,20.0
91.44,8.463,2.988,7.0
84.69,7.829,5.092,19.0
84.624,7.812,4.601,36.0
85.623,7.893,4.163,22.0
93.017,8.564,3.979,27.0
93.017,8.552,3.445,16.0
91.684,8.418,2.87,11.0
84.648,7.762,4.973,15.0
85.107,7.793,4.51,35.0
85.659,7.831,4.046,25.0
92.999,8.49,3.849,32.0
93.053,8.483,3.318,10.0
92.09,8.384,2.755,4.0
84.78,7.707,4.863,30.0
85.353,7.746,4.405,21.0
92.849,8.414,4.258,21.0
93.008,8.416,3.723,21.0
92.838,8.388,3.182,4.0
92.481,8.344,2.64,8.0
84.759,7.634,4.745,27.0
85.577,7.695,4.3,28.0
92.966,8.347,4.136,14.0
93.037,8.339,3.596,13.0
93.043,8.327,3.063,4.0
93.011,8.311,2.529,5.0
85.221,7.6,4.654,23.0
85.659,7.627,4.185,30.0
93.037,8.269,4.012,17.0
93.174,8.269,3.474,17.0
93.194,8.257,2.94,19.0
93.202,8.244,2.407,18.0
84.491,7.458,4.5,22.0
86.043,7.581,4.087,13.0
93.11,8.189,3.889,58.0
93.094,8.174,3.346,57.0
93.118,8.162,2.812,64.0
93.13,8.15,2.279,65.0
86.029,7.511,4.465,13.0
91.795,8.0,4.237,18.0
93.136,8.101,3.765,9.0
93.145,8.087,3.223,9.0
45.901,3.978,1.325,10.0
45.839,3.966,1.061,14.0
79.013,6.82,3.996,13.0
91.826,7.91,4.117,16.0
45.938,3.949,1.796,7.0
45.854,3.935,1.525,17.0
45.816,3.924,1.262,21.0
45.797,3.915,0.999,26.0
45.875,3.911,2.259,33.0
45.875,3.904,1.996,23.0
45.844,3.893,1.732,19.0
45.796,3.882,1.464,31.0
45.781,3.873,1.201,35.0
45.774,3.865,0.939,36.0
45.821,3.857,2.196,35.0
45.823,3.849,1.933,35.0
45.802,3.839,1.67,34.0
45.796,3.831,1.403,34.0
45.77,3.82,1.14,41.0
45.766,3.812,0.878,38.0
45.809,3.804,2.135,43.0
45.808,3.796,1.873,42.0
45.807,3.787,1.61,40.0
45.791,3.778,1.343,42.0
45.786,3.77,1.082,42.0
45.786,3.762,0.82,44.0
45.81,3.751,2.076,42.0
45.827,3.744,1.815,42.0
45.808,3.734,1.552,42.0
45.813,3.726,1.286,41.0
45.826,3.719,1.024,37.0
45.829,3.711,0.763,41.0
45.85,3.7,2.02,39.0
45.861,3.691,1.757,34.0
45.867,3.683,1.496,35.0
45.888,3.676,1.23,35.0
45.924,3.67,0.968,30.0
45.924,3.662,0.706,29.0
45.921,3.647,1.964,29.0
45.957,3.641,1.703,27.0
45.852,3.624,1.437,1.0
98.729,7.784,2.522,12.0
98.856,7.775,1.961,8.0
98.851,7.757,1.397,8.0
72.209,5.643,2.999,10.0
101.194,7.888,3.625,17.0
99.465,7.734,2.995,3.0
99.497,7.716,2.418,11.0
99.603,7.704,1.853,8.0
99.643,7.687,1.285,8.0
91.028,6.994,3.669,9.0
101.951,7.811,3.527,24.0
100.222,7.658,2.896,4.0
100.315,7.644,2.316,8.0
100.412,7.632,1.745,8.0
100.434,7.613,1.174,9.0
90.981,6.866,3.557,14.0
101.99,7.676,3.405,34.0
101.049,7.583,2.798,7.0
101.059,7.562,2.212,5.0
101.129,7.546,1.637,6.0
101.249,7.536,1.063,4.0
101.968,7.553,3.865,25.0
102.01,7.533,3.284,21.0
102.135,7.52,2.706,8.0
102.046,7.492,2.113,10.0
102.131,7.477,1.534,10.0
52.315,3.819,0.487,5.0
102.069,7.415,3.749,52.0
102.072,7.391,3.167,57.0
102.083,7.371,2.587,60.0
102.073,7.347,1.995,50.0
52.274,3.751,0.724,21.0
52.217,3.736,0.426,20.0
52.326,3.725,1.862,9.0
52.288,3.71,1.563,23.0
52.243,3.695,1.264,23.0
52.215,3.681,0.961,29.0
52.203,3.669,0.665,33.0
52.188,3.657,0.368,20.0
52.24,3.641,1.8,16.0
52.209,3.626,1.502,33.0
52.194,3.613,1.205,39.0
52.184,3.6,0.903,40.0
52.206,3.59,0.606,36.0
52.178,3.576,0.31,18.0
47.235,3.22,1.576,48.0
52.204,3.545,1.445,40.0
52.193,3.532,1.148,43.0
52.205,3.521,0.846,44.0
52.221,3.51,0.55,33.0
52.168,3.494,0.254,17.0
47.3,3.15,1.527,44.0
52.25,3.467,1.39,40.0
52.257,3.455,1.093,40.0
52.28,3.444,0.792,36.0
52.275,3.431,0.495,34.0
52.16,3.411,0.198,15.0
47.443,3.083,1.481,12.0
47.377,3.067,1.21,2.0
109.56,7.067,2.177,5.0
109.792,7.055,1.549,7.0
109.98,7.041,0.928,7.0
52.135,3.325,0.144,14.0
47.67,3.02,1.439,6.0
47.418,2.992,1.162,43.0
111.161,6.986,2.095,8.0
111.176,6.961,1.455,14.0
111.161,6.932,0.824,17.0
52.048,3.232,0.091,18.0
48.037,2.964,1.401,5.0
47.493,2.917,1.116,38.0
111.114,6.797,1.983,32.0
111.098,6.767,1.342,16.0
113.183,6.865,0.726,3.0
51.921,3.136,0.039,18.0
48.234,2.893,1.359,6.0
47.706,2.849,1.075,19.0
47.591,2.83,0.803,5.0
114.653,6.789,1.274,8.0
106.919,6.305,0.584,2.0
51.714,3.036,-0.009,19.0
48.787,2.843,1.329,6.0
47.923,2.779,1.034,16.0
47.61,2.749,0.758,42.0
59.432,3.416,0.604,3.0
59.347,3.395,0.268,13.0
51.586,2.937,-0.057,22.0
49.051,2.772,1.29,12.0
48.093,2.705,0.993,15.0
47.822,2.677,0.718,17.0
59.355,3.307,0.55,24.0
59.285,3.287,0.214,17.0
51.434,2.838,-0.103,21.0
49.169,2.691,1.25,5.0
48.313,2.632,0.955,9.0
48.004,2.602,0.678,14.0
59.317,3.198,0.497,29.0
59.232,3.178,0.162,15.0
51.371,2.742,-0.148,20.0
50.254,2.66,1.233,11.0
48.616,2.559,0.919,9.0
48.223,2.526,0.64,10.0
59.385,3.094,0.447,27.0
59.197,3.068,0.112,22.0
0.0,0.0,0.0,0.0
50.29,2.57,1.192,40.0
48.839,2.482,0.883,5.0
48.508,2.452,0.603,5.0
120.006,6.032,0.805,8.0
59.138,2.956,0.064,18.0
50.735,2.521,-0.23,2.0
50.466,2.486,1.156,24.0
49.379,2.418,0.853,5.0
120.013,5.842,1.398,12.0
120.002,5.808,0.71,8.0
58.752,2.827,0.017,11.0
51.709,2.473,-0.275,2.0
50.627,2.398,1.12,19.0
50.379,2.372,0.831,17.0
66.208,3.097,0.72,7.0
66.086,3.072,0.34,13.0
58.649,2.709,-0.027,10.0
52.624,2.416,-0.32,5.0
50.782,2.308,1.085,15.0
50.502,2.281,0.796,22.0
66.055,2.963,0.67,24.0
65.956,2.94,0.292,15.0
58.562,2.592,-0.069,5.0
0.0,0.0,0.0,0.0
66.043,2.874,1.365,13.0
66.08,2.857,0.994,25.0
66.047,2.836,0.623,25.0
65.802,2.805,0.245,12.0
58.488,2.477,-0.109,2.0
0.0,0.0,0.0,0.0
100.514,0.854,1.394,3.0
104.762,0.852,0.875,18.0
85.319,0.663,0.242,5.0
0.0,0.0,0.0,0.0
45.983,0.325,-0.38,0.0
36.336,0.244,-0.501,0.0
111.058,0.703,1.532,30.0
104.997,0.627,0.87,9.0
88.157,0.497,0.245,5.0
63.619,0.335,-0.179,0.0
45.932,0.226,-0.382,0.0
0.0,0.0,0.0,0.0
119.822,0.503,1.649,13.0
110.886,0.425,0.916,11.0
0.0,0.0,0.0,0.0
0.0,0.0,0.0,0.0
44.745,0.124,-0.372,0.0
37.124,0.09,-0.513,0.0
111.087,0.229,1.529,21.0
110.938,0.188,0.917,11.0
0.0,0.0,0.0,0.0
0.0,0.0,0.0,0.0
45.558,0.028,-0.378,2.0
0.0,0.0,0.0,0.0
111.113,-0.008,1.534,12.0
111.29,-0.048,0.926,8.0
99.002,-0.077,0.28,1.0
0.0,0.0,0.0,0.0
45.51,-0.068,-0.375,1.0
0.0,0.0,0.0,0.0
113.945,-0.253,1.582,2.0
114.432,-0.295,0.961,20.0
102.72,-0.303,0.3,1.0
0.0,0.0,0.0,0.0
45.413,-0.165,-0.369,1.0
0.0,0.0,0.0,0.0
119.774,-0.524,1.677,8.0
119.729,-0.565,1.02,10.0
0.0,0.0,0.0,0.0
0.0,0.0,0.0,0.0
0.0,0.0,0.0,0.0
37.795,-0.233,-0.509,0.0
119.738,-0.779,1.695,18.0
119.696,-0.821,1.039,15.0
0.0,0.0,0.0,0.0
0.0,0.0,0.0,0.0
0.0,0.0,0.0,0.0
39.102,-0.325,-0.519,0.0
119.738,-1.035,1.718,94.0
119.754,-1.078,1.063,42.0
0.0,0.0,0.0,0.0
0.0,0.0,0.0,0.0
0.0,0.0,0.0,0.0
0.0,0.0,0.0,0.0
139.248,-1.498,2.029,6.0
139.222,-1.546,1.268,21.0
0.0,0.0,0.0,0.0
0.0,0.0,0.0,0.0
47.179,-0.576,-0.346,1.0
0.0,0.0,0.0,0.0
139.15,-1.792,2.064,8.0
139.008,-1.841,1.304,21.0
127.626,-1.738,0.502,2.0
0.0,0.0,0.0,0.0
46.997,-0.673,-0.331,0.0
0.0,0.0,0.0,0.0
139.115,-2.088,2.106,10.0
139.015,-2.136,1.347,11.0
113.453,-1.785,0.482,5.0
0.0,0.0,0.0,0.0
50.133,-0.825,-0.337,0.0
0.0,0.0,0.0,0.0
139.026,-2.38,2.151,7.0
139.068,-2.431,1.395,21.0
138.697,-2.474,0.638,3.0
0.0,0.0,0.0,0.0
50.418,-0.936,-0.321,0.0
0.0,0.0,0.0,0.0
139.004,-2.671,2.203,3.0
139.056,-2.721,1.448,12.0
138.832,-2.768,0.692,3.0
0.0,0.0,0.0,0.0
0.0,0.0,0.0,0.0
40.432,-0.85,-0.46,0.0
193.089,-4.116,3.14,6.0
138.916,-3.01,1.505,9.0
139.023,-3.062,0.752,3.0
0.0,0.0,0.0,0.0
0.0,0.0,0.0,0.0
0.0,0.0,0.0,0.0
192.97,-4.513,3.224,12.0
138.926,-3.296,1.568,4.0
138.838,-3.345,0.814,7.0
0.0,0.0,0.0,0.0
0.0,0.0,0.0,0.0
43.402,-1.093,-0.454,1.0
193.165,-4.919,3.322,12.0
0.0,0.0,0.0,0.0
138.756,-3.631,0.883,10.0
0.0,0.0,0.0,0.0
54.876,-1.475,-0.25,0.0
44.349,-1.207,-0.442,2.0
193.904,-5.331,3.434,5.0
0.0,0.0,0.0,0.0
138.417,-3.902,0.953,15.0
0.0,0.0,0.0,0.0
0.0,0.0,0.0,0.0
44.459,-1.3,-0.419,1.0
259.972,-7.67,4.745,10.0
0.0,0.0,0.0,0.0
138.631,-4.187,1.032,16.0
0.0,0.0,0.0,0.0
0.0,0.0,0.0,0.0
0.0,0.0,0.0,0.0
193.637,-6.103,3.648,20.0
0.0,0.0,0.0,0.0
138.586,-4.464,1.115,17.0
0.0,0.0,0.0,0.0
55.996,-1.844,-0.158,0.0
46.94,-1.562,-0.386,0.0
187.409,-6.28,3.646,51.0
0.0,0.0,0.0,0.0
138.553,-4.739,1.202,17.0
0.0,0.0,0.0,0.0
0.0,0.0,0.0,0.0
0.0,0.0,0.0,0.0
193.764,-6.878,3.898,8.0
138.434,-4.963,2.039,8.0
138.52,-5.015,1.295,23.0
0.0,0.0,0.0,0.0
0.0,0.0,0.0,0.0
48.491,-1.806,-0.334,0.0
194.407,-7.286,4.045,18.0
138.366,-5.234,2.135,7.0
138.455,-5.285,1.392,24.0
0.0,0.0,0.0,0.0
0.0,0.0,0.0,0.0
0.0,0.0,0.0,0.0
194.134,-7.654,4.18,6.0
138.21,-5.496,2.232,17.0
138.441,-5.551,1.492,17.0
138.3,-5.594,0.734,3.0
0.0,0.0,0.0,0.0
0.0,0.0,0.0,0.0
193.861,-8.013,4.319,23.0
138.112,-5.757,2.335,71.0
138.424,-5.818,1.598,4.0
138.016,-5.846,0.838,12.0
0.0,0.0,0.0,0.0
56.594,-2.436,-0.263,0.0
194.725,-8.423,4.492,10.0
138.08,-6.017,2.444,23.0
194.7,-8.549,2.401,7.0
138.121,-6.112,0.949,8.0
0.0,0.0,0.0,0.0
56.826,-2.553,-0.217,0.0
20.165,-0.91,0.481,2.0
193.509,-8.798,3.585,24.0
194.584,-8.911,2.563,17.0
138.24,-6.376,1.066,17.0
0.0,0.0,0.0,0.0
20.007,-0.936,-0.059,15.0
20.126,-0.945,0.497,17.0
20.145,-0.953,0.39,19.0
20.155,-0.96,0.282,8.0
138.14,-6.63,1.186,17.0
20.013,-0.966,0.064,2.0
19.991,-0.972,-0.042,22.0
20.136,-0.983,0.515,25.0
20.148,-0.99,0.408,26.0
20.142,-0.996,0.3,24.0
20.122,-1.002,0.19,20.0
19.997,-1.002,0.082,16.0
19.986,-1.008,-0.024,20.0
20.001,-1.012,0.53,14.0
19.998,-1.019,0.423,11.0
19.975,-1.024,0.316,11.0
19.976,-1.03,0.207,19.0
19.99,-1.038,0.101,20.0
19.983,-1.043,-0.005,23.0
19.966,-1.046,0.548,20.0
19.965,-1.052,0.441,18.0
19.953,-1.058,0.334,17.0
20.004,-1.067,0.226,26.0
19.989,-1.072,0.12,25.0
19.987,-1.079,0.013,23.0
19.974,-1.081,0.567,24.0
19.972,-1.087,0.46,22.0
19.948,-1.092,0.354,19.0
19.955,-1.099,0.245,19.0
20.008,-1.108,0.14,26.0
20.007,-1.114,0.033,18.0
19.972,-1.116,0.587,26.0
19.953,-1.121,0.48,25.0
19.937,-1.126,0.373,19.0
19.961,-1.133,0.266,26.0
20.121,-1.149,0.161,6.0
20.025,-1.15,0.053,0.0
19.965,-1.149,0.607,26.0
19.955,-1.155,0.501,25.0
19.96,-1.161,0.395,21.0
19.919,-1.165,0.286,19.0
20.005,-1.176,0.181,55.0
19.991,-1.181,0.074,150.0
19.964,-1.183,0.628,25.0
19.945,-1.187,0.522,24.0
19.953,-1.194,0.416,21.0
19.909,-1.197,0.307,19.0
19.986,-1.208,0.202,150.0
19.991,-1.214,0.095,150.0
19.954,-1.215,0.649,22.0
19.947,-1.22,0.543,27.0
19.939,-1.225,0.437,20.0
19.908,-1.229,0.328,19.0
19.973,-1.239,0.223,25.0
19.977,-1.245,0.117,24.0
19.951,-1.246,0.671,19.0
19.946,-1.252,0.565,23.0
19.923,-1.256,0.458,18.0
19.908,-1.26,0.35,19.0
19.969,-1.27,0.245,27.0
19.964,-1.275,0.139,25.0
19.951,-1.277,0.693,17.0
19.941,-1.282,0.587,19.0
19.924,-1.287,0.481,14.0
19.918,-1.292,0.373,16.0
19.957,-1.3,0.268,25.0
19.979,-1.307,0.162,22.0
20.011,-1.312,0.718,10.0
20.03,-1.319,0.613,12.0
20.026,-1.324,0.506,9.0
19.98,-1.326,0.397,8.0
19.976,-1.332,0.291,8.0
20.005,-1.339,0.185,18.0
20.017,-1.343,0.742,9.0
20.005,-1.347,0.635,10.0
20.046,-1.355,0.53,11.0
20.054,-1.361,0.422,3.0
119.404,-8.137,1.882,67.0
119.311,-8.163,1.248,18.0
67.896,-4.655,2.597,29.0
20.0,-1.376,0.659,11.0
20.005,-1.381,0.553,10.0
20.009,-1.387,0.445,9.0
20.026,-1.393,0.339,9.0
20.028,-1.399,0.233,9.0
67.902,-4.753,2.68,59.0
20.008,-1.405,0.683,9.0
20.001,-1.409,0.577,10.0
20.003,-1.415,0.469,9.0
20.002,-1.42,0.363,11.0
20.034,-1.427,0.258,23.0
67.914,-4.848,2.763,61.0
67.864,-4.861,2.402,25.0
20.022,-1.439,0.602,8.0
20.01,-1.443,0.494,8.0
20.023,-1.449,0.388,8.0
20.02,-1.454,0.282,9.0
67.935,-4.942,2.849,57.0
67.9,-4.956,2.488,43.0
72.585,-5.315,2.275,31.0
72.284,-5.311,1.877,6.0
72.524,-5.345,1.499,13.0
119.362,-8.827,1.837,28.0
67.941,-5.033,2.935,64.0
67.918,-5.047,2.575,43.0
72.006,-5.367,2.349,20.0
119.298,-8.921,3.25,13.0
72.494,-5.438,1.592,10.0
119.373,-8.984,1.992,150.0
67.941,-5.122,3.024,33.0
102.838,-7.775,4.032,16.0
102.843,-7.799,3.489,22.0
71.64,-5.449,2.044,9.0
67.919,-5.18,1.58,24.0
67.908,-5.195,1.221,51.0
67.94,-5.207,3.111,68.0
67.926,-5.219,2.752,80.0
67.911,-5.233,2.392,73.0
67.882,-5.246,2.026,86.0
67.895,-5.262,1.668,85.0
67.883,-5.275,1.309,79.0
67.959,-5.29,3.202,40.0
67.94,-5.303,2.841,36.0
67.953,-5.318,2.483,19.0
72.522,-5.691,2.26,9.0
71.73,-5.644,1.856,21.0
119.373,-9.418,2.461,30.0
70.878,-5.601,3.434,37.0
71.345,-5.652,3.079,12.0
104.516,-8.301,3.959,7.0
72.407,-5.765,2.354,13.0
71.683,-5.722,1.952,8.0
119.357,-9.552,2.621,34.0
71.284,-5.714,3.549,32.0
71.445,-5.74,3.179,25.0
67.927,-5.47,2.664,11.0
67.899,-5.482,2.298,12.0
74.846,-6.057,2.139,10.0
119.334,-9.68,2.781,25.0
67.935,-5.52,3.474,36.0
67.949,-5.533,3.116,44.0
67.952,-5.546,2.758,46.0
67.923,-5.556,2.392,44.0
72.128,-5.914,2.16,31.0
119.324,-9.807,2.945,37.0
71.221,-5.862,3.741,10.0
67.952,-5.605,3.211,51.0
67.957,-5.617,2.851,50.0
67.929,-5.627,2.485,44.0
72.012,-5.978,2.255,5.0
119.304,-9.925,3.107,27.0
71.309,-5.942,3.844,9.0
67.961,-5.674,3.304,47.0
67.966,-5.685,2.945,53.0
67.955,-5.696,2.58,44.0
71.777,-6.029,2.347,5.0
72.771,-6.124,1.996,15.0
71.438,-6.022,3.95,10.0
67.958,-5.739,3.399,53.0
67.98,-5.752,3.041,41.0
67.962,-5.761,2.676,44.0
67.911,-5.767,2.315,26.0
103.445,-8.803,2.982,10.0
70.922,-6.044,4.021,35.0
67.938,-5.8,3.493,37.0
67.978,-5.813,3.136,48.0
67.971,-5.823,2.77,42.0
67.941,-5.83,2.411,43.0
103.181,-8.871,3.118,14.0
71.342,-6.144,4.145,9.0
71.439,-6.161,3.773,12.0
67.981,-5.872,3.231,47.0
67.984,-5.882,2.866,42.0
67.968,-5.89,2.507,44.0
72.021,-6.252,2.277,20.0
71.494,-6.217,4.255,13.0
70.844,-6.169,3.841,13.0
67.978,-5.928,3.327,52.0
67.972,-5.937,2.961,47.0
67.971,-5.946,2.603,39.0
67.976,-5.956,2.245,8.0
71.162,-6.245,4.337,29.0
70.909,-6.231,3.946,30.0
67.98,-5.982,3.424,43.0
67.986,-5.991,3.059,44.0
67.962,-5.998,2.7,11.0
67.914,-6.001,2.34,2.0
70.989,-6.284,4.427,13.0
70.654,-6.261,4.033,25.0
71.413,-6.337,3.699,6.0
71.543,-6.357,3.321,12.0
71.012,-6.318,2.921,16.0
72.295,-6.44,2.593,5.0
70.802,-6.318,4.516,35.0
71.425,-6.38,4.178,14.0
71.184,-6.366,3.787,48.0
71.541,-6.405,3.421,9.0
71.131,-6.376,3.026,7.0
72.396,-6.497,2.699,4.0
70.589,-6.346,4.603,11.0
70.215,-6.319,4.207,7.0
70.93,-6.389,3.874,27.0
78.679,-7.094,3.873,12.0
71.206,-6.427,3.129,18.0
70.849,-6.402,2.74,10.0
70.723,-6.402,4.712,10.0
71.329,-6.462,4.374,12.0
70.689,-6.41,3.962,44.0
71.491,-6.489,3.622,9.0
71.346,-6.482,3.237,8.0
102.773,-9.346,4.122,9.0
70.816,-6.451,4.818,36.0
71.103,-6.483,4.461,12.0
69.705,-6.36,4.005,33.0
71.413,-6.521,3.719,19.0
71.241,-6.511,3.333,6.0
104.325,-9.544,4.333,9.0
70.634,-6.473,4.908,24.0
70.759,-6.488,4.541,42.0
69.86,-6.411,4.113,15.0
70.413,-6.465,3.766,28.0
71.188,-6.542,3.432,10.0
71.241,-6.552,3.058,5.0
70.232,-6.47,4.979,25.0
33.215,-3.062,2.178,4.0
70.172,-6.472,4.23,19.0
70.311,-6.489,3.861,9.0
71.373,-6.591,3.541,18.0
71.196,-6.579,3.156,16.0
70.38,-6.515,5.09,38.0
70.177,-6.5,4.703,16.0
70.038,-6.49,4.322,13.0
69.647,-6.457,3.922,10.0
71.305,-6.614,3.638,30.0
71.118,-6.601,3.252,9.0
70.353,-6.542,5.188,21.0
70.568,-6.564,4.829,18.0
69.939,-6.508,4.414,34.0
69.729,-6.491,4.025,8.0
70.293,-6.546,3.685,21.0
71.192,-6.633,3.356,17.0
70.302,-6.562,5.283,20.0
70.198,-6.554,4.902,15.0
69.846,-6.523,4.507,35.0
69.935,-6.533,4.134,22.0
73.313,-6.851,3.947,10.0
71.209,-6.657,3.457,9.0
70.737,-6.626,5.415,17.0
33.211,-3.111,2.366,9.0
33.223,-3.112,2.19,31.0
70.181,-6.577,4.248,30.0
73.468,-6.886,4.057,6.0
70.247,-6.586,3.507,9.0
33.206,-3.119,2.589,3.0
33.215,-3.12,2.412,29.0
33.22,-3.121,2.236,49.0
69.769,-6.555,4.319,21.0
74.201,-6.973,4.201,4.0
70.237,-6.601,3.605,15.0
33.221,-3.128,2.636,9.0
33.212,-3.127,2.458,45.0
33.23,-3.129,2.283,54.0
69.757,-6.568,4.415,25.0
70.314,-6.62,4.078,9.0
73.374,-6.909,3.866,9.0
33.217,-3.134,2.682,25.0
33.209,-3.132,2.504,48.0
33.245,-3.135,2.33,62.0
69.863,-6.589,4.518,27.0
70.445,-6.643,4.181,12.0
73.487,-6.93,3.972,20.0
33.213,-3.138,2.727,37.0
33.209,-3.137,2.549,48.0
33.237,-3.139,2.374,56.0
33.22,-3.137,2.193,38.0
69.823,-6.591,4.238,15.0
70.401,-6.645,3.899,6.0
33.216,-3.141,2.772,43.0
33.213,-3.14,2.594,49.0
33.212,-3.139,2.417,52.0
33.21,-3.138,2.236,50.0
69.837,-6.597,4.332,10.0
70.367,-6.646,3.99,16.0
33.214,-3.143,2.816,44.0
33.21,-3.141,2.638,49.0
33.209,-3.14,2.461,49.0
33.21,-3.139,2.281,53.0
69.837,-6.598,4.425,18.0
70.332,-6.642,4.083,18.0
33.22,-3.144,2.861,40.0
33.2,-3.14,2.682,47.0
