X,Y,Z,Reflectivity
29.91,2.244,-0.589,0.0
25.709,1.922,-0.649,0.0
22.628,1.686,-0.699,0.0
20.237,1.503,-0.738,0.0
18.277,1.353,-0.768,0.0
35.624,2.617,-0.506,1.0
29.845,2.185,-0.589,0.0
25.796,1.882,-0.652,0.0
22.603,1.643,-0.699,0.0
20.229,1.465,-0.738,0.0
18.336,1.323,-0.771,0.0
35.517,2.544,-0.505,0.0
29.94,2.137,-0.592,0.0
25.758,1.831,-0.652,0.0
22.649,1.604,-0.701,0.0
20.173,1.424,-0.736,0.0
18.219,1.281,-0.766,0.0
35.88,2.504,-0.51,0.0
30.115,2.093,-0.595,0.0
25.909,1.794,-0.655,0.0
22.705,1.566,-0.702,0.0
20.244,1.39,-0.738,0.0
18.262,1.25,-0.767,0.0
35.039,2.379,-0.496,0.0
0.0,0.0,0.0,0.0
26.037,1.753,-0.656,0.0
22.575,1.514,-0.696,0.0
20.191,1.349,-0.734,0.0
18.359,1.222,-0.769,0.0
35.68,2.356,-0.502,0.0
30.27,1.99,-0.593,0.0
25.998,1.702,-0.652,0.0
22.67,1.478,-0.697,0.0
20.184,1.31,-0.732,0.0
18.333,1.185,-0.766,0.0
35.682,2.288,-0.497,0.0
30.5,1.947,-0.593,0.0
25.92,1.648,-0.647,0.0
22.831,1.445,-0.698,0.0
20.279,1.278,-0.732,0.0
18.395,1.154,-0.765,0.0
35.774,2.226,-0.492,0.0
30.473,1.887,-0.587,0.0
26.3,1.622,-0.652,0.0
22.951,1.409,-0.697,0.0
20.465,1.251,-0.734,0.0
18.4,1.119,-0.762,0.0
37.614,2.269,-0.51,1.0
30.458,1.828,-0.58,0.0
26.352,1.574,-0.647,0.0
22.882,1.361,-0.69,0.0
20.45,1.21,-0.729,0.0
18.498,1.089,-0.761,0.0
0.0,0.0,0.0,0.0
30.376,1.765,-0.571,0.0
26.401,1.527,-0.641,0.0
22.986,1.323,-0.687,0.0
20.566,1.178,-0.727,0.0
18.558,1.057,-0.758,0.0
0.0,0.0,0.0,0.0
31.333,1.76,-0.579,0.0
26.649,1.489,-0.639,0.0
23.448,1.304,-0.693,0.0
20.808,1.151,-0.729,0.0
18.624,1.025,-0.755,0.0
37.711,2.056,-0.479,0.0
31.649,1.717,-0.575,0.0
26.958,1.454,-0.637,0.0
23.528,1.263,-0.687,0.0
20.865,1.114,-0.724,0.0
18.968,1.007,-0.762,0.0
0.0,0.0,0.0,0.0
31.653,1.656,-0.563,0.0
27.247,1.417,-0.634,0.0
23.779,1.23,-0.685,0.0
21.096,1.085,-0.723,0.0
19.058,0.975,-0.758,0.0
39.363,1.994,-0.469,0.0
32.472,1.635,-0.564,0.0
27.474,1.375,-0.627,0.0
23.815,1.185,-0.676,0.0
21.372,1.057,-0.723,0.0
19.179,0.943,-0.754,0.0
40.319,1.964,-0.462,1.0
32.994,1.597,-0.558,0.0
27.856,1.34,-0.623,0.0
24.254,1.159,-0.677,0.0
21.488,1.021,-0.717,0.0
19.396,0.916,-0.753,0.0
0.0,0.0,0.0,0.0
33.408,1.552,-0.548,0.0
28.088,1.296,-0.614,0.0
24.466,1.122,-0.671,0.0
21.673,0.987,-0.712,0.0
19.468,0.881,-0.746,0.0
0.0,0.0,0.0,0.0
34.369,1.53,-0.546,0.0
28.852,1.275,-0.615,0.0
25.012,1.098,-0.672,0.0
22.07,0.962,-0.713,0.0
19.762,0.855,-0.746,0.0
0.0,0.0,0.0,0.0
34.498,1.468,-0.528,0.0
29.604,1.25,-0.614,0.0
25.429,1.066,-0.668,0.0
22.439,0.934,-0.711,0.0
20.006,0.827,-0.743,0.0
44.6,1.824,-0.414,1.0
35.221,1.429,-0.518,0.0
0.0,0.0,0.0,0.0
25.972,1.038,-0.666,0.0
22.693,0.9,-0.705,0.0
20.275,0.799,-0.74,0.0
44.797,1.745,-0.387,2.0
35.835,1.385,-0.503,0.0
30.634,1.175,-0.596,0.0
26.256,0.999,-0.656,0.0
23.064,0.871,-0.701,0.0
20.41,0.765,-0.731,0.0
46.723,1.73,-0.372,0.0
36.863,1.354,-0.493,0.0
0.0,0.0,0.0,0.0
26.79,0.968,-0.65,0.0
23.561,0.844,-0.699,0.0
20.81,0.739,-0.73,0.0
46.967,1.649,-0.34,0.0
38.699,1.347,-0.489,0.0
0.0,0.0,0.0,0.0
27.147,0.929,-0.639,0.0
23.647,0.802,-0.684,0.0
21.116,0.71,-0.725,0.0
0.0,0.0,0.0,0.0
39.802,1.31,-0.473,0.0
33.194,1.082,-0.573,0.0
28.561,0.922,-0.65,1.0
24.321,0.778,-0.685,0.0
21.468,0.68,-0.72,0.0
0.0,0.0,0.0,0.0
0.0,0.0,0.0,0.0
33.457,1.026,-0.551,0.0
28.536,0.866,-0.626,2.0
24.716,0.743,-0.676,0.0
21.832,0.65,-0.714,0.0
57.129,1.678,-0.278,0.0
0.0,0.0,0.0,0.0
34.398,0.99,-0.537,0.0
28.564,0.813,-0.602,1.0
25.297,0.712,-0.669,0.0
22.484,0.626,-0.716,0.0
0.0,0.0,0.0,0.0
43.991,1.195,-0.412,0.0
35.535,0.955,-0.524,0.0
28.606,0.76,-0.578,1.0
25.874,0.679,-0.662,0.0
22.675,0.588,-0.702,0.0
0.0,0.0,0.0,0.0
0.0,0.0,0.0,0.0
0.0,0.0,0.0,0.0
30.708,0.758,-0.592,0.0
26.525,0.646,-0.653,0.0
23.165,0.557,-0.695,0.0
67.531,1.6,-0.145,4.0
48.807,1.142,-0.366,1.0
0.0,0.0,0.0,0.0
0.0,0.0,0.0,0.0
27.117,0.609,-0.641,0.0
23.961,0.531,-0.695,0.0
69.31,1.512,-0.08,1.0
48.517,1.044,-0.316,0.0
0.0,0.0,0.0,0.0
32.963,0.689,-0.57,0.0
27.997,0.577,-0.634,0.0
24.521,0.498,-0.686,0.0
70.847,1.414,-0.01,5.0
0.0,0.0,0.0,0.0
0.0,0.0,0.0,0.0
0.0,0.0,0.0,0.0
28.758,0.539,-0.621,0.0
24.86,0.459,-0.67,0.0
73.159,1.326,0.065,6.0
0.0,0.0,0.0,0.0
0.0,0.0,0.0,0.0
35.812,0.616,-0.544,0.0
29.627,0.501,-0.608,0.0
25.907,0.431,-0.67,0.0
81.135,1.321,0.161,1.0
0.0,0.0,0.0,0.0
46.903,0.736,-0.406,1.0
36.188,0.557,-0.51,0.0
0.0,0.0,0.0,0.0
26.436,0.391,-0.653,0.0
80.682,1.168,0.25,8.0
0.0,0.0,0.0,0.0
0.0,0.0,0.0,0.0
38.227,0.519,-0.494,0.0
32.258,0.428,-0.589,0.0
27.208,0.353,-0.641,0.0
85.102,1.078,0.363,13.0
0.0,0.0,0.0,0.0
0.0,0.0,0.0,0.0
41.067,0.483,-0.482,1.0
33.49,0.384,-0.571,0.0
28.521,0.319,-0.638,0.0
91.885,0.999,0.502,5.0
78.693,0.832,0.012,1.0
54.831,0.564,-0.281,0.0
42.923,0.429,-0.452,0.0
35.141,0.341,-0.557,0.0
29.369,0.276,-0.621,0.0
98.276,0.896,0.657,15.0
83.853,0.74,0.116,1.0
0.0,0.0,0.0,0.0
42.878,0.354,-0.398,0.0
35.638,0.283,-0.52,0.0
30.213,0.232,-0.601,0.0
104.841,0.774,0.832,24.0
86.185,0.613,0.227,5.0
41.825,0.285,-0.111,0.0
46.038,0.301,-0.37,1.0
0.0,0.0,0.0,0.0
0.0,0.0,0.0,0.0
110.961,0.629,1.022,17.0
90.704,0.488,0.357,3.0
0.0,0.0,0.0,0.0
0.0,0.0,0.0,0.0
0.0,0.0,0.0,0.0
32.974,0.14,-0.57,0.0
119.726,0.477,1.26,11.0
104.072,0.385,0.546,6.0
0.0,0.0,0.0,0.0
0.0,0.0,0.0,0.0
42.889,0.122,-0.458,1.0
34.44,0.089,-0.549,0.0
111.131,0.256,1.319,23.0
110.667,0.224,0.731,7.0
0.0,0.0,0.0,0.0
0.0,0.0,0.0,0.0
45.368,0.054,-0.422,2.0
0.0,0.0,0.0,0.0
117.289,0.076,1.554,13.0
111.122,0.043,0.886,11.0
97.283,0.012,0.263,1.0
0.0,0.0,0.0,0.0
45.568,-0.019,-0.361,0.0
37.623,-0.026,-0.495,0.0
112.888,-0.11,1.654,8.0
119.72,-0.148,1.124,6.0
100.562,-0.15,0.414,1.0
0.0,0.0,0.0,0.0
0.0,0.0,0.0,0.0
0.0,0.0,0.0,0.0
113.712,-0.291,1.828,8.0
119.731,-0.339,1.296,18.0
111.042,-0.344,0.619,6.0
0.0,0.0,0.0,0.0
0.0,0.0,0.0,0.0
45.418,-0.175,-0.468,0.0
114.691,-0.474,2.01,6.0
119.694,-0.526,1.47,13.0
114.24,-0.532,0.803,8.0
0.0,0.0,0.0,0.0
0.0,0.0,0.0,0.0
46.397,-0.252,-0.408,0.0
194.098,-1.103,3.691,24.0
119.725,-0.712,1.649,3.0
119.688,-0.743,1.021,16.0
0.0,0.0,0.0,0.0
0.0,0.0,0.0,0.0
0.0,0.0,0.0,0.0
119.721,-0.864,2.459,31.0
119.765,-0.894,1.832,80.0
119.668,-0.923,1.203,20.0
113.828,-0.907,0.537,1.0
0.0,0.0,0.0,0.0
0.0,0.0,0.0,0.0
119.724,-1.042,2.642,150.0
119.737,-1.072,2.015,150.0
119.754,-1.1,1.387,150.0
119.758,-1.13,0.749,85.0
0.0,0.0,0.0,0.0
0.0,0.0,0.0,0.0
119.73,-1.218,2.83,18.0
119.76,-1.247,2.203,11.0
119.759,-1.277,1.578,2.0
139.201,-1.518,1.092,25.0
0.0,0.0,0.0,0.0
0.0,0.0,0.0,0.0
208.918,-2.424,5.266,7.0
0.0,0.0,0.0,0.0
139.156,-1.682,2.054,7.0
139.232,-1.715,1.314,19.0
127.513,-1.599,0.536,3.0
0.0,0.0,0.0,0.0
113.196,-1.473,3.035,7.0
210.57,-2.788,4.546,7.0
204.028,-2.751,3.343,13.0
139.213,-1.909,1.54,4.0
138.79,-1.935,0.81,16.0
0.0,0.0,0.0,0.0
112.594,-1.621,3.204,16.0
206.09,-3.013,4.788,8.0
194.15,-2.883,3.499,9.0
0.0,0.0,0.0,0.0
138.877,-2.124,1.04,14.0
97.741,-1.517,0.223,1.0
112.887,-1.776,3.398,6.0
112.659,-1.798,2.804,15.0
193.996,-3.14,3.818,13.0
139.013,-2.28,1.997,8.0
139.113,-2.313,1.275,18.0
0.0,0.0,0.0,0.0
112.867,-1.925,3.587,10.0
112.752,-1.946,2.995,25.0
206.665,-3.613,4.413,10.0
193.157,-3.419,3.101,19.0
139.113,-2.492,1.51,9.0
138.892,-2.519,0.785,11.0
112.598,-2.066,3.771,26.0
112.805,-2.093,3.19,19.0
205.622,-3.86,4.746,14.0
193.161,-3.665,3.433,25.0
0.0,0.0,0.0,0.0
138.992,-2.694,1.022,19.0
112.725,-2.209,3.967,17.0
112.747,-2.232,3.382,27.0
206.481,-4.129,5.119,10.0
193.978,-3.918,3.779,14.0
138.922,-2.834,1.984,5.0
138.989,-2.862,1.263,20.0
113.314,-2.358,4.184,18.0
112.55,-2.364,3.57,26.0
209.429,-4.438,5.553,13.0
194.183,-4.154,4.121,5.0
193.215,-4.171,3.096,10.0
0.0,0.0,0.0,0.0
106.446,-2.34,4.116,10.0
113.009,-2.506,3.782,19.0
207.519,-4.641,5.865,8.0
118.285,-2.666,2.715,4.0
193.304,-4.394,3.435,25.0
0.0,0.0,0.0,0.0
115.602,-2.672,4.672,11.0
113.098,-2.635,3.982,18.0
210.23,-4.937,6.309,7.0
118.103,-2.793,2.917,13.0
193.289,-4.608,3.773,5.0
138.782,-3.332,1.987,7.0
96.688,-2.341,4.076,15.0
106.312,-2.593,3.93,21.0
120.867,-2.969,3.84,18.0
118.252,-2.925,3.131,11.0
0.0,0.0,0.0,0.0
193.355,-4.85,3.113,7.0
96.866,-2.449,4.257,14.0
96.749,-2.462,3.749,5.0
120.657,-3.091,4.048,17.0
207.383,-5.347,5.861,8.0
205.417,-5.332,4.741,9.0
195.125,-5.098,3.493,6.0
81.458,-2.144,3.726,14.0
106.263,-2.814,4.309,15.0
120.495,-3.21,4.26,9.0
120.917,-3.241,3.636,6.0
205.643,-5.544,5.118,9.0
195.088,-5.291,3.844,8.0
81.13,-2.217,3.859,35.0
94.523,-2.597,4.005,11.0
120.342,-3.326,4.475,8.0
120.455,-3.346,3.841,15.0
194.234,-5.426,5.187,14.0
194.953,-5.474,4.194,16.0
81.377,-2.301,4.018,16.0
81.398,-2.314,3.596,35.0
106.227,-3.034,4.141,9.0
120.271,-3.453,4.053,17.0
194.094,-5.602,5.533,16.0
194.55,-5.642,4.539,19.0
80.466,-2.349,4.12,25.0
81.212,-2.383,3.736,40.0
101.065,-2.978,4.125,14.0
105.99,-3.139,3.766,19.0
204.885,-6.096,6.217,10.0
194.109,-5.803,4.887,23.0
80.144,-2.411,4.251,11.0
81.153,-2.452,3.883,40.0
101.152,-3.07,4.315,18.0
101.723,-3.101,3.801,18.0
120.333,-3.683,3.873,4.0
193.761,-5.956,5.233,24.0
71.825,-2.222,3.941,6.0
80.943,-2.513,4.021,38.0
81.383,-2.537,3.621,11.0
101.193,-3.166,3.966,27.0
120.465,-3.785,4.098,8.0
193.436,-6.102,5.578,18.0
66.086,-2.097,3.749,37.0
80.39,-2.56,4.142,15.0
94.386,-3.017,4.374,17.0
101.051,-3.242,4.148,18.0
118.95,-3.831,4.269,11.0
194.764,-6.294,5.98,18.0
65.876,-2.141,3.859,29.0
71.758,-2.34,3.831,11.0
81.128,-2.654,3.91,10.0
94.308,-3.096,4.046,9.0
101.208,-3.333,3.817,31.0
187.426,-6.193,6.099,18.0
46.266,-1.537,2.796,7.0
66.154,-2.205,3.654,33.0
81.189,-2.714,4.062,17.0
94.241,-3.16,4.218,17.0
101.229,-3.405,4.007,26.0
119.672,-4.036,4.116,14.0
46.222,-1.568,2.88,38.0
66.13,-2.249,3.776,29.0
66.351,-2.263,3.444,29.0
94.175,-3.22,4.39,26.0
101.388,-3.477,4.201,5.0
101.194,-3.479,3.668,16.0
0.0,0.0,0.0,0.0
65.998,-2.287,3.892,11.0
66.378,-2.306,3.57,35.0
81.122,-2.825,3.933,34.0
94.324,-3.293,4.084,17.0
104.0,-3.639,3.965,14.0
44.584,-1.569,2.944,41.0
59.878,-2.112,3.643,13.0
66.406,-2.346,3.695,29.0
66.324,-2.349,3.339,15.0
94.176,-3.343,4.254,26.0
104.119,-3.703,4.163,21.0
44.389,-1.587,3.014,47.0
58.215,-2.086,3.65,7.0
66.204,-2.377,3.807,9.0
66.194,-2.38,3.456,38.0
81.21,-2.926,3.819,17.0
104.112,-3.759,4.357,16.0
44.326,-1.608,3.093,41.0
0.0,0.0,0.0,0.0
59.812,-2.178,3.551,33.0
66.255,-2.416,3.582,28.0
81.182,-2.965,3.969,29.0
94.207,-3.447,4.116,9.0
44.209,-1.626,3.167,43.0
44.465,-1.637,2.954,47.0
59.377,-2.19,3.636,26.0
59.645,-2.203,3.336,22.0
80.979,-2.995,4.107,21.0
94.322,-3.493,4.296,15.0
44.224,-1.646,3.25,49.0
44.383,-1.654,3.03,40.0
0.0,0.0,0.0,0.0
59.797,-2.234,3.455,29.0
66.251,-2.478,3.483,12.0
81.215,-3.041,3.848,35.0
44.207,-1.664,3.331,50.0
44.338,-1.67,3.109,33.0
44.473,-1.677,2.887,40.0
59.677,-2.252,3.557,33.0
66.334,-2.506,3.61,10.0
81.133,-3.069,3.994,29.0
44.148,-1.678,3.408,38.0
44.247,-1.683,3.185,39.0
44.418,-1.69,2.965,54.0
58.111,-2.213,3.571,9.0
59.675,-2.275,3.357,29.0
81.203,-3.097,4.145,15.0
44.13,-1.691,3.488,36.0
44.131,-1.693,3.257,52.0
44.375,-1.703,3.044,38.0
0.0,0.0,0.0,0.0
59.751,-2.295,3.47,33.0
66.292,-2.548,3.506,19.0
44.234,-1.708,3.577,40.0
44.17,-1.706,3.341,46.0
44.249,-1.71,3.116,44.0
44.454,-1.718,2.894,49.0
59.733,-2.31,3.578,32.0
59.783,-2.313,3.269,27.0
44.332,-1.723,3.666,37.0
44.147,-1.716,3.42,42.0
44.253,-1.72,3.196,46.0
44.409,-1.727,2.972,46.0
46.332,-1.801,2.858,17.0
59.737,-2.323,3.374,27.0
44.358,-1.734,3.749,26.0
44.102,-1.723,3.496,45.0
44.175,-1.726,3.27,44.0
44.439,-1.736,3.053,31.0
0.0,0.0,0.0,0.0
59.708,-2.332,3.479,30.0
44.421,-1.744,3.834,25.0
44.142,-1.732,3.578,44.0
44.126,-1.731,3.346,37.0
44.337,-1.738,3.126,25.0
44.546,-1.746,2.908,26.0
0.0,0.0,0.0,0.0
44.294,-1.744,3.902,31.0
44.243,-1.741,3.665,47.0
44.098,-1.734,3.422,41.0
44.295,-1.741,3.201,45.0
44.475,-1.748,2.982,35.0
58.22,-2.286,3.6,9.0
44.214,-1.745,3.974,47.0
44.352,-1.749,3.754,22.0
44.088,-1.737,3.499,35.0
44.148,-1.738,3.269,46.0
44.568,-1.754,3.067,20.0
0.0,0.0,0.0,0.0
44.229,-1.748,4.054,38.0
44.411,-1.753,3.837,24.0
44.185,-1.743,3.585,38.0
44.108,-1.738,3.343,40.0
44.342,-1.746,3.128,34.0
44.561,-1.753,2.911,24.0
46.286,-1.829,4.324,28.0
44.279,-1.748,3.903,32.0
44.237,-1.744,3.667,47.0
44.103,-1.737,3.419,39.0
44.287,-1.743,3.202,46.0
44.458,-1.747,2.981,38.0
46.39,-1.832,4.414,36.0
44.2,-1.744,3.972,47.0
44.336,-1.747,3.751,23.0
44.087,-1.734,3.494,40.0
44.157,-1.735,3.268,45.0
44.483,-1.746,3.059,23.0
46.485,-1.833,4.503,38.0
44.229,-1.741,4.051,38.0
44.412,-1.746,3.833,23.0
44.146,-1.733,3.574,43.0
44.138,-1.73,3.341,37.0
44.333,-1.735,3.122,27.0
46.711,-1.837,4.604,26.0
0.0,0.0,0.0,0.0
44.283,-1.735,3.897,22.0
44.268,-1.732,3.657,38.0
44.135,-1.724,3.414,41.0
44.252,-1.726,3.19,45.0
46.863,-1.836,4.698,24.0
46.306,-1.811,4.396,42.0
44.236,-1.727,3.966,42.0
44.372,-1.728,3.739,21.0
44.119,-1.716,3.485,35.0
44.148,-1.713,3.255,45.0
52.89,-2.062,5.389,15.0
46.553,-1.812,4.497,24.0
44.215,-1.717,4.036,38.0
44.3,-1.717,3.806,39.0
44.236,-1.711,3.567,39.0
44.17,-1.705,3.328,48.0
0.0,0.0,0.0,0.0
46.749,-1.809,4.591,25.0
46.322,-1.788,4.304,31.0
44.19,-1.702,3.868,34.0
44.237,-1.7,3.638,43.0
44.119,-1.692,3.395,41.0
51.469,-1.982,5.411,17.0
46.628,-1.792,4.654,28.0
46.312,-1.775,4.377,39.0
44.221,-1.691,3.94,38.0
44.379,-1.693,3.72,36.0
44.169,-1.681,3.469,42.0
51.869,-1.983,5.536,26.0
52.975,-2.02,5.373,5.0
46.62,-1.773,4.48,24.0
44.216,-1.677,4.009,25.0
44.221,-1.673,3.776,44.0
44.348,-1.673,3.552,33.0
44.692,-1.694,4.84,29.0
52.977,-2.002,5.455,15.0
46.739,-1.761,4.564,38.0
46.487,-1.747,4.288,36.0
44.179,-1.656,3.84,34.0
44.255,-1.654,3.612,40.0
44.698,-1.678,4.91,40.0
51.686,-1.934,5.401,15.0
46.582,-1.738,4.619,34.0
46.386,-1.725,4.348,59.0
44.166,-1.638,3.905,41.0
44.168,-1.633,3.672,36.0
44.659,-1.658,4.973,42.0
51.399,-1.902,5.449,21.0
46.577,-1.718,4.689,34.0
46.669,-1.717,4.445,34.0
44.18,-1.619,3.973,33.0
44.12,-1.612,3.733,38.0
44.732,-1.642,5.048,44.0
51.579,-1.887,5.545,6.0
52.699,-1.92,5.384,11.0
46.804,-1.7,4.527,30.0
46.937,-1.699,4.289,20.0
44.316,-1.599,3.814,22.0
44.819,-1.624,5.124,34.0
44.653,-1.612,4.865,36.0
51.421,-1.849,5.327,5.0
46.858,-1.679,4.599,21.0
46.73,-1.669,4.337,23.0
44.214,-1.573,3.867,36.0
44.878,-1.603,5.195,37.0
44.663,-1.59,4.929,41.0
44.933,-1.593,4.718,27.0
52.703,-1.861,5.246,27.0
46.742,-1.645,4.403,20.0
44.168,-1.548,3.925,28.0
45.035,-1.585,5.276,24.0
44.833,-1.571,5.011,36.0
44.804,-1.564,4.767,39.0
52.98,-1.842,5.347,19.0
46.501,-1.61,4.444,35.0
44.215,-1.525,3.989,30.0
44.789,-1.551,5.308,32.0
44.816,-1.545,5.07,41.0
44.716,-1.535,4.818,34.0
45.586,-1.559,4.662,22.0
46.745,-1.591,4.53,27.0
47.068,-1.595,4.309,15.0
44.721,-1.522,5.36,36.0
44.895,-1.521,5.139,38.0
44.606,-1.504,4.865,30.0
45.119,-1.515,4.674,23.0
46.798,-1.564,4.596,20.0
47.074,-1.566,4.371,21.0
44.665,-1.491,5.413,43.0
44.972,-1.495,5.206,38.0
44.725,-1.48,4.936,19.0
44.29,-1.458,4.644,48.0
45.172,-1.48,4.494,16.0
46.788,-1.527,4.403,7.0
44.522,-1.457,5.452,39.0
44.58,-1.453,5.216,20.0
44.285,-1.436,4.942,28.0
44.123,-1.423,4.681,42.0
44.85,-1.44,4.517,35.0
43.716,-1.397,4.167,17.0
44.673,-1.432,5.525,33.0
44.004,-1.403,5.203,38.0
44.052,-1.397,4.97,18.0
44.017,-1.389,4.724,39.0
44.794,-1.406,4.565,44.0
43.673,-1.364,4.215,25.0
44.681,-1.4,5.58,18.0
44.198,-1.377,5.279,26.0
43.696,-1.354,4.982,39.0
43.88,-1.353,4.761,40.0
44.253,-1.357,4.561,43.0
43.816,-1.336,4.28,28.0
52.042,-1.592,6.56,7.0
43.842,-1.334,5.287,36.0
43.67,-1.321,5.029,37.0
43.742,-1.315,4.796,46.0
43.935,-1.313,4.579,35.0
44.516,-1.323,4.398,21.0
44.481,-1.326,5.658,41.0
44.164,-1.309,5.376,26.0
43.719,-1.288,5.083,40.0
43.705,-1.28,4.84,37.0
43.879,-1.277,4.62,35.0
44.908,-1.3,4.486,20.0
44.454,-1.29,5.703,30.0
44.478,-1.283,5.462,28.0
43.769,-1.254,5.136,38.0
43.765,-1.246,4.893,36.0
43.752,-1.238,4.653,42.0
44.514,-1.251,4.493,22.0
55.809,-1.573,7.218,10.0
44.473,-1.246,5.508,34.0
44.025,-1.225,5.212,41.0
43.778,-1.21,4.94,44.0
43.77,-1.201,4.7,45.0
43.938,-1.198,4.479,36.0
55.929,-1.529,7.291,10.0
44.537,-1.209,5.561,25.0
44.198,-1.192,5.277,45.0
43.686,-1.17,4.972,41.0
43.709,-1.163,4.736,42.0
43.773,-1.156,4.505,47.0
45.125,-1.195,5.926,31.0
44.544,-1.17,5.605,19.0
44.474,-1.16,5.352,18.0
44.139,-1.143,5.066,19.0
43.667,-1.123,4.773,46.0
43.672,-1.115,4.535,45.0
44.794,-1.145,5.925,21.0
44.529,-1.13,5.645,22.0
50.676,-1.276,6.145,8.0
50.349,-1.258,5.824,14.0
43.846,-1.087,4.832,43.0
43.392,-1.068,4.545,39.0
44.524,-1.097,5.929,45.0
45.17,-1.104,5.766,22.0
44.486,-1.079,5.434,36.0
50.49,-1.215,5.884,5.0
43.988,-1.05,4.885,31.0
43.414,-1.028,4.584,41.0
44.733,-1.061,5.995,19.0
45.469,-1.069,5.843,20.0
44.461,-1.037,5.468,37.0
44.577,-1.03,5.232,25.0
44.244,-1.015,4.95,26.0
43.456,-0.988,4.623,42.0
45.207,-1.028,6.096,21.0
45.417,-1.024,5.872,21.0
44.344,-0.991,5.488,29.0
50.072,-1.109,5.916,20.0
44.182,-0.971,4.977,18.0
43.355,-0.944,4.646,40.0
44.252,-0.963,6.001,14.0
45.182,-0.974,5.876,19.0
47.958,-1.025,5.972,4.0
50.264,-1.064,5.976,10.0
44.265,-0.928,5.019,18.0
43.439,-0.902,4.686,42.0
44.542,-0.925,6.073,33.0
45.084,-0.927,5.896,20.0
44.629,-0.909,5.589,26.0
44.54,-0.898,5.327,19.0
0.0,0.0,0.0,0.0
43.296,-0.856,4.7,33.0
44.246,-0.874,6.063,19.0
44.507,-0.871,5.85,30.0
45.073,-0.872,5.674,21.0
48.341,-0.926,5.813,13.0
44.53,-0.844,5.108,18.0
43.369,-0.814,4.736,38.0
43.258,-0.81,5.955,19.0
44.613,-0.827,5.892,19.0
45.287,-0.83,5.729,21.0
48.138,-0.873,5.818,16.0
50.696,-0.91,5.846,21.0
43.752,-0.776,4.803,38.0
42.909,-0.759,5.932,29.0
44.274,-0.775,5.874,33.0
45.546,-0.788,5.788,20.0
44.592,-0.762,5.415,34.0
0.0,0.0,0.0,0.0
43.813,-0.731,4.834,32.0
43.083,-0.717,5.98,30.0
43.515,-0.715,5.796,18.0
45.59,-0.74,5.818,20.0
47.867,-0.767,5.837,5.0
48.362,-0.766,5.629,4.0
43.901,-0.687,4.866,33.0
42.707,-0.665,5.949,43.0
43.29,-0.665,5.788,18.0
44.359,-0.673,5.682,18.0
47.955,-0.718,5.871,4.0
48.479,-0.716,5.665,13.0
41.35,-0.602,4.602,34.0
42.754,-0.62,5.975,45.0
42.948,-0.614,5.761,34.0
44.322,-0.624,5.697,21.0
41.394,-0.575,5.085,36.0
41.362,-0.566,4.851,35.0
41.303,-0.557,4.614,34.0
42.538,-0.57,5.963,30.0
42.902,-0.566,5.773,40.0
44.435,-0.577,5.73,19.0
41.252,-0.528,5.084,27.0
41.298,-0.52,4.859,31.0
41.237,-0.511,4.622,43.0
42.042,-0.516,5.909,42.0
42.825,-0.517,5.778,32.0
44.452,-0.528,5.747,19.0
41.157,-0.481,5.086,39.0
41.073,-0.472,4.846,41.0
41.252,-0.466,4.637,42.0
41.95,-0.469,5.91,44.0
42.769,-0.469,5.784,43.0
44.202,-0.477,5.729,14.0
41.26,-0.437,5.111,33.0
41.017,-0.426,4.851,39.0
41.219,-0.42,4.645,16.0
42.036,-0.423,5.933,37.0
42.514,-0.419,5.76,25.0
44.081,-0.426,5.724,5.0
43.18,-0.409,5.36,3.0
41.094,-0.381,4.87,41.0
41.073,-0.372,4.638,41.0
42.056,-0.376,5.946,35.0
42.314,-0.37,5.743,38.0
41.234,-0.352,5.363,13.0
41.207,-0.344,5.123,27.0
40.971,-0.334,4.864,37.0
41.203,-0.327,4.66,41.0
41.943,-0.327,5.937,43.0
42.115,-0.32,5.723,43.0
41.233,-0.306,5.37,33.0
41.193,-0.297,5.128,39.0
41.0,-0.288,4.873,38.0
41.688,-0.284,4.721,16.0
41.961,-0.28,5.946,39.0
42.158,-0.273,5.734,48.0
41.166,-0.259,5.366,42.0
41.099,-0.25,5.121,40.0
41.086,-0.242,4.888,43.0
41.738,-0.238,4.73,32.0
42.664,-0.236,6.049,19.0
42.085,-0.225,5.728,40.0
41.175,-0.212,5.37,38.0
41.068,-0.204,5.12,45.0
41.07,-0.196,4.888,43.0
41.475,-0.19,4.703,16.0
42.693,-0.188,6.055,40.0
42.11,-0.177,5.732,41.0
41.221,-0.166,5.377,39.0
41.145,-0.157,5.13,41.0
41.084,-0.149,4.89,35.0
41.337,-0.142,4.687,26.0
42.141,-0.137,5.976,38.0
42.121,-0.129,5.733,42.0
48.297,-0.139,6.299,18.0
41.105,-0.11,5.124,39.0
41.19,-0.103,4.901,41.0
41.525,-0.095,4.707,33.0
42.025,-0.089,5.958,36.0
42.066,-0.081,5.723,45.0
48.09,-0.083,6.269,15.0
41.107,-0.064,5.121,37.0
41.076,-0.056,4.884,27.0
41.666,-0.049,4.719,16.0
42.221,-0.041,5.981,32.0
42.067,-0.033,5.719,51.0
48.352,-0.029,6.298,13.0
41.047,-0.016,5.108,41.0
41.039,-0.009,4.875,34.0
41.296,-0.002,4.671,10.0
42.196,0.006,5.971,23.0
42.226,0.014,5.734,46.0
41.947,0.021,5.457,18.0
41.065,0.029,5.104,38.0
40.972,0.037,4.859,33.0
51.692,0.055,5.838,5.0
42.637,0.055,6.026,18.0
42.202,0.062,5.722,51.0
41.873,0.069,5.438,18.0
41.067,0.075,5.095,41.0
40.999,0.082,4.853,35.0
41.315,0.091,4.656,27.0
42.468,0.104,5.991,10.0
42.193,0.111,5.71,45.0
41.485,0.116,5.377,25.0
41.166,0.122,5.096,28.0
43.155,0.136,5.097,5.0
54.777,0.182,6.158,7.0
48.789,0.174,6.869,5.0
42.235,0.158,5.704,38.0
42.033,0.165,5.435,24.0
43.087,0.177,5.321,4.0
41.159,0.176,4.848,33.0
41.324,0.184,4.632,26.0
48.824,0.229,6.858,5.0
42.328,0.206,5.702,30.0
42.155,0.212,5.437,23.0
40.916,0.213,5.038,16.0
41.075,0.221,4.823,42.0
41.209,0.228,4.604,36.0
42.438,0.246,5.944,38.0
42.261,0.252,5.676,43.0
0.0,0.0,0.0,0.0
40.685,0.256,4.994,34.0
41.259,0.266,4.828,45.0
41.203,0.273,4.587,37.0
42.363,0.292,5.916,24.0
42.27,0.298,5.659,40.0
40.997,0.296,5.253,38.0
40.677,0.301,4.975,39.0
41.073,0.31,4.788,42.0
41.222,0.318,4.57,23.0
42.198,0.337,5.873,30.0
42.141,0.344,5.622,36.0
40.747,0.339,5.201,38.0
40.598,0.344,4.945,39.0
41.099,0.355,4.771,42.0
41.078,0.361,4.533,43.0
41.641,0.378,5.774,17.0
42.019,0.388,5.583,24.0
40.723,0.383,5.177,36.0
40.647,0.388,4.929,41.0
40.926,0.397,4.728,44.0
41.102,0.405,4.513,38.0
41.134,0.418,5.68,26.0
40.74,0.42,5.39,42.0
40.865,0.427,5.171,41.0
40.702,0.432,4.912,38.0
41.211,0.444,4.737,43.0
41.059,0.448,4.484,40.0
40.75,0.457,5.602,41.0
40.861,0.464,5.381,39.0
40.685,0.468,5.123,40.0
40.61,0.473,4.876,43.0
41.596,0.492,4.755,44.0
40.947,0.49,4.446,51.0
40.619,0.498,5.558,44.0
40.702,0.505,5.333,40.0
40.73,0.511,5.102,38.0
40.659,0.516,4.854,41.0
41.567,0.534,4.724,36.0
40.753,0.529,4.398,43.0
40.575,0.539,5.523,41.0
40.906,0.549,5.331,18.0
40.736,0.553,5.074,39.0
40.581,0.556,4.816,36.0
41.226,0.571,4.656,32.0
40.698,0.569,4.362,39.0
40.629,0.581,5.501,40.0
41.524,0.6,5.381,18.0
40.701,0.593,5.039,39.0
40.545,0.597,4.781,36.0
40.701,0.605,4.565,36.0
40.809,0.612,4.343,30.0
40.557,0.621,5.459,40.0
41.073,0.634,5.29,28.0
40.607,0.632,4.995,38.0
40.537,0.637,4.748,39.0
40.603,0.643,4.521,40.0
40.695,0.65,4.297,42.0
40.589,0.661,5.429,45.0
41.456,0.681,5.305,29.0
40.53,0.671,4.951,38.0
40.491,0.675,4.708,33.0
40.575,0.682,4.484,45.0
40.893,0.692,4.284,39.0
40.589,0.7,5.394,44.0
41.184,0.716,5.234,25.0
40.851,0.715,4.954,16.0
40.481,0.714,4.671,43.0
40.655,0.722,4.457,46.0
40.895,0.731,4.247,41.0
40.591,0.739,5.357,44.0
40.8,0.747,5.148,44.0
40.815,0.753,4.913,34.0
40.498,0.752,4.636,38.0
40.757,0.761,4.43,39.0
40.901,0.768,4.21,44.0
40.796,0.78,5.346,39.0
40.79,0.785,5.108,33.0
40.783,0.789,4.87,36.0
40.47,0.787,4.594,41.0
40.591,0.794,4.373,50.0
40.956,0.806,4.176,37.0
40.813,0.817,5.307,38.0
40.418,0.813,5.021,39.0
40.606,0.822,4.808,27.0
40.546,0.825,4.562,44.0
40.676,0.832,4.341,40.0
40.976,0.843,4.136,36.0
40.635,0.849,5.242,38.0
40.503,0.851,4.989,44.0
40.351,0.851,4.736,43.0
40.628,0.862,4.528,37.0
40.74,0.868,4.305,37.0
40.987,0.878,4.094,29.0
40.405,0.879,5.169,41.0
40.389,0.882,4.932,41.0
40.933,0.898,4.76,34.0
40.532,0.893,4.474,47.0
40.75,0.902,4.262,33.0
40.867,0.909,4.038,21.0
40.472,0.914,5.133,41.0
40.427,0.916,4.892,38.0
40.402,0.919,4.654,38.0
40.579,0.928,4.434,39.0
40.748,0.935,4.217,36.0
40.758,0.939,3.982,27.0
40.276,0.942,5.062,45.0
40.403,0.948,4.842,27.0
40.525,0.954,4.621,21.0
40.566,0.959,4.386,42.0
40.775,0.968,4.172,44.0
40.61,0.967,3.92,37.0
40.427,0.977,5.034,40.0
40.278,0.976,4.78,43.0
40.515,0.985,4.572,30.0
40.626,0.991,4.344,41.0
40.919,1.002,4.138,31.0
40.67,1.0,3.877,30.0
40.454,1.007,4.987,42.0
40.299,1.007,4.733,29.0
40.586,1.017,4.53,39.0
40.864,1.027,4.319,40.0
40.887,1.031,4.084,26.0
40.561,1.026,3.817,32.0
40.326,1.034,4.921,40.0
40.287,1.036,4.68,35.0
40.814,1.052,4.504,16.0
41.004,1.06,4.282,31.0
40.77,1.057,4.021,30.0
40.677,1.058,3.776,34.0
40.307,1.062,4.866,32.0
40.338,1.065,4.634,25.0
40.731,1.078,4.442,45.0
40.98,1.088,4.226,38.0
40.562,1.079,3.947,36.0
40.792,1.088,3.733,25.0
40.448,1.092,4.83,41.0
40.521,1.097,4.601,33.0
40.714,1.105,4.385,41.0
41.045,1.116,4.178,36.0
40.511,1.104,3.888,39.0
40.556,1.108,3.657,39.0
40.45,1.118,4.774,39.0
40.66,1.126,4.561,39.0
40.996,1.138,4.36,37.0
40.875,1.137,4.105,39.0
40.614,1.132,3.842,33.0
40.601,1.134,3.606,41.0
40.429,1.143,4.715,38.0
40.68,1.151,4.507,40.0
40.902,1.16,4.293,43.0
40.72,1.157,4.032,22.0
40.737,1.16,3.797,20.0
40.595,1.158,3.548,29.0
40.431,1.166,4.658,37.0
40.804,1.178,4.462,34.0
41.004,1.186,4.245,40.0
40.69,1.179,3.971,45.0
40.562,1.177,3.723,31.0
40.477,1.177,3.48,33.0
40.486,1.189,4.606,26.0
40.809,1.201,4.404,36.0
41.081,1.21,4.193,27.0
41.18,1.215,3.959,61.0
40.565,1.198,3.664,38.0
40.422,1.196,3.416,39.0
41.323,1.235,4.64,18.0
40.781,1.22,4.34,43.0
41.115,1.232,4.135,29.0
41.059,1.232,3.886,36.0
40.516,1.217,3.599,39.0
40.605,1.221,3.371,36.0
40.605,1.233,4.498,39.0
40.939,1.244,4.295,33.0
41.491,1.263,4.111,19.0
40.536,1.235,3.776,39.0
40.45,1.233,3.532,36.0
40.642,1.241,3.313,39.0
40.723,1.255,4.448,34.0
40.802,1.258,4.217,40.0
41.173,1.271,4.015,44.0
40.492,1.251,3.709,42.0
40.422,1.25,3.467,39.0
40.786,1.262,3.262,43.0
40.858,1.276,4.399,30.0
40.716,1.272,4.145,40.0
41.203,1.288,3.954,43.0
40.434,1.265,3.64,39.0
40.435,1.266,3.405,43.0
40.816,1.279,3.199,43.0
40.821,1.29,4.33,41.0
40.809,1.29,4.09,49.0
40.7,1.287,3.841,47.0
40.444,1.28,3.576,36.0
40.511,1.282,3.346,38.0
59.566,1.887,4.574,9.0
40.93,1.307,4.275,39.0
41.352,1.321,4.077,42.0
40.388,1.291,3.746,39.0
40.38,1.291,3.506,40.0
40.712,1.302,3.297,27.0
59.58,1.906,4.48,12.0
40.811,1.316,4.195,33.0
41.21,1.329,3.995,37.0
40.386,1.303,3.679,34.0
40.385,1.303,3.439,41.0
40.728,1.314,3.231,33.0
45.187,1.458,3.322,14.0
40.858,1.329,4.132,42.0
45.6,1.483,4.345,7.0
40.427,1.314,3.615,40.0
40.513,1.317,3.382,32.0
40.722,1.324,3.163,42.0
66.586,2.165,4.784,14.0
40.909,1.34,4.068,43.0
40.343,1.321,3.775,39.0
40.425,1.323,3.547,39.0
40.65,1.331,3.325,37.0
40.915,1.339,3.109,32.0
66.57,2.179,4.671,23.0
40.616,1.338,3.969,46.0
40.395,1.331,3.711,24.0
40.353,1.329,3.471,46.0
40.774,1.342,3.266,35.0
45.224,1.488,3.358,8.0
66.568,2.19,4.556,26.0
40.69,1.348,3.906,24.0
40.377,1.336,3.639,37.0
40.543,1.341,3.417,38.0
40.737,1.347,3.191,41.0
45.209,1.494,3.278,17.0
66.582,2.2,4.441,18.0
40.399,1.343,3.806,33.0
40.501,1.345,3.579,39.0
40.672,1.35,3.356,35.0
40.87,1.355,3.13,38.0
66.565,2.206,4.71,21.0
65.846,2.181,4.276,8.0
40.372,1.345,3.732,34.0
40.408,1.345,3.499,42.0
40.739,1.355,3.289,39.0
40.874,1.358,3.058,32.0
66.567,2.211,4.592,28.0
65.61,2.177,4.145,22.0
40.399,1.348,3.662,32.0
40.462,1.349,3.432,41.0
40.705,1.355,3.214,44.0
45.186,1.503,3.3,24.0
66.575,2.212,4.475,27.0
65.658,2.18,4.032,9.0
40.542,1.353,3.603,31.0
40.631,1.354,3.373,34.0
40.864,1.36,3.153,42.0
66.562,2.213,4.742,17.0
66.406,2.206,4.345,11.0
72.3,2.399,4.309,17.0
40.439,1.348,3.521,42.0
40.732,1.356,3.308,38.0
40.893,1.36,3.082,39.0
66.56,2.21,4.621,30.0
65.609,2.175,4.173,20.0
72.517,2.402,4.191,19.0
40.442,1.345,3.446,42.0
40.723,1.352,3.232,42.0
45.186,1.499,3.323,21.0
66.578,2.205,4.501,25.0
65.615,2.17,4.055,11.0
72.214,2.385,4.043,22.0
40.622,1.347,3.387,36.0
40.815,1.351,3.165,40.0
66.566,2.2,4.773,15.0
66.384,2.19,4.366,8.0
71.75,2.363,4.301,11.0
72.254,2.376,3.912,27.0
40.725,1.344,3.321,39.0
40.947,1.349,3.099,21.0
66.561,2.189,4.65,28.0
65.585,2.153,4.192,25.0
72.493,2.375,4.211,14.0
72.353,2.366,3.783,12.0
40.774,1.338,3.249,37.0
45.203,1.48,3.337,14.0
66.595,2.177,4.527,21.0
65.628,2.141,4.073,12.0
72.198,2.351,4.06,25.0
72.524,2.356,3.656,14.0
40.757,1.328,3.17,43.0
66.57,2.165,4.79,18.0
79.667,2.585,5.266,9.0
70.9,2.295,4.266,6.0
72.285,2.335,3.928,15.0
72.509,2.337,3.518,21.0
40.919,1.323,3.105,9.0
66.593,2.147,4.664,25.0
65.548,2.108,4.209,26.0
72.137,2.315,4.204,14.0
65.557,2.099,3.439,14.0
72.445,2.313,3.379,24.0
45.174,1.446,3.342,15.0
79.579,2.541,5.423,23.0
65.633,2.09,4.089,8.0
72.201,2.293,4.071,22.0
65.426,2.072,3.308,10.0
72.504,2.291,3.245,10.0
66.587,2.108,4.8,23.0
65.516,2.068,4.34,8.0
71.338,2.245,4.309,5.0
65.678,2.061,3.578,6.0
72.572,2.272,3.531,9.0
118.049,3.685,5.059,10.0
66.622,2.083,4.675,8.0
65.56,2.044,4.218,25.0
72.148,2.242,4.222,29.0
72.725,2.254,3.825,11.0
116.429,3.598,5.446,4.0
78.817,2.428,3.229,7.0
78.177,2.411,5.339,4.0
70.896,2.18,4.427,4.0
72.176,2.212,4.087,9.0
82.358,2.516,4.176,8.0
117.467,3.577,5.272,12.0
78.823,2.392,3.08,20.0
65.465,1.989,4.346,20.0
71.74,2.172,4.344,12.0
72.767,2.195,3.981,13.0
82.294,2.474,4.016,11.0
118.034,3.537,5.073,10.0
78.821,2.353,2.929,22.0
65.474,1.955,4.221,8.0
72.13,2.146,4.229,20.0
82.219,2.437,4.341,7.0
65.491,1.934,3.07,19.0
117.996,3.472,4.847,15.0
78.81,2.31,2.779,23.0
70.954,2.08,4.439,8.0
81.082,2.367,4.599,12.0
79.546,2.313,4.048,8.0
115.778,3.354,5.208,17.0
78.855,2.275,3.088,10.0
78.835,2.266,2.629,26.0
71.947,2.066,4.362,32.0
79.499,2.274,4.357,7.0
79.252,2.257,3.882,13.0
78.889,2.237,3.396,14.0
78.816,2.226,2.936,23.0
78.831,2.217,2.479,27.0
79.593,2.236,4.673,5.0
78.87,2.206,4.171,16.0
78.845,2.196,3.711,23.0
78.793,2.184,3.243,25.0
78.78,2.174,2.785,30.0
78.83,2.166,2.329,32.0
78.793,2.161,4.476,10.0
78.797,2.151,4.018,28.0
78.796,2.141,3.559,33.0
78.805,2.131,3.094,32.0
78.82,2.121,2.636,31.0
78.849,2.112,2.18,31.0
78.794,2.106,4.326,23.0
78.801,2.095,3.868,36.0
78.814,2.085,3.41,33.0
78.812,2.074,2.943,34.0
78.895,2.065,2.488,27.0
78.924,2.055,2.031,28.0
78.808,2.047,4.176,22.0
78.841,2.037,3.719,31.0
78.858,2.026,3.262,33.0
78.853,2.015,2.795,28.0
206.933,5.26,6.137,9.0
120.008,3.033,2.862,15.0
78.867,1.987,4.03,15.0
78.91,1.977,3.574,3.0
190.281,4.739,7.513,9.0
78.954,1.954,2.65,11.0
85.308,2.099,2.369,24.0
85.292,2.087,1.874,27.0
115.736,2.821,5.696,10.0
85.371,2.068,3.705,12.0
78.867,1.898,2.965,13.0
85.258,2.039,2.702,32.0
85.248,2.026,2.206,31.0
85.241,2.013,1.712,33.0
85.359,2.008,4.041,28.0
85.309,1.993,3.543,30.0
78.868,1.829,2.817,13.0
85.236,1.963,2.54,36.0
85.244,1.951,2.047,40.0
85.236,1.937,1.552,37.0
85.299,1.93,3.878,30.0
78.872,1.771,3.127,20.0
85.26,1.9,2.885,38.0
85.253,1.886,2.382,38.0
85.256,1.873,1.889,37.0
85.26,1.859,1.394,37.0
85.306,1.849,3.719,31.0
85.3,1.835,3.223,27.0
85.305,1.821,2.729,33.0
85.305,1.806,2.225,29.0
85.321,1.792,1.73,33.0
85.333,1.778,1.237,30.0
78.834,1.632,3.29,17.0
85.398,1.753,3.068,18.0
91.854,1.87,2.768,29.0
87.074,1.758,2.111,33.0
87.276,1.747,1.61,47.0
87.515,1.737,1.108,26.0
85.474,1.684,3.412,6.0
91.773,1.792,3.13,32.0
91.822,1.776,2.599,29.0
89.01,1.707,1.995,3.0
87.841,1.668,1.46,6.0
91.947,1.73,0.996,9.0
70.154,1.309,2.671,12.0
91.851,1.697,2.965,38.0
91.796,1.679,2.43,38.0
91.816,1.662,1.89,39.0
91.881,1.647,1.36,32.0
91.849,1.63,0.829,29.0
120.715,2.122,4.378,10.0
91.908,1.598,2.8,17.0
91.87,1.58,2.267,37.0
91.842,1.563,1.725,41.0
91.887,1.546,1.195,42.0
91.82,1.527,0.661,17.0
69.974,1.152,2.412,8.0
92.023,1.497,2.638,15.0
91.984,1.478,2.104,19.0
91.948,1.461,1.563,33.0
91.962,1.443,1.031,34.0
85.026,1.318,0.462,10.0
120.303,1.843,3.933,12.0
98.606,1.49,2.652,18.0
119.928,1.789,2.531,50.0
98.596,1.452,1.502,22.0
98.668,1.433,0.932,16.0
81.057,1.161,0.296,4.0
98.493,1.391,3.044,22.0
98.554,1.372,2.475,26.0
98.591,1.352,1.906,31.0
98.542,1.332,1.326,36.0
98.419,1.31,0.754,14.0
77.98,1.022,0.147,1.0
98.522,1.272,2.874,33.0
98.524,1.251,2.303,35.0
98.518,1.23,1.733,33.0
98.538,1.21,1.154,33.0
85.444,1.032,0.507,6.0
79.124,0.938,0.012,1.0
98.579,1.148,2.703,26.0
98.591,1.129,2.135,29.0
98.56,1.107,1.564,29.0
98.508,1.085,0.984,22.0
85.466,0.924,0.361,9.0
0.0,0.0,0.0,0.0
98.722,1.024,2.539,24.0
98.735,1.003,1.969,19.0
98.679,0.981,1.398,26.0
98.484,0.957,0.816,17.0
84.025,0.797,0.21,1.0
0.0,0.0,0.0,0.0
104.701,0.948,2.515,10.0
99.977,0.882,1.823,8.0
99.955,0.86,1.246,8.0
98.145,0.823,0.647,17.0
84.012,0.686,0.07,1.0
52.792,0.419,-0.26,0.0
101.735,0.785,2.275,4.0
100.504,0.752,1.666,2.0
104.895,0.761,1.134,9.0
97.002,0.681,0.479,4.0
0.0,0.0,0.0,0.0
48.92,0.321,-0.322,0.0
111.051,0.703,2.299,23.0
101.407,0.618,1.515,2.0
110.994,0.651,1.018,11.0
87.711,0.494,0.289,5.0
0.0,0.0,0.0,0.0
45.844,0.237,-0.377,1.0
111.106,0.547,2.119,26.0
111.129,0.52,1.479,24.0
110.849,0.493,0.836,6.0
87.853,0.369,0.147,1.0
0.0,0.0,0.0,0.0
42.876,0.159,-0.422,1.0
119.883,0.417,2.094,150.0
119.755,0.389,1.403,17.0
103.966,0.312,0.618,9.0
0.0,0.0,0.0,0.0
49.686,0.124,-0.281,0.0
0.0,0.0,0.0,0.0
111.102,0.224,1.766,10.0
0.0,0.0,0.0,0.0
94.339,0.144,0.414,1.0
0.0,0.0,0.0,0.0
45.641,0.046,-0.33,0.0
37.754,0.029,-0.49,0.0
111.113,0.059,1.594,15.0
111.0,0.031,0.954,9.0
95.487,0.002,0.27,1.0
0.0,0.0,0.0,0.0
45.052,-0.022,-0.396,2.0
35.628,-0.026,-0.517,0.0
117.434,-0.117,1.504,8.0
110.792,-0.139,0.782,14.0
0.0,0.0,0.0,0.0
0.0,0.0,0.0,0.0
0.0,0.0,0.0,0.0
0.0,0.0,0.0,0.0
119.718,-0.304,1.355,18.0
0.0,0.0,0.0,0.0
0.0,0.0,0.0,0.0
0.0,0.0,0.0,0.0
0.0,0.0,0.0,0.0
31.94,-0.123,-0.559,0.0
119.72,-0.493,1.178,17.0
0.0,0.0,0.0,0.0
0.0,0.0,0.0,0.0
0.0,0.0,0.0,0.0
0.0,0.0,0.0,0.0
30.824,-0.168,-0.584,0.0
119.724,-0.684,1.006,7.0
0.0,0.0,0.0,0.0
0.0,0.0,0.0,0.0
0.0,0.0,0.0,0.0
35.274,-0.239,-0.517,0.0
29.705,-0.209,-0.605,0.0
114.019,-0.834,0.798,7.0
0.0,0.0,0.0,0.0
0.0,0.0,0.0,0.0
0.0,0.0,0.0,0.0
33.897,-0.285,-0.544,0.0
28.619,-0.249,-0.623,0.0
0.0,0.0,0.0,0.0
0.0,0.0,0.0,0.0
0.0,0.0,0.0,0.0
0.0,0.0,0.0,0.0
0.0,0.0,0.0,0.0
0.0,0.0,0.0,0.0
0.0,0.0,0.0,0.0
0.0,0.0,0.0,0.0
46.843,-0.522,-0.335,0.0
0.0,0.0,0.0,0.0
30.779,-0.361,-0.576,0.0
26.449,-0.317,-0.646,0.0
0.0,0.0,0.0,0.0
0.0,0.0,0.0,0.0
47.27,-0.607,-0.4,0.0
35.724,-0.469,-0.511,0.0
29.693,-0.398,-0.594,0.0
25.485,-0.349,-0.656,0.0
0.0,0.0,0.0,0.0
0.0,0.0,0.0,0.0
0.0,0.0,0.0,0.0
34.725,-0.516,-0.541,0.0
0.0,0.0,0.0,0.0
24.671,-0.381,-0.667,0.0
0.0,0.0,0.0,0.0
0.0,0.0,0.0,0.0
0.0,0.0,0.0,0.0
32.789,-0.544,-0.551,0.0
0.0,0.0,0.0,0.0
23.861,-0.41,-0.674,0.0
0.0,0.0,0.0,0.0
0.0,0.0,0.0,0.0
0.0,0.0,0.0,0.0
0.0,0.0,0.0,0.0
26.728,-0.498,-0.634,0.0
23.195,-0.439,-0.683,0.0
0.0,0.0,0.0,0.0
46.073,-0.898,-0.353,1.0
0.0,0.0,0.0,0.0
31.011,-0.623,-0.595,0.0
26.053,-0.532,-0.648,0.0
18.164,-0.376,-0.556,5.0
0.0,0.0,0.0,0.0
44.907,-0.955,-0.396,1.0
0.0,0.0,0.0,0.0
29.471,-0.645,-0.599,0.0
18.161,-0.403,-0.473,1.0
18.114,-0.407,-0.575,159.0
54.587,-1.243,-0.231,0.0
0.0,0.0,0.0,0.0
34.588,-0.809,-0.541,0.0
28.891,-0.684,-0.619,0.0
18.155,-0.436,-0.492,20.0
18.116,-0.44,-0.595,187.0
0.0,0.0,0.0,0.0
0.0,0.0,0.0,0.0
33.215,-0.837,-0.555,0.0
21.91,-0.559,-0.493,151.0
21.891,-0.565,-0.617,150.0
18.155,-0.474,-0.615,150.0
48.115,-1.27,-0.306,1.0
38.325,-1.023,-0.462,0.0
22.014,-0.595,-0.39,0.0
21.874,-0.598,-0.515,200.0
21.876,-0.605,-0.639,150.0
21.861,-0.611,-0.763,15.0
48.06,-1.356,-0.354,1.0
38.03,-1.085,-0.497,0.0
31.064,-0.896,-0.582,0.0
21.916,-0.639,-0.537,152.0
21.885,-0.645,-0.661,22.0
0.0,0.0,0.0,0.0
44.583,-1.339,-0.371,1.0
38.178,-1.159,-0.535,0.0
30.083,-0.923,-0.592,0.0
21.88,-0.678,-0.557,0.0
21.919,-0.686,-0.683,3.0
19.961,-0.632,-0.735,0.0
44.174,-1.409,-0.409,1.0
34.857,-1.122,-0.521,0.0
29.433,-0.958,-0.607,0.0
24.975,-0.821,-0.659,0.0
21.907,-0.727,-0.703,0.0
19.527,-0.654,-0.737,0.0
41.624,-1.404,-0.423,1.0
0.0,0.0,0.0,0.0
28.368,-0.975,-0.61,0.0
0.0,0.0,0.0,0.0
21.603,-0.757,-0.712,0.0
19.337,-0.684,-0.747,0.0
0.0,0.0,0.0,0.0
0.0,0.0,0.0,0.0
0.0,0.0,0.0,0.0
23.905,-0.874,-0.672,0.0
21.235,-0.784,-0.718,0.0
19.153,-0.713,-0.756,0.0
0.0,0.0,0.0,0.0
0.0,0.0,0.0,0.0
27.061,-1.032,-0.627,0.0
0.0,0.0,0.0,0.0
20.76,-0.805,-0.718,0.0
18.771,-0.735,-0.756,0.0
38.145,-1.501,-0.482,0.0
30.878,-1.225,-0.564,0.0
26.79,-1.072,-0.641,0.0
22.984,-0.927,-0.682,0.0
20.624,-0.839,-0.729,0.0
18.427,-0.756,-0.756,0.0
0.0,0.0,0.0,0.0
30.476,-1.267,-0.58,0.0
26.425,-1.107,-0.652,0.0
22.6,-0.955,-0.688,0.0
20.334,-0.866,-0.734,0.0
18.21,-0.782,-0.76,0.0
0.0,0.0,0.0,0.0
30.131,-1.309,-0.594,0.0
25.713,-1.126,-0.652,0.0
22.433,-0.99,-0.698,0.0
19.795,-0.88,-0.728,0.0
17.96,-0.805,-0.762,0.0
20.02,-0.901,-0.295,0.0
29.21,-1.324,-0.595,0.0
0.0,0.0,0.0,0.0
22.043,-1.014,-0.7,0.0
19.806,-0.918,-0.741,1.0
17.812,-0.832,-0.767,0.0
20.019,-0.938,-0.307,25.0
20.065,-0.948,-0.421,20.0
20.088,-0.956,-0.535,2.0
21.799,-1.044,-0.706,0.0
19.767,-0.954,-0.751,1.0
17.715,-0.861,-0.774,0.0
20.006,-0.976,-0.319,30.0
20.04,-0.984,-0.432,28.0
20.071,-0.993,-0.546,23.0
20.053,-0.999,-0.661,9.0
19.714,-0.989,-0.761,0.0
20.14,-1.018,-0.891,0.0
20.023,-1.015,-0.33,26.0
20.043,-1.023,-0.444,29.0
20.056,-1.03,-0.557,29.0
20.04,-1.037,-0.671,14.0
19.624,-1.022,-0.768,0.0
17.411,-0.913,-0.779,0.0
20.068,-1.055,-0.341,2.0
20.054,-1.061,-0.454,8.0
20.084,-1.07,-0.567,9.0
20.089,-1.077,-0.683,4.0
19.03,-1.027,-0.754,0.0
17.184,-0.934,-0.777,0.0
0.0,0.0,0.0,0.0
27.423,-1.503,-0.634,0.0
23.585,-1.301,-0.677,1.0
20.149,-1.119,-0.694,0.0
18.837,-1.053,-0.755,0.0
17.211,-0.968,-0.786,0.0
31.329,-1.766,-0.562,0.0
0.0,0.0,0.0,0.0
23.601,-1.347,-0.688,1.0
19.989,-1.148,-0.697,2.0
18.731,-1.082,-0.758,0.0
17.035,-0.99,-0.785,0.0
20.013,-1.166,-0.366,24.0
19.986,-1.171,-0.478,150.0
19.976,-1.178,-0.59,150.0
19.961,-1.184,-0.703,22.0
0.0,0.0,0.0,0.0
16.859,-1.012,-0.783,0.0
19.982,-1.201,-0.373,150.0
19.987,-1.209,-0.485,151.0
19.974,-1.215,-0.596,6.0
19.936,-1.22,-0.709,4.0
18.491,-1.138,-0.761,0.0
16.866,-1.044,-0.789,0.0
20.106,-1.247,-0.382,27.0
20.126,-1.255,-0.494,21.0
20.127,-1.262,-0.607,18.0
20.002,-1.261,-0.717,4.0
20.136,-1.277,-0.835,0.0
16.842,-1.074,-0.793,0.0
20.071,-1.282,-0.386,32.0
20.093,-1.29,-0.499,30.0
20.122,-1.299,-0.612,29.0
19.962,-1.296,-0.721,3.0
20.133,-1.315,-0.84,0.0
20.156,-1.323,-0.953,0.0
20.068,-1.319,-0.391,31.0
20.102,-1.328,-0.504,26.0
20.114,-1.336,-0.616,11.0
19.89,-1.328,-0.723,2.0
18.145,-1.218,-0.761,0.0
16.681,-1.126,-0.792,0.0
20.08,-1.357,-0.395,10.0
25.789,-1.752,-0.651,0.0
22.584,-1.542,-0.696,0.0
19.866,-1.363,-0.725,2.0
18.138,-1.251,-0.763,0.0
16.667,-1.156,-0.795,0.0
23.596,-2.278,-0.405,0.0
22.387,-2.168,-0.507,21.0
19.644,-1.908,-0.552,16.0
18.402,-1.793,-0.62,6.0
16.62,-1.625,-0.651,2.0
16.234,-1.592,-0.725,1.0
23.593,-2.313,-0.394,0.0
22.532,-2.216,-0.499,21.0
19.93,-1.966,-0.551,18.0
18.238,-1.805,-0.605,15.0
16.552,-1.643,-0.64,2.0
15.739,-1.567,-0.695,2.0
23.589,-2.348,-0.382,0.0
22.811,-2.277,-0.494,19.0
20.117,-2.014,-0.546,19.0
18.072,-1.814,-0.591,16.0
16.582,-1.67,-0.633,4.0
15.434,-1.559,-0.673,1.0
23.585,-2.381,-0.369,0.0
22.934,-2.322,-0.484,22.0
20.234,-2.055,-0.538,18.0
18.242,-1.858,-0.586,17.0
16.762,-1.712,-0.63,11.0
15.38,-1.575,-0.662,1.0
28.335,-2.901,-0.428,1.0
23.054,-2.366,-0.474,18.0
20.62,-2.123,-0.536,19.0
18.422,-1.902,-0.581,17.0
16.826,-1.742,-0.623,17.0
15.448,-1.604,-0.656,3.0
28.946,-3.003,-0.42,9.0
23.243,-2.418,-0.464,11.0
20.742,-2.163,-0.527,19.0
18.518,-1.937,-0.573,17.0
16.981,-1.781,-0.618,16.0
15.564,-1.637,-0.651,6.0
28.721,-3.019,-0.398,24.0
23.335,-2.459,-0.451,5.0
20.838,-2.201,-0.516,18.0
18.616,-1.971,-0.564,17.0
17.174,-1.824,-0.614,18.0
15.598,-1.661,-0.643,14.0
29.007,-3.087,-0.383,27.0
23.613,-2.519,-0.441,15.0
21.185,-2.266,-0.51,19.0
18.701,-2.005,-0.554,17.0
17.26,-1.855,-0.605,20.0
15.558,-1.677,-0.63,15.0
29.55,-3.183,-0.37,28.0
23.681,-2.557,-0.425,37.0
21.043,-2.277,-0.492,15.0
18.875,-2.047,-0.546,16.0
17.408,-1.893,-0.598,17.0
15.661,-1.707,-0.623,16.0
30.045,-3.273,-0.355,26.0
24.217,-2.644,-0.418,30.0
21.703,-2.375,-0.492,23.0
19.005,-2.085,-0.536,18.0
17.522,-1.927,-0.589,18.0
15.876,-1.75,-0.62,23.0
30.221,-3.33,-0.335,19.0
24.94,-2.754,-0.411,21.0
21.924,-2.426,-0.48,20.0
19.287,-2.139,-0.529,19.0
17.61,-1.958,-0.579,16.0
16.004,-1.783,-0.613,23.0
30.881,-3.439,-0.318,9.0
25.2,-2.812,-0.396,21.0
22.193,-2.482,-0.469,20.0
19.285,-2.161,-0.514,23.0
17.878,-2.008,-0.573,18.0
16.239,-1.828,-0.609,17.0
35.318,-3.974,-0.336,4.0
27.457,-3.095,-0.41,9.0
22.4,-2.53,-0.455,20.0
19.237,-2.177,-0.497,24.0
17.926,-2.033,-0.56,16.0
16.389,-1.863,-0.601,17.0
35.457,-4.028,-0.308,23.0
0.0,0.0,0.0,0.0
22.398,-2.554,-0.437,22.0
19.89,-2.273,-0.497,17.0
18.14,-2.077,-0.552,16.0
16.489,-1.892,-0.591,16.0
35.708,-4.095,-0.28,24.0
0.0,0.0,0.0,0.0
22.972,-2.644,-0.428,20.0
20.281,-2.339,-0.49,16.0
18.336,-2.119,-0.542,18.0
16.688,-1.932,-0.584,15.0
36.425,-4.215,-0.254,13.0
28.92,-3.352,-0.358,12.0
23.192,-2.693,-0.412,20.0
20.604,-2.397,-0.48,18.0
18.532,-2.16,-0.531,17.0
16.852,-1.968,-0.574,15.0
47.042,0.719,-0.381,0.0
0.0,0.0,0.0,0.0
0.0,0.0,0.0,0.0
25.795,0.407,-0.66,0.0
22.498,0.359,-0.706,0.0
19.842,0.32,-0.738,0.0
41.819,0.681,-0.416,0.0
0.0,0.0,0.0,0.0
28.25,0.469,-0.609,0.0
24.336,0.408,-0.668,0.0
21.535,0.365,-0.716,0.0
19.148,0.328,-0.748,0.0
0.0,0.0,0.0,0.0
32.196,0.561,-0.568,0.0
0.0,0.0,0.0,0.0
23.489,0.416,-0.689,0.0
20.602,0.368,-0.724,0.0
18.528,0.334,-0.759,0.0
0.0,0.0,0.0,0.0
30.048,0.55,-0.586,0.0
25.873,0.478,-0.655,0.0
22.61,0.421,-0.706,0.0
19.889,0.373,-0.736,0.0
17.937,0.339,-0.768,0.0
33.537,0.638,-0.523,0.0
28.401,0.545,-0.608,0.0
24.576,0.475,-0.669,0.0
21.326,0.416,-0.706,0.0
19.167,0.376,-0.746,0.0
17.479,0.346,-0.782,0.0
32.391,0.644,-0.567,0.0
0.0,0.0,0.0,0.0
23.419,0.472,-0.682,0.0
20.686,0.42,-0.724,0.0
18.493,0.378,-0.755,0.0
16.87,0.348,-0.787,0.0
30.073,0.623,-0.584,0.0
25.764,0.537,-0.65,0.0
22.484,0.471,-0.697,0.0
19.95,0.421,-0.737,0.0
17.872,0.38,-0.764,0.0
16.278,0.348,-0.79,0.0
28.528,0.612,-0.608,0.0
24.527,0.53,-0.666,0.0
21.597,0.469,-0.711,0.0
19.13,0.418,-0.743,0.0
17.34,0.381,-0.775,0.0
15.925,0.352,-0.804,0.0
26.844,0.596,-0.624,0.0
23.479,0.524,-0.682,0.0
20.722,0.465,-0.722,0.0
18.508,0.418,-0.755,0.0
16.919,0.384,-0.788,0.0
15.412,0.352,-0.808,0.0
25.741,0.589,-0.648,0.0
22.47,0.517,-0.696,0.0
19.916,0.461,-0.733,0.0
17.909,0.416,-0.764,0.0
16.423,0.384,-0.797,0.0
15.036,0.353,-0.817,0.0
24.762,0.583,-0.67,0.0
21.485,0.508,-0.706,0.0
19.313,0.459,-0.747,0.0
17.408,0.416,-0.777,0.0
15.918,0.382,-0.803,0.0
14.584,0.352,-0.82,0.0
23.439,0.566,-0.68,0.0
20.752,0.504,-0.722,0.0
18.406,0.449,-0.748,0.0
16.835,0.412,-0.784,0.0
15.312,0.377,-0.802,0.0
14.233,0.352,-0.829,0.0
22.377,0.554,-0.692,0.0
19.918,0.495,-0.732,0.0
17.921,0.447,-0.763,0.0
16.321,0.409,-0.792,0.0
14.952,0.376,-0.812,0.0
13.867,0.35,-0.834,0.0
21.59,0.546,-0.71,0.0
19.159,0.486,-0.741,0.0
17.47,0.445,-0.777,0.0
15.883,0.406,-0.801,0.0
14.541,0.373,-0.818,0.0
13.514,0.348,-0.839,0.0
20.634,0.532,-0.718,0.0
18.532,0.479,-0.753,0.0
16.898,0.439,-0.785,0.0
15.403,0.401,-0.806,0.0
14.249,0.373,-0.829,0.0
13.185,0.346,-0.844,0.0
20.03,0.526,-0.736,0.0
17.77,0.468,-0.756,0.0
16.231,0.429,-0.785,0.0
15.009,0.398,-0.815,0.0
13.845,0.368,-0.833,0.0
12.894,0.344,-0.851,0.0
18.947,0.505,-0.733,0.0
17.438,0.466,-0.776,0.0
15.869,0.426,-0.799,0.0
14.565,0.392,-0.819,0.0
13.496,0.364,-0.838,0.0
12.49,0.338,-0.848,0.0
18.635,0.504,-0.757,0.0
16.871,0.458,-0.783,0.0
15.357,0.418,-0.802,0.0
14.169,0.387,-0.824,0.0
13.11,0.359,-0.839,0.0
12.155,0.334,-0.849,0.0
17.812,0.488,-0.758,0.0
16.297,0.448,-0.788,0.0
14.951,0.412,-0.81,0.0
13.786,0.381,-0.829,0.0
12.752,0.353,-0.841,0.0
11.801,0.328,-0.847,0.0
17.418,0.482,-0.775,0.0
15.877,0.441,-0.798,0.0
14.543,0.405,-0.816,0.0
13.596,0.379,-0.843,0.0
12.48,0.349,-0.847,0.0
11.533,0.323,-0.85,0.0
16.809,0.47,-0.779,0.0
15.371,0.431,-0.802,0.0
14.21,0.399,-0.824,0.0
13.094,0.369,-0.837,0.0
12.119,0.342,-0.846,0.0
11.376,0.322,-0.86,0.0
16.357,0.461,-0.79,0.0
15.023,0.424,-0.813,0.0
13.846,0.392,-0.83,0.0
12.755,0.362,-0.84,0.0
11.811,0.336,-0.847,0.0
11.165,0.318,-0.866,0.0
15.776,0.448,-0.792,0.0
14.584,0.415,-0.817,0.0
13.567,0.386,-0.839,0.0
12.447,0.355,-0.843,0.0
11.553,0.33,-0.85,0.0
10.955,0.314,-0.87,0.0
15.362,0.438,-0.8,0.0
14.244,0.407,-0.824,0.0
13.112,0.375,-0.835,0.0
12.187,0.349,-0.849,0.0
11.384,0.327,-0.859,0.0
10.761,0.309,-0.875,0.0
15.038,0.431,-0.811,0.0
13.844,0.397,-0.827,0.0
12.853,0.369,-0.843,0.0
11.824,0.34,-0.846,0.0
11.179,0.322,-0.865,0.0
10.498,0.303,-0.873,0.0
14.598,0.419,-0.815,0.0
13.636,0.392,-0.84,0.0
12.518,0.36,-0.844,0.0
11.571,0.333,-0.849,0.0
10.965,0.316,-0.869,0.0
10.336,0.298,-0.879,0.0
14.276,0.41,-0.823,0.0
13.147,0.378,-0.834,0.0
12.146,0.349,-0.842,0.0
11.374,0.328,-0.856,0.0
10.776,0.311,-0.874,0.0
10.177,0.294,-0.885,0.0
13.898,0.399,-0.826,0.0
12.753,0.366,-0.833,0.0
11.855,0.341,-0.843,0.0
11.203,0.323,-0.863,0.0
10.522,0.303,-0.872,0.0
10.041,0.29,-0.891,0.0
13.606,0.39,-0.834,0.0
12.515,0.359,-0.84,0.0
11.622,0.334,-0.848,0.0
10.999,0.316,-0.867,0.0
10.369,0.298,-0.878,0.0
9.864,0.284,-0.893,0.0
13.251,0.379,-0.836,0.0
12.251,0.35,-0.844,0.0
11.4,0.326,-0.852,0.0
10.81,0.309,-0.872,0.0
10.202,0.292,-0.883,0.0
9.734,0.279,-0.899,0.0
12.972,0.369,-0.841,0.0
11.909,0.339,-0.842,0.0
11.243,0.32,-0.86,0.0
10.583,0.301,-0.872,0.0
10.048,0.286,-0.887,0.0
9.566,0.273,-0.901,0.0
12.557,0.355,-0.837,0.0
11.658,0.33,-0.845,0.0
11.052,0.313,-0.865,0.0
10.377,0.294,-0.874,0.0
9.913,0.281,-0.893,0.0
9.431,0.267,-0.904,0.0
50.833,-1.055,-0.321,0.0
42.654,-0.875,-0.491,0.0
0.0,0.0,0.0,0.0
29.026,-0.583,-0.64,0.0
25.324,-0.503,-0.691,0.0
22.144,-0.435,-0.72,0.0
0.0,0.0,0.0,0.0
45.096,-0.866,-0.447,1.0
35.074,-0.665,-0.531,0.0
30.228,-0.566,-0.618,0.0
26.411,-0.489,-0.678,0.0
0.0,0.0,0.0,0.0
0.0,0.0,0.0,0.0
46.652,-0.831,-0.388,0.0
0.0,0.0,0.0,0.0
31.877,-0.553,-0.601,0.0
27.113,-0.464,-0.653,0.0
23.844,-0.402,-0.699,0.0
0.0,0.0,0.0,0.0
50.049,-0.821,-0.337,1.0
0.0,0.0,0.0,0.0
34.113,-0.543,-0.589,0.0
0.0,0.0,0.0,0.0
24.793,-0.382,-0.688,0.0
0.0,0.0,0.0,0.0
0.0,0.0,0.0,0.0
0.0,0.0,0.0,0.0
34.386,-0.497,-0.541,0.0
0.0,0.0,0.0,0.0
25.771,-0.36,-0.675,0.0
0.0,0.0,0.0,0.0
0.0,0.0,0.0,0.0
46.979,-0.621,-0.416,0.0
36.911,-0.478,-0.524,0.0
31.092,-0.395,-0.604,0.0
26.73,-0.333,-0.659,0.0
0.0,0.0,0.0,0.0
0.0,0.0,0.0,0.0
0.0,0.0,0.0,0.0
40.224,-0.461,-0.511,0.0
32.851,-0.368,-0.589,0.0
28.044,-0.307,-0.65,0.0
119.731,-1.282,0.552,18.0
0.0,0.0,0.0,0.0
0.0,0.0,0.0,0.0
0.0,0.0,0.0,0.0
34.627,-0.335,-0.57,0.0
29.29,-0.275,-0.636,0.0
119.719,-1.098,0.726,5.0
0.0,0.0,0.0,0.0
0.0,0.0,0.0,0.0
0.0,0.0,0.0,0.0
36.207,-0.293,-0.544,0.0
30.247,-0.237,-0.613,0.0
119.672,-0.906,0.9,8.0
0.0,0.0,0.0,0.0
0.0,0.0,0.0,0.0
0.0,0.0,0.0,0.0
0.0,0.0,0.0,0.0
31.363,-0.195,-0.591,0.0
119.72,-0.713,1.071,17.0
0.0,0.0,0.0,0.0
0.0,0.0,0.0,0.0
0.0,0.0,0.0,0.0
40.136,-0.195,-0.49,0.0
33.657,-0.154,-0.587,0.0
119.679,-0.517,1.237,16.0
111.001,-0.449,0.562,4.0
0.0,0.0,0.0,0.0
0.0,0.0,0.0,0.0
45.073,-0.145,-0.488,0.0
34.284,-0.1,-0.552,0.0
119.731,-0.318,1.401,12.0
111.042,-0.262,0.715,11.0
0.0,0.0,0.0,0.0
0.0,0.0,0.0,0.0
45.422,-0.069,-0.43,1.0
0.0,0.0,0.0,0.0
111.382,-0.108,1.452,16.0
111.302,-0.075,0.865,8.0
95.713,-0.038,0.237,1.0
0.0,0.0,0.0,0.0
45.803,0.007,-0.374,0.0
0.0,0.0,0.0,0.0
111.065,0.083,1.594,12.0
111.161,0.115,1.008,11.0
0.0,0.0,0.0,0.0
0.0,0.0,0.0,0.0
49.904,0.094,-0.344,0.0
0.0,0.0,0.0,0.0
119.845,0.296,1.872,13.0
119.749,0.331,1.237,15.0
104.09,0.317,0.524,8.0
0.0,0.0,0.0,0.0
0.0,0.0,0.0,0.0
42.852,0.168,-0.469,1.0
38.466,4.772,-0.521,5.0
29.381,3.643,-0.566,7.0
25.997,3.222,-0.65,1.0
22.739,2.817,-0.701,0.0
20.121,2.492,-0.735,0.0
18.118,2.243,-0.766,0.0
29.886,3.693,-0.436,2.0
29.384,3.63,-0.597,4.0
25.381,3.134,-0.661,0.0
22.116,2.729,-0.705,0.0
19.738,2.435,-0.742,0.0
17.728,2.187,-0.768,0.0
29.87,3.676,-0.467,3.0
29.126,3.583,-0.622,1.0
24.75,3.043,-0.67,0.0
21.597,2.654,-0.71,0.0
19.405,2.384,-0.75,0.0
17.519,2.151,-0.777,0.0
29.879,3.661,-0.498,2.0
27.504,3.368,-0.615,0.0
24.191,2.961,-0.68,0.0
21.157,2.588,-0.718,0.0
18.953,2.318,-0.751,0.0
17.164,2.098,-0.778,0.0
29.978,3.655,-0.529,3.0
26.919,3.28,-0.629,0.0
23.63,2.878,-0.687,0.0
20.7,2.52,-0.722,0.0
18.523,2.254,-0.752,0.0
16.951,2.061,-0.786,0.0
29.964,3.634,-0.559,18.0
26.301,3.188,-0.641,0.0
23.045,2.792,-0.693,0.0
20.43,2.473,-0.733,0.0
18.227,2.206,-0.758,0.0
16.623,2.01,-0.787,0.0
29.982,3.616,-0.588,14.0
25.662,3.093,-0.65,0.0
22.544,2.716,-0.699,0.0
19.925,2.398,-0.734,0.0
17.937,2.158,-0.764,0.0
16.376,1.969,-0.791,0.0
29.907,3.586,-0.615,5.0
25.194,3.018,-0.662,0.0
22.097,2.645,-0.707,0.0
19.64,2.35,-0.742,0.0
17.73,2.12,-0.771,0.0
16.173,1.932,-0.796,0.0
28.058,3.343,-0.603,0.0
24.603,2.929,-0.669,0.0
21.609,2.57,-0.711,0.0
19.317,2.296,-0.748,0.0
17.389,2.065,-0.773,0.0
15.926,1.89,-0.799,0.0
27.424,3.245,-0.615,1.0
24.062,2.845,-0.676,0.0
21.166,2.5,-0.715,0.0
18.893,2.23,-0.749,0.0
17.218,2.031,-0.781,0.0
15.814,1.864,-0.807,0.0
26.938,3.165,-0.628,1.0
23.533,2.762,-0.682,0.0
20.804,2.44,-0.722,0.0
18.583,2.177,-0.753,0.0
16.947,1.984,-0.783,0.0
15.526,1.816,-0.806,0.0
26.282,3.064,-0.635,1.0
23.114,2.692,-0.69,0.0
20.323,2.365,-0.723,0.0
18.324,2.131,-0.758,0.0
16.769,1.948,-0.789,0.0
15.343,1.781,-0.81,0.0
25.762,2.98,-0.644,0.0
22.704,2.623,-0.697,0.0
20.036,2.313,-0.729,0.0
18.025,2.079,-0.76,0.0
16.492,1.9,-0.79,0.0
