X,Y,Z,Reflectivity
89.158,8.587,0.97,11.0
89.009,8.591,0.466,11.0
88.976,8.635,2.933,14.0
88.893,8.644,2.428,12.0
88.71,8.643,1.922,13.0
88.607,8.65,1.411,11.0
88.49,8.656,0.91,13.0
88.351,8.661,0.41,11.0
88.214,8.693,2.853,3.0
88.111,8.699,2.353,7.0
88.017,8.706,1.853,9.0
87.918,8.712,1.345,12.0
87.774,8.715,0.848,11.0
87.627,8.718,0.351,11.0
87.673,8.767,2.781,4.0
87.488,8.764,2.28,7.0
87.326,8.763,1.782,9.0
87.247,8.771,1.278,11.0
87.127,8.776,0.784,11.0
86.956,8.776,0.291,11.0
86.932,8.817,2.699,12.0
86.845,8.822,2.205,11.0
86.728,8.826,1.712,12.0
86.619,8.83,1.21,11.0
86.489,8.833,0.719,11.0
86.368,8.837,0.23,8.0
86.34,8.876,2.621,12.0
86.211,8.878,2.129,11.0
86.111,8.883,1.639,11.0
85.981,8.884,1.14,11.0
85.861,8.886,0.653,11.0
85.761,8.892,0.168,11.0
85.709,8.928,2.54,13.0
85.587,8.929,2.051,11.0
85.524,8.937,1.565,10.0
85.407,8.938,1.07,11.0
84.253,8.833,0.578,20.0
84.186,8.841,0.102,22.0
84.189,8.881,2.432,31.0
84.176,8.893,1.954,54.0
84.157,8.904,1.477,67.0
84.164,8.919,0.99,108.0
84.157,8.932,0.514,150.0
84.169,8.948,0.037,12.0
84.159,8.985,2.367,49.0
84.201,9.003,1.89,34.0
84.293,9.026,1.413,21.0
84.268,9.036,0.926,16.0
84.228,9.046,0.448,12.0
75.95,8.17,-0.026,4.0
84.102,9.085,2.297,6.0
83.964,9.082,1.816,6.0
83.925,9.091,1.34,6.0
83.78,9.088,0.852,6.0
83.689,9.091,0.376,8.0
70.147,7.632,-0.082,4.0
83.59,9.132,2.213,8.0
83.437,9.127,1.736,9.0
83.342,9.129,1.26,10.0
81.255,8.913,0.758,8.0
0.0,0.0,0.0,0.0
65.711,7.228,-0.133,10.0
83.061,9.173,2.129,12.0
82.988,9.176,1.655,12.0
82.885,9.176,1.181,11.0
82.749,9.173,0.701,10.0
0.0,0.0,0.0,0.0
65.811,7.316,-0.191,4.0
82.609,9.217,2.045,12.0
82.487,9.215,1.572,11.0
82.425,9.219,1.102,11.0
82.337,9.221,0.624,11.0
80.628,9.041,0.151,14.0
45.384,5.096,-0.172,10.0
82.152,9.258,1.959,11.0
82.038,9.255,1.488,11.0
81.968,9.258,1.02,11.0
81.858,9.256,0.545,10.0
80.237,9.084,0.078,11.0
45.492,5.157,-0.214,5.0
81.708,9.294,1.874,12.0
81.658,9.299,1.407,10.0
81.526,9.294,0.939,10.0
81.429,9.294,0.466,10.0
67.234,7.682,0.002,6.0
0.0,0.0,0.0,0.0
81.305,9.333,1.786,10.0
81.236,9.334,1.321,8.0
67.793,7.798,0.716,9.0
67.725,7.798,0.323,14.0
64.49,7.434,-0.059,7.0
40.352,4.657,-0.267,15.0
66.42,7.689,1.396,6.0
66.386,7.692,1.016,29.0
66.358,7.697,0.637,40.0
66.357,7.705,0.253,55.0
66.339,7.711,-0.125,30.0
40.036,4.659,-0.304,39.0
66.329,7.742,1.328,65.0
66.334,7.749,0.95,83.0
66.337,7.757,0.572,72.0
66.338,7.764,0.186,61.0
66.358,7.775,-0.192,15.0
39.643,4.65,-0.341,40.0
66.336,7.803,1.262,56.0
66.34,7.809,0.883,42.0
66.384,7.821,0.505,28.0
66.484,7.841,0.119,15.0
45.526,5.374,-0.177,13.0
39.307,4.645,-0.378,19.0
66.497,7.879,1.197,15.0
66.476,7.882,0.817,16.0
66.412,7.881,0.437,13.0
66.311,7.876,0.051,13.0
45.44,5.402,-0.224,3.0
38.945,4.634,-0.414,14.0
66.195,7.897,1.123,15.0
66.166,7.899,0.745,17.0
66.094,7.897,0.366,19.0
66.027,7.895,-0.017,8.0
40.813,4.884,-0.243,16.0
38.58,4.621,-0.451,7.0
65.899,7.912,1.049,16.0
65.868,7.914,0.672,15.0
65.797,7.911,0.296,19.0
65.707,7.906,-0.086,7.0
40.078,4.826,-0.281,15.0
38.557,4.647,-0.491,8.0
65.637,7.929,0.976,15.0
65.581,7.927,0.6,16.0
65.52,7.925,0.224,18.0
45.766,5.54,-0.108,2.0
39.779,4.819,-0.322,26.0
38.531,4.671,-0.532,8.0
65.354,7.939,0.901,17.0
65.31,7.939,0.527,19.0
65.266,7.938,0.153,14.0
45.592,5.549,-0.157,14.0
39.348,4.792,-0.361,29.0
38.515,4.694,-0.574,3.0
65.124,7.953,0.828,16.0
65.064,7.95,0.454,18.0
65.002,7.947,0.082,10.0
45.51,5.567,-0.207,8.0
38.92,4.764,-0.4,14.0
29.913,3.664,-0.478,3.0
64.884,7.962,0.753,16.0
64.847,7.962,0.381,20.0
64.774,7.957,0.01,11.0
41.615,5.115,-0.236,17.0
38.572,4.744,-0.439,11.0
29.763,3.663,-0.509,1.0
64.679,7.973,0.679,16.0
64.615,7.968,0.309,20.0
64.575,7.967,-0.061,5.0
40.516,5.002,-0.274,16.0
38.485,4.754,-0.481,8.0
29.664,3.666,-0.54,2.0
64.505,7.984,0.606,19.0
64.473,7.983,0.236,23.0
45.657,5.655,-0.094,3.0
39.643,4.913,-0.312,16.0
38.487,4.772,-0.523,6.0
29.363,3.643,-0.568,7.0
64.356,7.994,0.532,20.0
64.289,7.989,0.164,13.0
45.637,5.673,-0.145,13.0
39.287,4.886,-0.354,39.0
30.029,3.737,-0.442,4.0
29.297,3.648,-0.6,16.0
64.204,8.002,0.458,18.0
64.156,7.999,0.09,8.0
0.0,0.0,0.0,0.0
38.889,4.852,-0.394,15.0
29.652,3.701,-0.47,3.0
29.193,3.646,-0.63,5.0
64.074,8.009,0.385,19.0
64.001,8.002,0.017,8.0
41.859,5.235,-0.228,17.0
38.537,4.822,-0.434,14.0
29.437,3.685,-0.5,3.0
27.353,3.425,-0.622,1.0
63.944,8.013,0.311,18.0
63.85,8.003,-0.054,5.0
40.796,5.115,-0.268,17.0
38.439,4.821,-0.477,9.0
29.371,3.685,-0.533,3.0
26.861,3.371,-0.641,1.0
63.84,8.018,0.238,17.0
45.714,5.742,-0.091,3.0
39.918,5.015,-0.308,16.0
38.426,4.829,-0.521,3.0
29.325,3.687,-0.566,4.0
26.019,3.272,-0.651,0.0
63.74,8.02,0.165,14.0
45.643,5.743,-0.143,20.0
39.368,4.955,-0.348,30.0
30.284,3.812,-0.445,9.0
29.231,3.681,-0.597,5.0
25.416,3.201,-0.665,0.0
63.686,8.024,0.092,13.0
45.518,5.736,-0.194,12.0
38.951,4.909,-0.389,16.0
29.572,3.728,-0.468,4.0
29.123,3.672,-0.628,3.0
24.688,3.114,-0.674,0.0
63.628,8.026,0.019,11.0
41.931,5.289,-0.227,18.0
38.533,4.861,-0.43,14.0
29.264,3.692,-0.497,2.0
27.207,3.433,-0.618,0.0
24.079,3.039,-0.685,0.0
59.862,7.556,-0.05,6.0
40.762,5.145,-0.267,16.0
38.424,4.85,-0.472,8.0
29.234,3.691,-0.53,2.0
26.709,3.372,-0.637,1.0
23.305,2.943,-0.69,0.0
45.691,5.769,-0.091,5.0
39.894,5.037,-0.308,16.0
38.438,4.853,-0.517,3.0
29.237,3.692,-0.564,4.0
26.131,3.3,-0.654,1.0
22.749,2.873,-0.7,0.0
45.629,5.761,-0.143,18.0
39.305,4.962,-0.348,15.0
30.316,3.827,-0.442,8.0
29.199,3.686,-0.597,6.0
25.409,3.208,-0.665,0.0
22.407,2.829,-0.715,0.0
45.549,5.748,-0.195,7.0
38.895,4.908,-0.389,14.0
29.62,3.738,-0.466,4.0
29.03,3.663,-0.626,2.0
24.605,3.105,-0.672,0.0
21.698,2.738,-0.717,0.0
41.818,5.273,-0.226,18.0
38.514,4.856,-0.429,12.0
29.295,3.693,-0.494,2.0
27.282,3.439,-0.619,0.0
24.017,3.028,-0.683,0.0
21.122,2.663,-0.722,0.0
40.532,5.105,-0.265,17.0
38.434,4.84,-0.472,8.0
29.326,3.692,-0.528,2.0
26.649,3.355,-0.635,1.0
23.342,2.939,-0.69,0.0
20.541,2.586,-0.725,0.0
39.779,5.003,-0.304,22.0
30.63,3.851,-0.41,9.0
29.309,3.684,-0.56,4.0
26.116,3.283,-0.652,1.0
22.885,2.876,-0.702,0.0
20.246,2.545,-0.737,1.0
39.276,4.93,-0.345,32.0
30.331,3.806,-0.44,8.0
29.278,3.673,-0.592,5.0
25.378,3.183,-0.661,0.0
22.3,2.797,-0.709,0.0
19.779,2.481,-0.743,0.0
38.893,4.871,-0.385,15.0
29.559,3.701,-0.461,3.0
29.139,3.647,-0.622,4.0
24.732,3.095,-0.672,0.0
21.732,2.719,-0.715,0.0
19.329,2.418,-0.747,0.0
38.549,4.815,-0.423,11.0
29.516,3.686,-0.493,2.0
27.673,3.454,-0.62,1.0
24.067,3.004,-0.68,0.0
21.218,2.647,-0.721,0.0
18.909,2.359,-0.751,0.0
38.454,4.789,-0.463,8.0
29.516,3.675,-0.525,3.0
26.909,3.349,-0.632,1.0
23.499,2.924,-0.689,0.0
20.622,2.565,-0.723,0.0
18.505,2.301,-0.755,0.0
38.479,4.776,-0.505,6.0
29.407,3.649,-0.554,7.0
26.189,3.248,-0.643,1.0
22.984,2.849,-0.699,0.0
20.292,2.515,-0.733,0.0
18.278,2.265,-0.765,0.0
30.001,3.71,-0.425,2.0
29.414,3.636,-0.585,6.0
25.606,3.163,-0.656,0.0
22.435,2.77,-0.706,0.0
19.891,2.456,-0.739,0.0
17.931,2.213,-0.769,0.0
29.911,3.683,-0.455,3.0
29.496,3.631,-0.617,1.0
24.942,3.069,-0.665,0.0
21.848,2.687,-0.71,0.0
19.503,2.397,-0.745,0.0
17.652,2.169,-0.776,0.0
29.877,3.663,-0.485,2.0
27.658,3.389,-0.607,0.0
24.342,2.981,-0.673,0.0
21.291,2.606,-0.713,0.0
19.094,2.336,-0.749,0.0
17.266,2.112,-0.776,0.0
29.975,3.657,-0.517,2.0
27.224,3.319,-0.625,1.0
23.761,2.895,-0.681,0.0
20.844,2.539,-0.719,0.0
18.663,2.272,-0.751,0.0
17.016,2.07,-0.782,0.0
29.978,3.638,-0.547,16.0
26.557,3.221,-0.636,0.0
23.253,2.818,-0.69,0.0
20.51,2.484,-0.728,0.0
18.425,2.231,-0.759,0.0
16.718,2.023,-0.785,0.0
29.977,3.618,-0.576,18.0
25.9,3.123,-0.645,0.0
22.865,2.756,-0.7,0.0
20.126,2.424,-0.733,0.0
18.094,2.178,-0.763,0.0
16.457,1.98,-0.788,0.0
30.035,3.603,-0.605,8.0
25.424,3.048,-0.657,0.0
22.474,2.692,-0.71,0.0
19.749,2.364,-0.738,0.0
17.778,2.127,-0.766,0.0
16.261,1.944,-0.794,0.0
28.521,3.4,-0.601,0.0
24.908,2.967,-0.667,0.0
21.746,2.588,-0.706,0.0
19.497,2.319,-0.747,0.0
17.576,2.089,-0.774,0.0
16.053,1.907,-0.799,0.0
27.899,3.303,-0.614,0.0
24.282,2.872,-0.672,0.0
21.394,2.529,-0.715,0.0
19.09,2.255,-0.749,0.0
17.343,2.047,-0.779,0.0
15.878,1.873,-0.804,0.0
27.147,3.191,-0.621,1.0
23.85,2.801,-0.682,0.0
20.939,2.457,-0.718,0.0
18.754,2.199,-0.752,0.0
16.986,1.99,-0.778,0.0
15.642,1.831,-0.806,0.0
26.6,3.103,-0.632,1.0
23.303,2.716,-0.686,0.0
20.602,2.399,-0.724,0.0
18.421,2.143,-0.754,0.0
16.809,1.954,-0.784,0.0
15.406,1.789,-0.807,0.0
26.116,3.023,-0.642,0.0
22.902,2.648,-0.694,0.0
20.259,2.34,-0.729,0.0
18.137,2.093,-0.758,0.0
16.596,1.913,-0.788,0.0
15.222,1.753,-0.81,0.0
25.574,2.935,-0.65,0.0
22.493,2.579,-0.7,0.0
20.009,2.291,-0.736,0.0
17.993,2.058,-0.766,0.0
16.451,1.88,-0.795,0.0
15.077,1.722,-0.814,0.0
25.139,2.86,-0.659,0.0
22.066,2.507,-0.704,0.0
19.663,2.232,-0.739,0.0
17.68,2.005,-0.767,0.0
16.279,1.844,-0.799,0.0
14.909,1.687,-0.817,0.0
24.66,2.78,-0.666,0.0
21.679,2.441,-0.708,0.0
19.432,2.185,-0.745,0.0
17.587,1.975,-0.776,0.0
16.053,1.801,-0.8,0.0
14.72,1.65,-0.817,0.0
24.185,2.7,-0.67,0.0
21.492,2.396,-0.718,0.0
19.13,2.13,-0.748,0.0
17.268,1.921,-0.775,0.0
15.877,1.764,-0.803,0.0
14.606,1.621,-0.822,0.0
23.797,2.63,-0.676,0.0
21.111,2.33,-0.72,0.0
18.841,2.077,-0.749,0.0
17.151,1.889,-0.781,0.0
15.701,1.727,-0.805,0.0
14.476,1.59,-0.824,0.0
23.422,2.562,-0.682,0.0
20.686,2.26,-0.719,0.0
18.623,2.032,-0.753,0.0
16.87,1.838,-0.78,0.0
15.537,1.691,-0.806,0.0
14.316,1.556,-0.825,0.0
23.026,2.491,-0.685,0.0
20.413,2.206,-0.723,0.0
18.415,1.987,-0.757,0.0
16.704,1.8,-0.783,0.0
15.419,1.659,-0.81,0.0
14.21,1.527,-0.827,0.0
22.789,2.438,-0.692,0.0
20.134,2.151,-0.726,0.0
18.189,1.94,-0.758,0.0
16.573,1.766,-0.787,0.0
15.277,1.625,-0.812,0.0
14.151,1.504,-0.832,0.0
22.564,2.386,-0.699,0.0
20.03,2.115,-0.734,0.0
18.02,1.9,-0.762,0.0
16.461,1.733,-0.791,0.0
15.146,1.592,-0.814,0.0
14.047,1.475,-0.834,0.0
22.201,2.319,-0.7,0.0
19.809,2.066,-0.736,0.0
17.87,1.861,-0.765,0.0
16.302,1.695,-0.792,0.0
15.072,1.565,-0.818,0.0
13.943,1.446,-0.835,0.0
22.03,2.273,-0.706,0.0
19.612,2.02,-0.739,0.0
17.719,1.822,-0.768,0.0
16.091,1.652,-0.79,0.0
14.962,1.534,-0.819,0.0
13.807,1.413,-0.834,0.0
21.655,2.205,-0.704,0.0
19.394,1.972,-0.74,0.0
17.553,1.781,-0.769,0.0
16.147,1.636,-0.8,0.0
14.797,1.497,-0.817,0.0
13.814,1.395,-0.841,0.0
21.515,2.161,-0.71,0.0
19.372,1.943,-0.748,0.0
17.497,1.751,-0.774,0.0
15.926,1.591,-0.796,0.0
14.768,1.473,-0.822,0.0
13.736,1.368,-0.842,0.0
21.342,2.114,-0.713,0.0
19.088,1.888,-0.745,0.0
17.298,1.707,-0.773,0.0
15.833,1.56,-0.798,0.0
14.629,1.439,-0.82,0.0
13.623,1.338,-0.841,0.0
21.228,2.073,-0.718,0.0
19.048,1.857,-0.751,0.0
17.27,1.68,-0.778,0.0
15.77,1.531,-0.801,0.0
14.614,1.416,-0.825,0.0
13.64,1.32,-0.847,0.0
20.828,2.004,-0.711,0.0
18.842,1.809,-0.749,0.0
17.089,1.638,-0.776,0.0
15.647,1.497,-0.8,0.0
14.526,1.387,-0.824,0.0
13.547,1.291,-0.845,0.0
20.865,1.977,-0.719,0.0
18.825,1.78,-0.755,0.0
17.093,1.613,-0.781,0.0
15.575,1.467,-0.801,0.0
14.411,1.354,-0.822,0.0
13.4,1.257,-0.84,0.0
20.79,1.939,-0.722,0.0
18.715,1.741,-0.755,0.0
17.074,1.585,-0.785,0.0
15.548,1.441,-0.804,0.0
14.428,1.334,-0.827,0.0
13.407,1.237,-0.844,0.0
20.617,1.891,-0.721,0.0
18.536,1.697,-0.752,0.0
16.973,1.55,-0.784,0.0
15.508,1.413,-0.805,0.0
14.382,1.308,-0.827,0.0
13.335,1.21,-0.842,0.0
20.419,1.841,-0.719,0.0
18.464,1.661,-0.753,0.0
16.864,1.514,-0.782,0.0
15.461,1.385,-0.805,0.0
14.343,1.282,-0.828,0.0
13.318,1.187,-0.843,0.0
20.431,1.81,-0.722,0.0
18.526,1.638,-0.759,0.0
16.878,1.488,-0.786,0.0
15.507,1.364,-0.81,0.0
14.305,1.255,-0.828,0.0
13.369,1.171,-0.848,0.0
20.415,1.776,-0.725,0.0
18.413,1.598,-0.756,0.0
16.822,1.456,-0.785,0.0
15.435,1.333,-0.808,0.0
14.313,1.233,-0.829,0.0
13.315,1.144,-0.846,0.0
20.417,1.744,-0.727,0.0
18.42,1.569,-0.758,0.0
16.827,1.43,-0.786,0.0
15.448,1.309,-0.81,0.0
14.372,1.215,-0.834,0.0
13.292,1.121,-0.845,0.0
20.331,1.704,-0.725,0.0
18.403,1.538,-0.758,0.0
16.791,1.399,-0.785,0.0
15.363,1.277,-0.806,0.0
14.253,1.182,-0.827,0.0
13.169,1.089,-0.838,0.0
20.395,1.676,-0.727,0.0
18.418,1.509,-0.759,0.0
16.782,1.371,-0.785,0.0
15.333,1.249,-0.804,0.0
14.285,1.16,-0.829,0.0
13.251,1.074,-0.843,0.0
20.349,1.638,-0.725,0.0
18.439,1.48,-0.759,0.0
16.809,1.345,-0.786,0.0
15.434,1.231,-0.809,0.0
14.344,1.141,-0.832,0.0
13.265,1.052,-0.843,0.0
20.375,1.605,-0.725,0.0
18.431,1.448,-0.758,0.0
16.798,1.316,-0.784,0.0
15.412,1.203,-0.806,0.0
14.302,1.114,-0.828,0.0
13.355,1.037,-0.847,0.0
20.474,1.579,-0.726,0.0
18.469,1.419,-0.757,0.0
16.858,1.292,-0.785,0.0
15.403,1.177,-0.804,0.0
14.319,1.09,-0.827,0.0
13.381,1.016,-0.847,0.0
20.576,1.551,-0.727,0.0
18.456,1.387,-0.754,0.0
16.953,1.27,-0.786,0.0
15.555,1.162,-0.809,0.0
14.295,1.064,-0.823,0.0
13.417,0.995,-0.847,0.0
20.548,1.514,-0.722,0.0
18.532,1.361,-0.753,0.0
16.98,1.243,-0.784,0.0
15.562,1.135,-0.806,0.0
14.353,1.043,-0.823,0.0
13.429,0.973,-0.845,0.0
20.781,1.495,-0.725,0.0
18.553,1.33,-0.75,0.0
17.093,1.221,-0.785,0.0
15.765,1.122,-0.813,0.0
14.38,1.02,-0.821,0.0
13.487,0.954,-0.845,0.0
20.786,1.459,-0.72,0.0
18.73,1.31,-0.752,0.0
16.985,1.184,-0.775,0.0
15.755,1.094,-0.808,0.0
14.463,1.001,-0.821,0.0
13.475,0.929,-0.84,0.0
21.027,1.439,-0.722,0.0
18.87,1.287,-0.751,0.0
17.158,1.166,-0.778,0.0
15.688,1.062,-0.799,0.0
14.549,0.981,-0.821,0.0
13.568,0.912,-0.841,0.0
21.114,1.409,-0.717,0.0
19.082,1.268,-0.753,0.0
17.285,1.144,-0.777,0.0
15.678,1.034,-0.793,0.0
14.625,0.961,-0.82,0.0
13.693,0.896,-0.843,0.0
21.452,1.393,-0.72,0.0
19.339,1.251,-0.756,0.0
17.366,1.119,-0.774,0.0
15.919,1.022,-0.798,0.0
14.735,0.942,-0.82,0.0
13.699,0.872,-0.838,0.0
21.666,1.369,-0.718,0.0
19.363,1.218,-0.748,0.0
17.603,1.103,-0.777,0.0
15.94,0.995,-0.792,0.0
14.768,0.918,-0.815,0.0
13.802,0.854,-0.837,0.0
21.732,1.334,-0.71,0.0
19.39,1.185,-0.74,0.0
17.757,1.081,-0.775,0.0
16.174,0.981,-0.796,0.0
15.013,0.906,-0.821,0.0
13.862,0.833,-0.834,0.0
21.961,1.31,-0.706,0.0
19.603,1.164,-0.738,0.0
17.846,1.055,-0.769,0.0
16.326,0.961,-0.795,0.0
15.007,0.879,-0.812,0.0
14.035,0.819,-0.837,0.0
22.353,1.293,-0.707,0.0
19.834,1.142,-0.735,0.0
18.021,1.033,-0.766,0.0
16.486,0.941,-0.793,0.0
15.255,0.867,-0.817,0.0
14.085,0.797,-0.832,0.0
22.56,1.265,-0.7,0.0
20.211,1.128,-0.737,0.0
18.233,1.013,-0.764,0.0
16.599,0.918,-0.788,0.0
15.34,0.844,-0.812,0.0
14.201,0.778,-0.829,0.0
22.648,1.23,-0.688,0.0
20.397,1.102,-0.731,0.0
18.47,0.993,-0.762,0.0
16.786,0.898,-0.786,0.0
15.411,0.82,-0.806,0.0
14.381,0.762,-0.83,0.0
23.162,1.217,-0.688,0.0
20.618,1.078,-0.725,0.0
18.705,0.972,-0.759,0.0
16.924,0.875,-0.78,0.0
15.651,0.805,-0.807,0.0
14.456,0.74,-0.824,0.0
23.518,1.194,-0.682,0.0
21.055,1.063,-0.725,0.0
18.775,0.943,-0.748,0.0
17.297,0.864,-0.785,0.0
15.952,0.792,-0.81,0.0
14.646,0.723,-0.824,0.0
23.949,1.173,-0.676,0.0
21.389,1.042,-0.72,0.0
19.118,0.926,-0.747,0.0
17.417,0.838,-0.777,0.0
16.022,0.767,-0.801,0.0
14.83,0.706,-0.822,0.0
0.0,0.0,0.0,0.0
21.695,1.018,-0.712,0.0
19.477,0.908,-0.745,0.0
17.701,0.821,-0.775,0.0
16.153,0.745,-0.794,0.0
14.969,0.686,-0.817,0.0
25.004,1.136,-0.665,0.0
22.285,1.006,-0.713,0.0
19.872,0.892,-0.743,0.0
17.919,0.799,-0.769,0.0
16.557,0.734,-0.8,0.0
15.214,0.67,-0.817,0.0
25.594,1.117,-0.658,0.0
22.576,0.979,-0.703,0.0
20.181,0.87,-0.737,0.0
18.273,0.783,-0.768,0.0
16.757,0.713,-0.794,0.0
15.376,0.65,-0.812,0.0
26.024,1.091,-0.646,0.0
23.113,0.962,-0.698,0.0
20.613,0.852,-0.733,0.0
18.471,0.759,-0.759,0.0
16.906,0.69,-0.785,0.0
15.562,0.631,-0.807,0.0
26.644,1.07,-0.636,0.0
23.488,0.937,-0.687,0.0
21.031,0.833,-0.728,0.0
18.793,0.739,-0.753,0.0
17.216,0.673,-0.783,0.0
15.856,0.615,-0.806,0.0
0.0,0.0,0.0,0.0
24.022,0.916,-0.678,0.0
21.434,0.812,-0.72,0.0
19.143,0.72,-0.748,0.0
17.527,0.654,-0.779,0.0
16.064,0.595,-0.8,0.0
28.397,1.042,-0.62,0.0
24.771,0.902,-0.674,0.0
22.006,0.795,-0.716,0.0
19.696,0.706,-0.749,0.0
17.837,0.635,-0.774,0.0
16.376,0.578,-0.798,0.0
28.894,1.011,-0.6,0.0
25.242,0.876,-0.659,0.0
22.464,0.773,-0.707,0.0
20.032,0.684,-0.74,0.0
18.252,0.618,-0.772,0.0
16.646,0.559,-0.793,0.0
30.025,0.999,-0.59,0.0
26.174,0.863,-0.654,0.0
22.819,0.746,-0.692,0.0
20.454,0.663,-0.732,0.0
18.588,0.598,-0.765,0.0
17.077,0.545,-0.794,0.0
31.433,0.992,-0.582,0.0
26.801,0.839,-0.639,0.0
23.771,0.737,-0.694,0.0
21.006,0.646,-0.727,0.0
18.94,0.577,-0.757,0.0
17.388,0.525,-0.788,0.0
32.421,0.969,-0.562,0.0
28.416,0.841,-0.644,0.0
24.148,0.708,-0.676,0.0
21.581,0.627,-0.721,0.0
19.451,0.56,-0.754,0.0
17.656,0.504,-0.778,0.0
34.414,0.971,-0.555,0.0
28.531,0.797,-0.612,1.0
25.212,0.698,-0.675,0.0
22.38,0.614,-0.72,0.0
19.918,0.541,-0.747,0.0
17.989,0.483,-0.771,0.0
35.813,0.951,-0.532,0.0
28.598,0.752,-0.577,1.0
25.913,0.674,-0.661,0.0
22.575,0.582,-0.698,0.0
20.287,0.517,-0.735,0.0
18.469,0.466,-0.767,0.0
0.0,0.0,0.0,0.0
0.0,0.0,0.0,0.0
26.784,0.653,-0.648,0.0
23.54,0.568,-0.697,0.0
20.961,0.5,-0.732,0.0
18.948,0.447,-0.762,0.0
39.08,0.911,-0.479,0.0
32.57,0.751,-0.572,0.0
27.645,0.63,-0.632,0.0
24.249,0.546,-0.686,0.0
21.449,0.478,-0.72,0.0
19.483,0.429,-0.757,0.0
0.0,0.0,0.0,0.0
33.898,0.728,-0.549,0.0
28.825,0.611,-0.62,0.0
25.082,0.525,-0.674,0.0
22.249,0.46,-0.716,0.0
19.829,0.405,-0.743,0.0
44.665,0.9,-0.426,0.0
0.0,0.0,0.0,0.0
30.162,0.592,-0.606,0.0
25.962,0.503,-0.662,0.0
22.813,0.437,-0.702,0.0
20.349,0.384,-0.734,0.0
45.863,0.853,-0.373,1.0
0.0,0.0,0.0,0.0
31.073,0.562,-0.58,0.0
26.638,0.475,-0.641,0.0
23.931,0.421,-0.702,0.0
21.12,0.366,-0.731,0.0
0.0,0.0,0.0,0.0
41.668,0.701,-0.498,0.0
32.443,0.538,-0.559,0.0
27.941,0.456,-0.632,0.0
24.731,0.398,-0.69,0.0
21.666,0.343,-0.718,0.0
53.456,0.834,-0.28,0.0
41.548,0.637,-0.436,1.0
35.149,0.53,-0.554,0.0
29.348,0.435,-0.62,0.0
25.318,0.369,-0.668,0.0
22.493,0.322,-0.712,0.0
0.0,0.0,0.0,0.0
43.999,0.61,-0.395,1.0
36.505,0.497,-0.52,0.0
30.559,0.408,-0.599,0.0
26.571,0.348,-0.66,0.0
23.484,0.302,-0.707,0.0
0.0,0.0,0.0,0.0
0.0,0.0,0.0,0.0
0.0,0.0,0.0,0.0
32.224,0.384,-0.581,0.0
27.522,0.321,-0.641,0.0
24.213,0.277,-0.691,0.0
70.59,0.791,-0.044,0.0
0.0,0.0,0.0,0.0
41.102,0.441,-0.457,0.0
34.066,0.357,-0.561,0.0
0.0,0.0,0.0,0.0
24.82,0.248,-0.669,0.0
0.0,0.0,0.0,0.0
0.0,0.0,0.0,0.0
42.959,0.4,-0.408,0.0
35.79,0.325,-0.531,0.0
30.451,0.269,-0.611,0.0
26.279,0.226,-0.665,0.0
84.885,0.711,0.221,6.0
0.0,0.0,0.0,0.0
48.5,0.384,-0.381,0.0
38.013,0.292,-0.501,0.0
0.0,0.0,0.0,0.0
27.333,0.198,-0.646,0.0
92.151,0.647,0.391,2.0
0.0,0.0,0.0,0.0
0.0,0.0,0.0,0.0
42.776,0.271,-0.493,0.0
33.606,0.206,-0.563,0.0
28.917,0.17,-0.635,0.0
104.567,0.595,0.618,6.0
87.981,0.481,0.061,1.0
0.0,0.0,0.0,0.0
42.926,0.215,-0.422,1.0
0.0,0.0,0.0,0.0
30.249,0.138,-0.613,0.0
110.89,0.484,0.847,13.0
0.0,0.0,0.0,0.0
0.0,0.0,0.0,0.0
46.21,0.172,-0.375,0.0
37.859,0.133,-0.504,0.0
31.403,0.103,-0.582,0.0
111.135,0.344,1.039,15.0
94.541,0.274,0.39,3.0
0.0,0.0,0.0,0.0
52.61,0.13,-0.336,0.0
42.876,0.097,-0.497,0.0
33.685,0.069,-0.566,0.0
111.119,0.206,1.232,23.0
110.593,0.182,0.651,6.0
0.0,0.0,0.0,0.0
0.0,0.0,0.0,0.0
45.322,0.046,-0.445,3.0
35.697,0.029,-0.536,0.0
111.104,0.07,1.429,15.0
111.036,0.048,0.85,11.0
0.0,0.0,0.0,0.0
0.0,0.0,0.0,0.0
45.62,-0.007,-0.367,0.0
37.485,-0.013,-0.496,0.0
111.004,-0.062,1.629,9.0
117.397,-0.089,1.112,16.0
103.647,-0.097,0.442,1.0
0.0,0.0,0.0,0.0
0.0,0.0,0.0,0.0
41.655,-0.063,-0.475,0.0
113.16,-0.194,1.865,10.0
119.772,-0.228,1.352,17.0
111.06,-0.233,0.677,8.0
0.0,0.0,0.0,0.0
0.0,0.0,0.0,0.0
45.113,-0.119,-0.431,1.0
114.406,-0.326,2.096,15.0
113.404,-0.343,1.488,11.0
119.707,-0.383,0.949,8.0
103.27,-0.35,0.273,1.0
0.0,0.0,0.0,0.0
0.0,0.0,0.0,0.0
119.825,-0.472,2.418,4.0
114.222,-0.47,1.712,10.0
119.719,-0.513,1.172,17.0
111.036,-0.495,0.5,1.0
0.0,0.0,0.0,0.0
0.0,0.0,0.0,0.0
119.832,-0.597,2.637,50.0
114.893,-0.592,1.934,6.0
119.684,-0.637,1.394,18.0
114.075,-0.626,0.726,4.0
0.0,0.0,0.0,0.0
0.0,0.0,0.0,0.0
119.811,-0.719,2.862,23.0
119.798,-0.738,2.239,23.0
119.718,-0.757,1.619,8.0
119.695,-0.776,0.985,15.0
0.0,0.0,0.0,0.0
0.0,0.0,0.0,0.0
119.755,-0.836,3.085,21.0
119.734,-0.854,2.464,20.0
115.52,-0.842,1.779,3.0
119.681,-0.893,1.214,18.0
113.673,-0.865,0.563,2.0
0.0,0.0,0.0,0.0
119.74,-0.949,3.312,87.0
119.742,-0.968,2.693,76.0
119.731,-0.986,2.074,94.0
119.695,-1.004,1.442,25.0
119.692,-1.021,0.823,11.0
0.0,0.0,0.0,0.0
119.74,-1.061,3.545,9.0
119.714,-1.078,2.925,150.0
119.721,-1.095,2.306,150.0
119.726,-1.112,1.674,150.0
119.757,-1.129,1.054,150.0
0.0,0.0,0.0,0.0
210.776,-2.054,6.648,18.0
119.705,-1.183,3.157,87.0
119.717,-1.199,2.537,125.0
119.742,-1.216,1.907,113.0
119.749,-1.232,1.288,63.0
119.758,-1.248,0.668,22.0
210.485,-2.229,7.048,21.0
209.479,-2.247,5.933,12.0
209.075,-2.27,4.842,8.0
0.0,0.0,0.0,0.0
139.177,-1.546,1.769,2.0
139.218,-1.564,1.051,24.0
190.527,-2.173,6.755,21.0
209.923,-2.42,6.356,11.0
208.849,-2.434,5.244,7.0
210.313,-2.476,4.173,6.0
139.237,-1.656,2.045,7.0
139.231,-1.673,1.326,15.0
190.464,-2.32,7.127,56.0
210.262,-2.586,6.781,20.0
209.036,-2.596,5.662,6.0
210.705,-2.642,4.6,10.0
204.263,-2.583,3.403,23.0
0.0,0.0,0.0,0.0
189.85,-2.454,7.481,45.0
210.877,-2.748,7.22,11.0
0.0,0.0,0.0,0.0
206.683,-2.739,4.921,16.0
204.058,-2.727,3.807,6.0
139.139,-1.873,1.877,7.0
106.607,-1.452,4.412,15.0
190.575,-2.615,6.901,22.0
0.0,0.0,0.0,0.0
113.247,-1.576,2.918,14.0
0.0,0.0,0.0,0.0
203.979,-2.881,3.154,8.0
96.45,-1.378,4.184,17.0
106.552,-1.533,4.071,13.0
210.529,-3.048,6.958,19.0
112.578,-1.64,3.128,15.0
206.009,-3.022,4.663,21.0
194.549,-2.872,3.4,8.0
95.329,-1.422,4.326,12.0
112.27,-1.685,4.515,11.0
112.685,-1.701,3.949,6.0
0.0,0.0,0.0,0.0
0.0,0.0,0.0,0.0
0.0,0.0,0.0,0.0
81.103,-1.257,3.842,29.0
106.455,-1.659,4.494,14.0
112.725,-1.766,4.177,8.0
112.846,-1.776,3.586,7.0
112.563,-1.781,2.996,19.0
206.535,-3.284,4.434,9.0
81.333,-1.306,4.017,16.0
95.385,-1.538,4.218,15.0
106.423,-1.724,4.158,16.0
112.821,-1.836,3.815,14.0
112.942,-1.846,3.233,9.0
112.731,-1.85,2.647,6.0
81.813,-1.356,4.206,29.0
81.616,-1.358,3.775,8.0
95.615,-1.597,3.927,13.0
112.676,-1.889,4.034,23.0
112.913,-1.9,3.461,7.0
112.639,-1.902,2.871,25.0
81.637,-1.391,4.361,21.0
81.363,-1.392,3.925,11.0
106.565,-1.829,4.591,9.0
106.54,-1.834,4.029,10.0
112.672,-1.946,3.68,22.0
112.751,-1.954,3.101,22.0
61.144,-1.069,3.39,8.0
81.989,-1.437,4.122,16.0
81.731,-1.437,3.686,18.0
106.723,-1.882,4.251,17.0
112.709,-1.992,3.906,24.0
113.057,-2.004,3.335,17.0
61.172,-1.094,3.515,22.0
81.772,-1.465,4.275,22.0
81.612,-1.466,3.844,18.0
106.714,-1.922,4.465,9.0
112.638,-2.033,4.131,20.0
112.721,-2.038,3.551,12.0
52.166,-0.951,3.102,10.0
74.1,-1.354,4.023,13.0
81.754,-1.496,4.015,12.0
96.123,-1.763,4.214,13.0
106.716,-1.961,4.128,13.0
112.595,-2.073,3.775,28.0
0.0,0.0,0.0,0.0
61.175,-1.137,3.444,21.0
82.026,-1.527,4.195,21.0
81.698,-1.523,3.747,21.0
106.784,-1.993,4.346,15.0
112.701,-2.106,4.004,22.0
50.243,-0.946,3.19,34.0
61.191,-1.154,3.568,27.0
73.396,-1.385,3.899,20.0
81.621,-1.542,3.905,10.0
95.76,-1.811,4.086,20.0
112.666,-2.133,4.225,9.0
50.166,-0.957,3.285,24.0
61.165,-1.168,3.688,8.0
73.664,-1.407,4.06,16.0
81.99,-1.567,4.086,23.0
81.553,-1.56,3.642,13.0
106.713,-2.042,4.214,10.0
0.0,0.0,0.0,0.0
0.0,0.0,0.0,0.0
61.13,-1.179,3.49,16.0
73.403,-1.416,3.804,10.0
81.568,-1.574,3.806,17.0
95.53,-1.843,3.963,7.0
48.7,-0.947,3.383,25.0
50.132,-0.975,3.223,28.0
61.164,-1.189,3.614,30.0
73.603,-1.43,3.96,19.0
81.716,-1.587,3.972,13.0
95.426,-1.853,4.146,25.0
50.589,-0.99,3.614,8.0
50.124,-0.98,3.321,23.0
52.018,-1.017,3.175,25.0
73.583,-1.437,4.103,19.0
81.99,-1.601,4.146,16.0
81.577,-1.592,3.703,27.0
50.364,-0.99,3.697,9.0
0.0,0.0,0.0,0.0
50.287,-0.987,3.169,23.0
61.17,-1.199,3.53,32.0
73.646,-1.442,3.867,28.0
81.433,-1.592,3.853,9.0
0.0,0.0,0.0,0.0
0.0,0.0,0.0,0.0
50.093,-0.984,3.253,33.0
61.132,-1.199,3.646,28.0
73.649,-1.443,4.01,12.0
81.96,-1.604,4.038,21.0
43.085,-0.849,3.33,32.0
0.0,0.0,0.0,0.0
50.358,-0.989,3.368,24.0
0.0,0.0,0.0,0.0
73.675,-1.442,4.153,14.0
82.004,-1.602,4.198,9.0
43.063,-0.848,3.412,51.0
44.953,-0.883,3.327,21.0
48.685,-0.954,3.349,18.0
50.204,-0.982,3.187,24.0
61.168,-1.194,3.566,31.0
73.521,-1.432,3.903,23.0
43.14,-0.846,3.5,29.0
0.0,0.0,0.0,0.0
48.62,-0.949,3.437,17.0
50.102,-0.975,3.276,29.0
61.124,-1.187,3.678,18.0
73.641,-1.426,4.047,15.0
43.01,-0.839,3.571,39.0
43.052,-0.837,3.35,45.0
50.535,-0.98,3.668,7.0
0.0,0.0,0.0,0.0
0.0,0.0,0.0,0.0
61.132,-1.175,3.474,17.0
42.978,-0.832,3.649,45.0
42.97,-0.829,3.423,33.0
0.0,0.0,0.0,0.0
48.695,-0.934,3.365,24.0
50.189,-0.959,3.207,33.0
61.239,-1.167,3.595,24.0
42.725,-0.819,3.708,45.0
42.758,-0.817,3.487,39.0
43.016,-0.819,3.282,42.0
48.624,-0.923,3.451,15.0
50.279,-0.951,3.307,23.0
52.118,-0.982,3.156,22.0
42.586,-0.808,3.776,34.0
42.945,-0.811,3.582,34.0
42.967,-0.808,3.358,48.0
45.043,-0.844,3.28,19.0
0.0,0.0,0.0,0.0
50.35,-0.936,3.14,24.0
42.087,-0.788,3.808,47.0
42.723,-0.796,3.641,44.0
42.858,-0.795,3.427,39.0
43.71,-0.807,3.262,12.0
48.575,-0.893,3.37,29.0
0.0,0.0,0.0,0.0
42.087,-0.775,3.884,41.0
42.374,-0.777,3.687,41.0
42.701,-0.779,3.492,40.0
42.959,-0.78,3.283,42.0
48.622,-0.878,3.46,16.0
48.642,-0.874,3.207,18.0
0.0,0.0,0.0,0.0
42.125,-0.758,3.742,36.0
42.892,-0.768,3.584,39.0
42.812,-0.762,3.348,40.0
46.241,-0.819,3.373,4.0
0.0,0.0,0.0,0.0
0.0,0.0,0.0,0.0
41.955,-0.74,3.801,39.0
42.704,-0.749,3.643,42.0
42.737,-0.745,3.416,43.0
43.391,-0.752,3.24,37.0
48.528,-0.836,3.368,35.0
41.885,-0.726,4.088,45.0
42.024,-0.724,3.879,33.0
42.028,-0.72,3.657,51.0
42.7,-0.727,3.486,46.0
42.874,-0.725,3.275,48.0
48.591,-0.817,3.456,10.0
41.91,-0.709,4.162,27.0
41.79,-0.702,3.928,26.0
42.067,-0.702,3.732,38.0
42.972,-0.712,3.581,36.0
42.79,-0.704,3.34,43.0
43.318,-0.708,3.154,18.0
42.592,-0.701,4.302,37.0
42.074,-0.687,4.026,28.0
41.958,-0.68,3.793,47.0
42.462,-0.683,3.61,36.0
42.761,-0.683,3.409,40.0
42.879,-0.68,3.192,41.0
43.39,-0.693,4.454,37.0
41.929,-0.664,4.081,40.0
41.982,-0.659,3.864,43.0
42.086,-0.656,3.647,35.0
42.749,-0.661,3.478,39.0
42.87,-0.657,3.262,40.0
0.0,0.0,0.0,0.0
0.0,0.0,0.0,0.0
41.821,-0.634,3.917,44.0
41.938,-0.63,3.702,46.0
42.807,-0.638,3.552,43.0
42.593,-0.629,3.309,37.0
43.319,-0.644,4.588,29.0
41.809,-0.615,4.206,46.0
41.857,-0.611,3.988,44.0
42.062,-0.608,3.78,38.0
42.32,-0.606,3.578,41.0
42.257,-0.599,3.349,28.0
0.0,0.0,0.0,0.0
0.0,0.0,0.0,0.0
41.88,-0.586,4.055,35.0
41.967,-0.581,3.836,41.0
41.992,-0.576,3.615,45.0
0.0,0.0,0.0,0.0
41.29,-0.563,4.503,42.0
41.642,-0.562,4.318,23.0
41.909,-0.56,4.122,30.0
42.138,-0.557,3.916,33.0
41.942,-0.548,3.675,46.0
41.898,-0.541,3.448,16.0
41.281,-0.536,4.564,26.0
0.0,0.0,0.0,0.0
41.77,-0.53,4.171,31.0
42.22,-0.53,3.986,39.0
41.857,-0.519,3.728,40.0
41.849,-0.513,3.505,47.0
41.297,-0.509,4.627,43.0
41.566,-0.505,4.434,45.0
0.0,0.0,0.0,0.0
41.895,-0.497,4.017,35.0
41.821,-0.489,3.786,43.0
41.831,-0.483,3.564,29.0
41.334,-0.48,4.691,41.0
41.429,-0.474,4.479,36.0
41.71,-0.471,4.286,38.0
41.626,-0.464,4.05,38.0
41.626,-0.457,3.827,41.0
41.846,-0.453,3.624,36.0
41.028,-0.446,4.715,47.0
41.257,-0.442,4.518,38.0
41.408,-0.437,4.313,39.0
41.682,-0.433,4.113,27.0
41.682,-0.426,3.89,39.0
41.644,-0.419,3.663,42.0
41.078,-0.415,4.777,48.0
41.188,-0.409,4.568,30.0
41.276,-0.403,4.356,45.0
41.675,-0.4,4.17,44.0
41.665,-0.393,3.945,40.0
41.545,-0.385,3.711,40.0
41.098,-0.382,4.836,39.0
41.278,-0.377,4.634,37.0
41.315,-0.37,4.415,42.0
41.443,-0.364,4.202,38.0
41.644,-0.359,3.998,39.0
41.596,-0.351,3.771,39.0
41.037,-0.348,4.883,42.0
41.1,-0.341,4.668,43.0
41.347,-0.336,4.473,34.0
41.283,-0.328,4.239,46.0
41.679,-0.325,4.055,41.0
41.487,-0.316,3.813,40.0
41.029,-0.313,4.935,36.0
41.201,-0.308,4.732,33.0
41.411,-0.302,4.532,38.0
41.273,-0.293,4.29,39.0
41.571,-0.288,4.096,42.0
41.613,-0.281,3.877,43.0
43.336,-0.293,5.266,5.0
41.021,-0.27,4.762,36.0
41.412,-0.265,4.583,37.0
41.128,-0.256,4.324,44.0
41.273,-0.249,4.117,43.0
41.757,-0.245,3.94,36.0
41.141,-0.241,5.049,25.0
41.059,-0.233,4.816,40.0
41.717,-0.23,4.666,39.0
41.176,-0.219,4.378,44.0
41.183,-0.212,4.156,37.0
41.807,-0.208,3.993,39.0
41.111,-0.204,5.094,40.0
41.061,-0.196,4.863,43.0
41.684,-0.191,4.71,16.0
41.115,-0.181,4.418,41.0
41.273,-0.174,4.211,37.0
41.737,-0.169,4.033,44.0
41.175,-0.166,5.148,43.0
41.116,-0.158,4.916,37.0
41.404,-0.151,4.724,16.0
41.186,-0.143,4.471,17.0
41.235,-0.135,4.252,40.0
41.257,-0.127,4.031,49.0
41.141,-0.126,5.188,44.0
41.516,-0.119,5.009,31.0
41.343,-0.111,4.762,33.0
41.181,-0.103,4.514,17.0
41.533,-0.096,4.327,20.0
41.29,-0.087,4.077,44.0
41.321,-0.086,5.254,29.0
41.068,-0.078,4.997,22.0
41.149,-0.07,4.782,38.0
41.146,-0.062,4.552,38.0
41.623,-0.055,4.378,34.0
41.3,-0.047,4.12,43.0
48.277,-0.052,6.188,4.0
41.125,-0.037,5.045,38.0
41.184,-0.029,4.827,41.0
41.382,-0.021,4.619,25.0
41.425,-0.013,4.398,30.0
41.358,-0.005,4.165,41.0
41.237,-0.003,5.326,10.0
41.11,0.004,5.083,23.0
41.013,0.013,4.846,25.0
41.356,0.021,4.655,20.0
41.187,0.028,4.411,37.0
41.388,0.037,4.207,41.0
41.91,0.04,5.452,18.0
41.091,0.047,5.118,41.0
40.989,0.055,4.88,23.0
41.289,0.063,4.685,22.0
41.183,0.072,4.447,43.0
41.495,0.08,4.254,42.0
42.22,0.084,5.529,36.0
41.131,0.09,5.159,33.0
40.958,0.098,4.912,31.0
41.138,0.106,4.703,39.0
41.334,0.115,4.498,36.0
41.358,0.123,4.274,38.0
42.332,0.13,5.579,46.0
41.272,0.135,5.211,37.0
41.003,0.142,4.951,43.0
41.252,0.151,4.749,36.0
41.377,0.159,4.536,40.0
41.187,0.167,4.289,39.0
42.382,0.176,5.62,42.0
41.283,0.179,5.245,40.0
40.968,0.185,4.978,32.0
41.326,0.196,4.789,18.0
41.456,0.205,4.576,31.0
41.127,0.211,4.314,47.0
42.358,0.222,5.648,35.0
40.69,0.221,5.2,14.0
40.793,0.229,4.987,29.0
41.152,0.239,4.799,41.0
41.213,0.248,4.579,28.0
41.301,0.257,4.361,28.0
42.206,0.267,5.658,43.0
40.823,0.267,5.245,10.0
40.725,0.274,5.006,39.0
41.311,0.286,4.845,37.0
41.12,0.293,4.596,35.0
41.27,0.302,4.385,31.0
42.243,0.315,5.691,41.0
40.737,0.311,5.26,39.0
40.743,0.32,5.035,41.0
40.736,0.327,4.804,43.0
41.316,0.34,4.643,37.0
41.209,0.347,4.403,35.0
41.83,0.358,5.66,43.0
40.679,0.357,5.278,19.0
40.701,0.364,5.054,40.0
40.695,0.372,4.823,46.0
41.429,0.387,4.68,30.0
41.229,0.394,4.429,35.0
41.343,0.401,5.618,40.0
40.956,0.405,5.336,29.0
40.631,0.41,5.067,44.0
41.078,0.422,4.89,38.0
41.049,0.43,4.659,52.0
41.167,0.44,4.444,41.0
40.822,0.443,5.569,42.0
40.887,0.451,5.349,42.0
40.639,0.457,5.089,41.0
40.603,0.464,4.854,40.0
41.402,0.481,4.719,48.0
40.994,0.484,4.445,41.0
40.61,0.487,5.559,46.0
40.778,0.496,5.353,36.0
40.771,0.504,5.124,39.0
40.68,0.512,4.881,40.0
41.351,0.528,4.732,39.0
40.7,0.528,4.431,39.0
40.494,0.532,5.561,43.0
41.132,0.549,5.417,33.0
40.896,0.553,5.157,21.0
40.544,0.556,4.882,40.0
40.791,0.567,4.684,38.0
40.72,0.574,4.449,41.0
40.592,0.58,5.59,28.0
40.813,0.591,5.391,41.0
0.0,0.0,0.0,0.0
40.585,0.603,4.901,35.0
40.572,0.611,4.673,42.0
40.595,0.619,4.449,40.0
40.494,0.626,5.59,51.0
40.71,0.636,5.391,37.0
41.64,0.659,5.28,22.0
40.577,0.65,4.913,41.0
40.481,0.656,4.675,41.0
40.611,0.666,4.463,39.0
40.556,0.674,5.611,40.0
40.541,0.681,5.38,42.0
41.642,0.708,5.291,34.0
40.602,0.698,4.927,35.0
40.493,0.703,4.687,41.0
40.583,0.713,4.47,38.0
40.784,0.726,5.652,46.0
40.553,0.729,5.391,48.0
40.629,0.738,5.172,45.0
40.916,0.75,4.974,37.0
40.786,0.756,4.729,26.0
40.677,0.761,4.489,49.0
40.602,0.77,5.635,46.0
40.562,0.776,5.4,44.0
40.594,0.785,5.175,40.0
40.445,0.789,4.924,43.0
40.57,0.799,4.711,31.0
40.517,0.805,4.478,43.0
40.905,0.823,5.684,36.0
40.831,0.829,5.442,40.0
40.621,0.832,5.184,36.0
40.545,0.838,4.941,39.0
40.38,0.842,4.694,43.0
40.593,0.854,4.491,40.0
40.886,0.87,5.685,44.0
40.788,0.876,5.44,37.0
40.43,0.875,5.163,41.0
40.436,0.882,4.931,39.0
40.861,0.899,4.753,37.0
40.553,0.899,4.489,48.0
41.104,0.923,5.718,45.0
40.741,0.921,5.436,40.0
40.596,0.925,5.186,41.0
40.316,0.926,4.918,35.0
40.333,0.933,4.693,24.0
40.489,0.944,4.483,47.0
41.044,0.968,5.71,39.0
40.881,0.971,5.455,37.0
40.373,0.967,5.158,40.0
40.475,0.976,4.937,35.0
40.32,0.979,4.69,40.0
40.636,0.994,4.498,40.0
41.015,1.014,5.705,35.0
40.797,1.016,5.442,43.0
40.301,1.011,5.147,42.0
40.391,1.02,4.925,40.0
40.24,1.023,4.678,37.0
40.685,1.041,4.5,29.0
40.867,1.058,5.681,46.0
40.874,1.065,5.449,41.0
40.368,1.059,5.151,41.0
40.352,1.065,4.916,37.0
40.311,1.071,4.682,35.0
40.635,1.086,4.49,37.0
40.821,1.103,5.669,44.0
41.12,1.118,5.476,29.0
40.535,1.108,5.167,42.0
40.257,1.108,4.898,40.0
40.485,1.121,4.696,35.0
40.635,1.131,4.484,41.0
40.792,1.149,5.658,40.0
41.41,1.173,5.507,22.0
40.637,1.157,5.172,37.0
40.359,1.156,4.903,27.0
40.52,1.167,4.692,29.0
40.68,1.178,4.48,32.0
40.901,1.198,5.664,39.0
41.301,1.216,5.483,16.0
40.592,1.202,5.157,39.0
40.689,1.211,4.933,19.0
40.65,1.216,4.697,44.0
40.597,1.221,4.461,34.0
40.805,1.24,5.64,43.0
40.867,1.248,5.414,16.0
41.181,1.264,5.22,37.0
41.195,1.271,4.983,17.0
40.602,1.259,4.68,43.0
40.702,1.268,4.46,27.0
41.133,1.295,5.673,34.0
40.628,1.286,5.37,36.0
41.156,1.309,5.204,34.0
41.088,1.312,4.956,20.0
40.695,1.306,4.677,36.0
40.764,1.314,4.453,38.0
41.643,1.357,5.728,30.0
40.603,1.329,5.352,43.0
41.187,1.354,5.192,31.0
40.82,1.348,4.909,29.0
41.193,1.366,4.718,37.0
40.806,1.359,4.442,42.0
42.182,1.419,5.786,15.0
40.641,1.373,5.34,42.0
41.271,1.401,5.186,33.0
41.166,1.403,4.933,30.0
41.238,1.411,4.706,40.0
41.089,1.412,4.455,16.0
44.151,1.533,6.036,1.0
40.753,1.42,5.337,38.0
41.563,1.454,5.204,36.0
41.086,1.443,4.904,13.0
41.457,1.462,4.712,16.0
40.706,1.441,4.394,40.0
40.941,1.464,5.577,34.0
40.604,1.457,5.297,36.0
41.417,1.492,5.165,24.0
41.057,1.484,4.88,37.0
41.141,1.493,4.654,25.0
40.655,1.481,4.367,35.0
40.951,1.506,5.556,27.0
40.633,1.5,5.279,40.0
40.971,1.518,5.087,17.0
41.065,1.527,4.858,42.0
40.779,1.521,4.591,21.0
40.585,1.519,4.337,35.0
40.954,1.548,5.533,41.0
40.699,1.543,5.263,34.0
40.954,1.558,5.06,7.0
41.041,1.567,4.831,10.0
40.656,1.557,4.552,30.0
40.562,1.558,4.31,36.0
40.96,1.589,5.508,14.0
40.639,1.581,5.23,30.0
40.918,1.596,5.03,22.0
45.405,1.778,5.316,5.0
0.0,0.0,0.0,0.0
40.465,1.594,4.273,34.0
40.903,1.626,5.473,40.0
40.943,1.632,5.242,19.0
40.961,1.638,5.008,3.0
45.064,1.807,5.245,15.0
40.664,1.635,4.499,41.0
40.529,1.635,4.252,35.0
40.952,1.667,5.451,14.0
40.917,1.67,5.209,16.0
44.612,1.826,5.422,5.0
45.396,1.863,5.251,17.0
40.682,1.675,4.472,39.0
40.528,1.672,4.222,38.0
45.143,1.879,5.975,15.0
44.56,1.86,5.639,9.0
41.641,1.742,5.029,8.0
0.0,0.0,0.0,0.0
40.684,1.711,4.441,31.0
40.506,1.708,4.189,44.0
44.987,1.914,5.919,15.0
44.603,1.902,5.609,3.0
41.635,1.779,4.995,32.0
45.011,1.928,5.136,3.0
40.668,1.746,4.406,39.0
40.699,1.752,4.176,43.0
44.825,1.947,5.86,7.0
41.47,1.804,5.181,28.0
41.65,1.816,4.962,37.0
40.815,1.784,4.623,13.0
45.122,1.976,4.851,5.0
41.074,1.803,4.18,37.0
44.85,1.986,5.825,6.0
41.546,1.843,5.154,31.0
41.656,1.852,4.927,42.0
45.643,2.033,5.13,7.0
43.192,1.928,4.605,7.0
41.3,1.847,4.166,23.0
51.171,2.308,6.599,8.0
41.602,1.88,5.124,37.0
41.709,1.889,4.895,44.0
40.777,1.85,4.545,15.0
41.083,1.867,4.342,16.0
41.023,1.868,4.1,26.0
44.855,2.059,5.742,5.0
41.831,1.924,5.111,39.0
41.816,1.927,4.867,39.0
40.762,1.881,4.505,32.0
40.957,1.894,4.29,30.0
40.788,1.889,4.037,41.0
41.515,1.939,5.273,22.0
41.554,1.944,5.036,44.0
41.859,1.961,4.83,38.0
40.793,1.915,4.467,38.0
40.986,1.926,4.251,32.0
40.833,1.923,4.0,31.0
41.566,1.972,5.237,13.0
41.572,1.976,4.996,45.0
42.007,1.999,4.804,38.0
40.732,1.942,4.418,23.0
40.913,1.953,4.201,32.0
40.969,1.959,3.971,37.0
44.642,2.151,5.577,4.0
41.563,2.005,4.95,46.0
42.068,2.032,4.766,31.0
40.842,1.976,4.386,27.0
41.195,1.995,4.186,38.0
41.023,1.99,3.932,17.0
41.733,2.04,5.168,39.0
41.802,2.046,4.933,34.0
45.816,2.244,5.14,11.0
40.763,2.0,4.333,42.0
41.214,2.024,4.142,29.0
40.996,2.016,3.884,37.0
41.982,2.08,5.151,32.0
41.797,2.073,4.885,39.0
46.074,2.287,5.116,13.0
40.759,2.026,4.286,41.0
40.904,2.035,4.064,32.0
41.073,2.046,3.844,33.0
41.775,2.096,5.077,18.0
41.858,2.102,4.843,29.0
40.87,2.054,4.491,29.0
40.88,2.057,4.251,33.0
40.88,2.059,4.014,38.0
40.534,2.043,3.746,46.0
41.769,2.121,5.026,37.0
42.149,2.142,4.826,17.0
40.808,2.076,4.435,34.0
40.823,2.078,4.196,10.0
40.848,2.081,3.961,40.0
40.473,2.064,3.691,38.0
41.702,2.141,4.966,39.0
41.372,2.126,4.686,12.0
40.713,2.093,4.374,40.0
53.45,2.751,5.427,11.0
41.037,2.113,3.929,33.0
40.593,2.092,3.651,18.0
41.693,2.163,4.912,44.0
40.998,2.129,4.591,16.0
40.753,2.117,4.326,38.0
40.937,2.128,4.104,29.0
40.927,2.129,3.866,34.0
41.2,2.145,3.653,21.0
41.819,2.191,4.873,37.0
40.904,2.144,4.528,33.0
40.761,2.137,4.275,36.0
40.796,2.14,4.037,29.0
40.697,2.136,3.792,34.0
41.394,2.174,3.617,29.0
41.776,2.208,4.812,44.0
40.714,2.153,4.452,38.0
40.842,2.16,4.229,25.0
40.921,2.165,3.995,34.0
40.866,2.163,3.753,29.0
40.609,2.151,3.494,40.0
41.773,2.226,4.755,45.0
40.712,2.17,4.397,37.0
40.978,2.185,4.187,31.0
40.946,2.184,3.941,30.0
41.201,2.198,3.727,37.0
40.505,2.162,3.43,36.0
41.628,2.235,4.681,37.0
40.722,2.186,4.342,41.0
45.554,2.446,4.592,10.0
40.926,2.198,3.883,37.0
41.167,2.211,3.668,42.0
40.52,2.177,3.376,35.0
40.95,2.213,4.547,35.0
40.744,2.202,4.287,37.0
40.906,2.211,4.066,17.0
41.123,2.222,3.845,31.0
40.819,2.206,3.579,54.0
40.485,2.189,3.315,32.0
40.734,2.214,4.466,28.0
40.788,2.217,4.233,15.0
40.864,2.221,4.004,30.0
41.249,2.242,3.797,31.0
40.428,2.197,3.487,43.0
40.607,2.207,3.267,37.0
40.819,2.231,4.416,25.0
41.039,2.242,4.2,21.0
41.132,2.247,3.97,16.0
41.233,2.252,3.736,44.0
40.447,2.209,3.43,41.0
40.459,2.21,3.197,37.0
40.796,2.239,4.353,37.0
41.029,2.252,4.139,31.0
41.124,2.256,3.909,15.0
41.2,2.26,3.673,43.0
40.445,2.218,3.371,37.0
40.49,2.22,3.139,36.0
40.712,2.243,4.283,44.0
45.989,2.533,4.57,8.0
41.228,2.27,3.857,36.0
40.745,2.243,3.571,43.0
40.545,2.231,3.318,15.0
40.498,2.228,3.079,39.0
40.792,2.254,4.23,19.0
40.815,2.255,3.994,30.0
41.302,2.281,3.801,41.0
40.422,2.231,3.481,46.0
40.725,2.247,3.27,29.0
40.688,2.245,3.032,41.0
40.993,2.271,4.187,26.0
41.143,2.278,3.962,24.0
41.226,2.282,3.73,44.0
40.459,2.238,3.421,42.0
40.434,2.236,3.184,45.0
41.176,2.276,3.004,34.0
45.982,2.552,4.624,9.0
41.147,2.282,3.898,29.0
41.186,2.283,3.662,40.0
40.426,2.239,3.355,39.0
40.541,2.244,3.129,36.0
41.046,2.271,2.93,34.0
40.794,2.266,4.038,30.0
41.325,2.294,3.849,31.0
40.654,2.255,3.55,44.0
40.758,2.259,3.318,23.0
40.654,2.252,3.073,39.0
40.932,2.266,2.858,40.0
40.907,2.273,3.984,25.0
41.267,2.291,3.778,38.0
40.426,2.243,3.465,43.0
40.576,2.249,3.238,38.0
41.098,2.277,3.041,26.0
41.039,2.272,2.799,36.0
41.165,2.286,3.942,25.0
41.303,2.292,3.714,42.0
40.487,2.245,3.405,40.0
40.472,2.242,3.164,39.0
41.214,2.281,2.983,34.0
40.94,2.264,2.726,39.0
41.232,2.288,3.881,33.0
40.958,2.27,3.616,36.0
40.459,2.24,3.336,35.0
40.531,2.242,3.103,39.0
40.919,2.261,2.895,39.0
41.195,2.274,2.676,36.0
41.318,2.288,3.821,39.0
40.455,2.237,3.505,46.0
40.843,2.256,3.301,21.0
40.588,2.24,3.04,44.0
40.959,2.258,2.831,40.0
41.286,2.273,2.614,36.0
41.234,2.277,3.745,48.0
40.449,2.231,3.437,47.0
40.434,2.227,3.201,47.0
40.83,2.247,2.991,41.0
40.902,2.248,2.759,43.0
41.045,2.253,2.531,38.0
41.14,2.264,3.667,42.0
40.468,2.224,3.372,32.0
40.502,2.223,3.139,36.0
40.861,2.24,2.925,34.0
41.003,2.245,2.697,44.0
41.133,2.249,2.468,36.0
40.553,2.222,3.547,40.0
44.889,2.457,3.664,4.0
40.452,2.211,3.066,46.0
41.013,2.238,2.867,35.0
41.145,2.242,2.638,33.0
41.166,2.241,2.4,34.0
40.449,2.206,3.469,41.0
40.505,2.205,3.238,37.0
40.674,2.211,3.014,42.0
40.932,2.222,2.791,36.0
41.033,2.224,2.56,40.0
41.531,2.248,2.351,41.0
40.523,2.197,3.405,37.0
40.495,2.192,3.167,35.0
40.87,2.209,2.959,37.0
40.873,2.205,2.717,43.0
41.019,2.21,2.49,44.0
59.363,3.193,3.259,14.0
40.661,2.19,3.347,38.0
40.546,2.18,3.102,33.0
41.014,2.201,2.899,39.0
41.056,2.2,2.659,39.0
41.027,2.195,2.42,42.0
59.341,3.169,3.157,17.0
40.374,2.159,3.255,42.0
40.601,2.167,3.037,39.0
40.951,2.181,2.825,42.0
40.926,2.176,2.581,43.0
59.329,3.15,3.398,6.0
52.746,2.795,2.715,26.0
40.323,2.139,3.18,41.0
40.779,2.158,2.979,42.0
40.989,2.165,2.756,38.0
41.021,2.163,2.516,40.0
41.789,2.199,2.321,29.0
59.355,3.117,2.954,14.0
40.47,2.127,3.121,38.0
40.841,2.142,2.912,46.0
40.922,2.141,2.68,45.0
41.17,2.15,2.454,19.0
41.781,2.178,2.248,17.0
59.371,3.088,2.851,18.0
40.615,2.113,3.062,43.0
40.905,2.124,2.846,37.0
40.96,2.122,2.612,41.0
41.778,2.159,2.417,38.0
52.815,2.724,2.75,26.0
59.375,3.056,2.748,13.0
40.712,2.096,2.998,34.0
40.861,2.098,2.772,43.0
41.06,2.103,2.546,36.0
41.753,2.134,2.343,26.0
52.73,2.689,2.655,26.0
59.39,3.022,2.647,15.0
40.753,2.073,2.93,40.0
41.026,2.082,2.711,39.0
41.385,2.094,2.495,16.0
41.817,2.111,2.274,30.0
52.72,2.655,2.562,17.0
59.451,2.987,2.545,11.0
40.818,2.05,2.863,38.0
41.019,2.055,2.639,42.0
41.818,2.089,2.448,37.0
52.466,2.614,2.762,7.0
59.433,2.954,2.786,16.0
59.487,2.949,2.445,13.0
40.818,2.022,2.792,44.0
40.997,2.026,2.567,44.0
41.845,2.062,2.377,36.0
59.457,2.921,3.027,17.0
59.484,2.914,2.685,9.0
52.563,2.569,2.069,2.0
40.899,1.996,2.727,46.0
41.228,2.006,2.509,18.0
52.943,2.57,2.916,13.0
59.444,2.876,2.923,23.0
59.541,2.873,2.583,8.0
0.0,0.0,0.0,0.0
41.026,1.971,2.664,45.0
41.722,1.998,2.467,19.0
52.829,2.522,2.817,20.0
59.469,2.831,2.821,21.0
65.87,3.126,2.744,8.0
0.0,0.0,0.0,0.0
41.038,1.938,2.593,44.0
41.752,1.966,2.396,25.0
59.489,2.792,3.07,18.0
52.613,2.462,2.406,16.0
190.045,8.864,7.591,14.0
0.0,0.0,0.0,0.0
41.252,1.914,2.536,16.0
41.89,1.937,2.332,16.0
52.898,2.437,2.638,10.0
52.881,2.428,2.326,26.0
52.826,2.417,2.018,2.0
62.739,2.861,2.035,3.0
42.071,1.914,2.513,18.0
52.954,2.401,2.856,15.0
104.602,4.726,5.038,14.0
52.54,2.365,2.221,25.0
66.137,2.967,2.414,12.0
63.422,2.835,1.949,10.0
52.94,2.36,3.072,3.0
52.946,2.351,2.765,6.0
66.042,2.922,3.067,13.0
66.021,2.909,2.678,9.0
66.045,2.9,2.298,27.0
64.23,2.81,1.864,14.0
52.965,2.311,2.983,8.0
65.97,2.866,3.333,18.0
65.985,2.855,2.952,16.0
66.016,2.845,2.565,19.0
66.038,2.835,2.186,30.0
0.0,0.0,0.0,0.0
65.803,2.804,3.593,35.0
65.933,2.797,3.219,9.0
52.926,2.236,2.278,15.0
66.013,2.777,2.454,35.0
66.071,2.768,2.075,30.0
66.124,2.759,1.695,25.0
65.644,2.729,3.474,42.0
65.964,2.73,3.109,15.0
66.028,2.721,2.731,29.0
66.066,2.71,2.345,28.0
66.177,2.702,1.967,11.0
120.08,4.884,2.879,11.0
65.73,2.662,3.368,38.0
66.154,2.666,3.007,9.0
66.117,2.652,2.624,26.0
190.821,7.62,6.456,14.0
120.067,4.772,3.37,8.0
120.087,4.75,2.678,15.0
66.139,2.605,3.279,14.0
66.135,2.591,2.897,20.0
66.218,2.581,2.518,6.0
210.339,8.159,6.766,14.0
120.111,4.637,3.171,23.0
120.084,4.612,2.478,19.0
66.243,2.531,3.173,27.0
72.534,2.757,3.055,13.0
190.722,7.21,6.934,29.0
194.83,7.328,5.943,11.0
120.097,4.493,2.971,26.0
72.511,2.698,1.377,7.0
72.501,2.684,3.354,19.0
72.531,2.67,2.937,24.0
72.478,2.654,2.517,29.0
72.428,2.637,2.092,31.0
72.426,2.622,1.674,27.0
72.383,2.606,1.257,27.0
72.405,2.592,3.232,29.0
72.404,2.576,2.814,34.0
72.411,2.561,2.398,36.0
72.384,2.545,1.973,38.0
72.361,2.529,1.555,32.0
72.352,2.514,1.139,32.0
72.391,2.499,3.113,34.0
72.412,2.484,2.697,38.0
72.388,2.467,2.279,36.0
72.376,2.451,1.855,37.0
72.383,2.436,1.439,36.0
72.37,2.421,1.023,31.0
72.44,2.407,3.0,31.0
72.456,2.391,2.584,33.0
72.49,2.377,2.168,35.0
72.47,2.36,1.744,35.0
72.448,2.344,1.327,30.0
72.451,2.329,0.912,32.0
78.789,2.513,3.14,25.0
190.868,6.045,6.508,7.0
74.597,2.346,2.115,1.0
74.37,2.323,1.674,3.0
74.214,2.301,1.244,3.0
74.134,2.283,0.817,8.0
78.812,2.407,3.019,29.0
78.956,2.393,2.57,19.0
78.923,2.375,2.116,1.0
75.416,2.252,1.582,6.0
75.385,2.234,1.148,7.0
78.938,2.321,0.749,4.0
78.781,2.296,2.897,19.0
78.845,2.279,2.446,27.0
77.329,2.217,1.954,3.0
76.965,2.189,1.495,2.0
77.097,2.174,1.056,4.0
78.824,2.205,0.628,15.0
78.792,2.184,2.777,32.0
78.843,2.166,2.327,33.0
78.848,2.147,1.874,35.0
78.886,2.13,1.415,38.0
78.896,2.111,0.962,33.0
78.782,2.089,0.508,15.0
78.85,2.069,2.661,27.0
78.95,2.053,2.211,21.0
79.02,2.035,1.76,12.0
79.054,2.017,1.299,7.0
85.32,2.157,0.914,11.0
78.724,1.97,0.392,7.0
85.32,2.111,2.753,28.0
85.269,2.088,2.262,30.0
85.282,2.068,1.774,35.0
85.259,2.047,1.277,39.0
85.192,2.023,0.787,27.0
71.988,1.692,0.253,12.0
85.239,1.979,2.626,32.0
85.241,1.957,2.138,38.0
85.237,1.936,1.65,38.0
85.226,1.914,1.153,41.0
85.202,1.892,0.665,18.0
71.891,1.578,0.149,9.0
85.291,1.846,2.505,32.0
85.319,1.826,2.018,33.0
85.324,1.804,1.53,35.0
85.335,1.783,1.034,33.0
85.086,1.756,0.544,11.0
70.618,1.439,0.048,3.0
91.845,1.845,2.571,25.0
88.197,1.748,1.964,5.0
87.653,1.714,1.45,10.0
91.934,1.773,0.985,12.0
84.653,1.611,0.423,9.0
72.124,1.353,-0.051,0.0
67.994,-5.298,5.105,79.0
67.975,-5.274,4.72,84.0
67.959,-5.25,4.337,67.0
67.956,-5.228,3.948,31.0
67.932,-5.205,3.566,10.0
67.932,-5.184,3.185,29.0
78.139,-5.96,5.852,23.0
70.982,-5.392,4.916,26.0
71.889,-5.437,4.574,49.0
71.341,-5.372,4.131,37.0
67.914,-5.093,3.55,26.0
67.916,-5.072,3.17,60.0
72.547,-5.416,5.417,5.0
71.871,-5.342,4.961,11.0
71.918,-5.322,4.56,14.0
71.375,-5.258,4.116,22.0
67.908,-4.981,3.534,33.0
67.906,-4.96,3.153,64.0
79.035,-5.77,5.882,11.0
71.69,-5.21,4.93,10.0
75.195,-5.441,4.747,16.0
71.215,-5.129,4.087,22.0
67.889,-4.868,3.513,43.0
67.908,-4.848,3.132,65.0
75.984,-5.421,5.631,4.0
76.875,-5.46,5.263,13.0
76.071,-5.377,4.778,12.0
71.311,-5.018,4.069,36.0
67.887,-4.756,3.491,43.0
67.873,-4.734,3.108,59.0
71.906,-5.011,5.305,13.0
76.254,-5.29,5.194,10.0
71.656,-4.947,4.475,12.0
71.181,-4.891,4.036,37.0
70.618,-4.83,3.606,18.0
70.725,-4.815,3.212,11.0
72.928,-4.961,5.351,26.0
71.786,-4.859,4.861,27.0
71.648,-4.826,4.446,24.0
70.677,-4.738,3.979,34.0
70.925,-4.732,3.592,17.0
76.913,-5.107,3.462,8.0
72.255,-4.793,5.271,19.0
71.622,-4.727,4.818,25.0
71.092,-4.67,4.38,34.0
70.764,-4.626,3.952,48.0
71.028,-4.621,3.566,17.0
73.332,-4.748,3.267,10.0
72.021,-4.656,5.22,13.0
71.569,-4.604,4.781,19.0
71.065,-4.548,4.344,28.0
70.79,-4.508,3.919,40.0
71.0,-4.499,3.529,25.0
73.219,-4.617,3.226,21.0
58.912,-3.709,4.24,16.0
58.85,-3.686,3.901,7.0
70.719,-4.407,4.286,34.0
70.824,-4.392,3.884,35.0
20.028,-1.235,0.984,13.0
20.04,-1.23,0.871,11.0
58.688,-3.597,4.191,31.0
58.854,-3.588,3.868,33.0
71.292,-4.323,4.28,36.0
19.981,-1.205,1.084,7.0
19.979,-1.199,0.97,24.0
20.014,-1.194,0.859,19.0
58.838,-3.506,4.166,33.0
58.961,-3.494,3.84,33.0
71.406,-4.209,4.244,29.0
19.954,-1.169,1.07,14.0
19.968,-1.164,0.958,24.0
20.026,-1.161,0.847,25.0
59.146,-3.425,4.151,30.0
58.844,-3.388,3.795,33.0
58.64,-3.357,3.447,13.0
19.94,-1.135,1.056,18.0
19.943,-1.129,0.943,18.0
20.038,-1.128,0.834,22.0
58.997,-3.315,4.1,34.0
58.46,-3.267,3.729,32.0
58.614,-3.257,3.405,32.0
19.954,-1.102,1.043,16.0
19.988,-1.098,0.931,25.0
20.053,-1.095,0.82,8.0
63.49,-3.46,4.367,8.0
58.435,-3.165,3.685,32.0
58.724,-3.163,3.368,32.0
19.982,-1.07,1.03,13.0
20.013,-1.065,0.918,4.0
20.061,-1.062,0.806,5.0
58.583,-3.093,3.985,33.0
58.5,-3.07,3.644,32.0
58.804,-3.068,3.327,32.0
79.269,-4.112,4.026,12.0
83.468,-4.304,3.763,17.0
20.063,-1.029,0.79,4.0
0.0,0.0,0.0,0.0
0.0,0.0,0.0,0.0
43.557,-1.146,-0.501,0.0
34.018,-0.885,-0.574,0.0
21.908,-0.563,-0.485,2.0
21.9,-0.556,-0.601,151.0
0.0,0.0,0.0,0.0
0.0,0.0,0.0,0.0
43.454,-1.068,-0.446,1.0
34.901,-0.847,-0.546,0.0
30.07,-0.721,-0.63,0.0
18.136,-0.429,-0.476,0.0
0.0,0.0,0.0,0.0
0.0,0.0,0.0,0.0
46.646,-1.065,-0.424,0.0
0.0,0.0,0.0,0.0
0.0,0.0,0.0,0.0
26.706,-0.585,-0.67,0.0
0.0,0.0,0.0,0.0
0.0,0.0,0.0,0.0
47.915,-1.009,-0.38,0.0
0.0,0.0,0.0,0.0
31.712,-0.648,-0.591,0.0
27.44,-0.552,-0.657,0.0
0.0,0.0,0.0,0.0
0.0,0.0,0.0,0.0
50.474,-0.972,-0.343,0.0
0.0,0.0,0.0,0.0
33.157,-0.617,-0.581,0.0
0.0,0.0,0.0,0.0
139.057,-2.512,0.681,5.0
75.451,-1.339,-0.03,0.0
0.0,0.0,0.0,0.0
0.0,0.0,0.0,0.0
0.0,0.0,0.0,0.0
29.242,-0.481,-0.636,0.0
138.889,-2.25,0.833,10.0
0.0,0.0,0.0,0.0
0.0,0.0,0.0,0.0
46.776,-0.713,-0.47,0.0
0.0,0.0,0.0,0.0
30.004,-0.439,-0.621,0.0
138.799,-1.992,0.976,23.0
0.0,0.0,0.0,0.0
0.0,0.0,0.0,0.0
47.077,-0.63,-0.425,0.0
0.0,0.0,0.0,0.0
30.92,-0.394,-0.608,0.0
139.214,-1.737,1.121,23.0
0.0,0.0,0.0,0.0
0.0,0.0,0.0,0.0
47.1,-0.542,-0.378,0.0
37.356,-0.417,-0.499,0.0
0.0,0.0,0.0,0.0
119.751,-1.266,1.082,150.0
0.0,0.0,0.0,0.0
0.0,0.0,0.0,0.0
0.0,0.0,0.0,0.0
0.0,0.0,0.0,0.0
32.815,-0.294,-0.582,0.0
119.673,-1.037,1.195,18.0
0.0,0.0,0.0,0.0
0.0,0.0,0.0,0.0
0.0,0.0,0.0,0.0
0.0,0.0,0.0,0.0
33.344,-0.234,-0.561,0.0
119.708,-0.804,1.306,19.0
110.972,-0.709,0.617,6.0
0.0,0.0,0.0,0.0
0.0,0.0,0.0,0.0
0.0,0.0,0.0,0.0
0.0,0.0,0.0,0.0
119.721,-0.57,1.412,16.0
111.122,-0.493,0.715,5.0
0.0,0.0,0.0,0.0
0.0,0.0,0.0,0.0
45.108,-0.155,-0.438,1.0
0.0,0.0,0.0,0.0
113.098,-0.315,1.431,7.0
114.497,-0.281,0.835,59.0
0.0,0.0,0.0,0.0
0.0,0.0,0.0,0.0
45.291,-0.065,-0.402,2.0
37.301,-0.042,-0.531,0.0
111.223,-0.088,1.498,14.0
111.176,-0.051,0.901,8.0
95.694,-0.013,0.261,4.0
0.0,0.0,0.0,0.0
45.865,0.024,-0.371,0.0
38.049,0.033,-0.512,0.0
111.08,0.134,1.583,17.0
111.153,0.172,0.987,10.0
94.511,0.178,0.332,1.0
0.0,0.0,0.0,0.0
0.0,0.0,0.0,0.0
