X,Y,Z,Reflectivity
0.0,0.0,0.0,0.0
0.0,0.0,0.0,0.0
0.0,0.0,0.0,0.0
119.925,3.657,1.144,8.0
71.712,2.21,0.283,11.0
61.327,1.909,-0.1,2.0
0.0,0.0,0.0,0.0
37.916,1.204,-0.49,0.0
31.685,1.016,-0.586,0.0
72.369,2.353,0.649,34.0
71.524,2.348,0.241,10.0
59.833,1.982,-0.132,4.0
45.734,1.53,-0.362,0.0
0.0,0.0,0.0,0.0
31.309,1.066,-0.598,0.0
72.336,2.497,0.605,23.0
71.506,2.491,0.197,6.0
58.51,2.056,-0.166,3.0
46.712,1.657,-0.399,0.0
36.14,1.292,-0.511,0.0
30.219,1.09,-0.596,0.0
72.311,2.641,0.558,10.0
65.617,2.415,0.138,13.0
57.097,2.12,-0.199,2.0
44.713,1.674,-0.411,1.0
0.0,0.0,0.0,0.0
29.771,1.132,-0.607,0.0
72.415,2.787,0.51,6.0
65.184,2.528,0.093,13.0
55.827,2.182,-0.233,2.0
44.696,1.76,-0.441,1.0
34.871,1.384,-0.54,0.0
0.0,0.0,0.0,0.0
66.095,2.673,0.419,22.0
65.07,2.651,0.047,7.0
54.929,2.253,-0.268,2.0
44.676,1.846,-0.474,0.0
0.0,0.0,0.0,0.0
28.539,1.196,-0.623,0.0
66.035,2.798,0.369,20.0
58.773,2.507,-0.001,9.0
53.715,2.307,-0.303,2.0
40.749,1.762,-0.463,0.0
33.49,1.458,-0.569,0.0
28.119,1.232,-0.636,0.0
66.012,2.923,0.318,14.0
58.652,2.614,-0.047,10.0
52.684,2.363,-0.338,3.0
39.528,1.785,-0.48,0.0
32.161,1.461,-0.572,0.0
27.211,1.244,-0.637,0.0
65.984,3.047,0.265,11.0
52.799,2.453,-0.085,6.0
51.855,2.424,-0.375,0.0
0.0,0.0,0.0,0.0
31.694,1.499,-0.589,0.0
26.902,1.28,-0.652,0.0
65.753,3.159,0.209,10.0
52.051,2.515,-0.127,24.0
0.0,0.0,0.0,0.0
0.0,0.0,0.0,0.0
30.677,1.508,-0.597,0.0
26.348,1.303,-0.661,0.0
59.378,2.962,0.137,15.0
51.565,2.586,-0.171,11.0
0.0,0.0,0.0,0.0
35.73,1.811,-0.525,0.0
29.802,1.518,-0.606,0.0
25.794,1.322,-0.67,0.0
59.096,3.054,0.084,18.0
49.529,2.573,-0.208,2.0
42.496,2.219,-0.419,2.0
34.983,1.836,-0.546,0.0
28.996,1.53,-0.616,0.0
25.095,1.331,-0.675,0.0
52.41,2.803,0.026,13.0
48.574,2.611,-0.25,3.0
42.355,2.287,-0.457,1.0
33.499,1.818,-0.554,0.0
28.177,1.536,-0.625,0.0
24.471,1.341,-0.682,0.0
51.906,2.867,-0.023,23.0
47.721,2.648,-0.291,2.0
39.476,2.201,-0.464,0.0
0.0,0.0,0.0,0.0
27.687,1.558,-0.641,0.0
23.973,1.355,-0.691,0.0
51.498,2.933,-0.073,20.0
46.638,2.668,-0.33,4.0
38.141,2.191,-0.486,0.0
31.58,1.823,-0.584,0.0
26.773,1.552,-0.647,0.0
23.193,1.35,-0.692,0.0
51.133,2.999,-0.124,23.0
46.045,2.712,-0.372,6.0
37.625,2.226,-0.518,0.0
30.356,1.803,-0.592,0.0
26.211,1.563,-0.66,0.0
22.93,1.374,-0.708,0.0
51.032,3.079,-0.177,6.0
45.548,2.759,-0.416,2.0
35.504,2.159,-0.525,0.0
29.585,1.806,-0.608,0.0
25.223,1.546,-0.662,0.0
22.289,1.372,-0.711,0.0
45.605,2.825,-0.206,20.0
0.0,0.0,0.0,0.0
33.682,2.103,-0.534,0.0
0.0,0.0,0.0,0.0
24.972,1.571,-0.682,0.0
21.82,1.378,-0.72,0.0
45.155,2.869,-0.252,19.0
0.0,0.0,0.0,0.0
32.823,2.101,-0.556,0.0
27.606,1.774,-0.627,0.0
24.003,1.548,-0.682,0.0
21.534,1.394,-0.734,0.0
44.19,2.877,-0.296,4.0
38.643,2.525,-0.478,1.0
31.414,2.06,-0.567,0.0
26.781,1.762,-0.638,0.0
23.546,1.555,-0.695,0.0
20.755,1.375,-0.731,0.0
43.448,2.896,-0.34,10.0
36.91,2.469,-0.499,0.0
30.409,2.04,-0.584,0.0
26.188,1.763,-0.654,0.0
22.744,1.536,-0.697,0.0
20.415,1.384,-0.742,0.0
42.854,2.921,-0.385,3.0
0.0,0.0,0.0,0.0
29.65,2.034,-0.603,0.0
25.346,1.744,-0.663,0.0
22.377,1.545,-0.712,0.0
19.718,1.366,-0.74,0.0
42.167,2.936,-0.428,5.0
33.715,2.354,-0.534,0.0
28.512,1.997,-0.614,0.0
24.939,1.752,-0.681,0.0
21.67,1.527,-0.716,0.0
19.394,1.371,-0.751,0.0
41.178,2.926,-0.467,1.0
32.555,2.32,-0.554,0.0
27.669,1.977,-0.629,0.0
24.024,1.722,-0.685,0.0
21.153,1.521,-0.724,0.0
18.906,1.363,-0.755,0.0
37.591,2.724,-0.472,1.0
31.207,2.268,-0.57,0.0
26.502,1.931,-0.635,0.0
23.219,1.697,-0.691,0.0
20.581,1.508,-0.73,0.0
18.517,1.361,-0.763,0.0
36.255,2.677,-0.5,1.0
30.084,2.227,-0.586,0.0
25.822,1.917,-0.651,0.0
22.769,1.695,-0.706,0.0
20.203,1.508,-0.742,0.0
18.107,1.355,-0.768,0.0
34.995,2.63,-0.527,0.0
29.137,2.196,-0.605,0.0
25.102,1.896,-0.664,0.0
21.958,1.663,-0.708,0.0
19.65,1.492,-0.746,0.0
17.717,1.349,-0.774,0.0
33.263,2.543,-0.543,0.0
28.069,2.151,-0.618,0.0
24.271,1.864,-0.673,0.0
21.496,1.655,-0.721,0.0
19.24,1.485,-0.755,0.0
17.319,1.34,-0.779,0.0
31.789,2.47,-0.56,0.0
27.255,2.122,-0.635,0.0
23.558,1.839,-0.684,0.0
20.69,1.619,-0.721,0.0
18.61,1.459,-0.755,0.0
16.973,1.334,-0.786,0.0
30.563,2.412,-0.578,0.0
26.173,2.07,-0.644,0.0
22.931,1.817,-0.696,0.0
20.308,1.613,-0.734,0.0
18.279,1.455,-0.765,0.0
16.655,1.329,-0.793,0.0
29.414,2.355,-0.595,0.0
25.301,2.03,-0.656,0.0
22.253,1.789,-0.704,0.0
19.828,1.598,-0.743,0.0
17.893,1.445,-0.773,0.0
16.306,1.32,-0.798,0.0
28.36,2.303,-0.611,0.0
24.622,2.003,-0.672,0.0
21.684,1.768,-0.715,0.0
19.345,1.581,-0.751,0.0
17.482,1.431,-0.779,0.0
15.967,1.31,-0.803,0.0
27.472,2.26,-0.629,0.0
23.727,1.956,-0.678,0.0
20.971,1.732,-0.72,0.0
18.74,1.551,-0.752,0.0
17.048,1.414,-0.782,0.0
15.671,1.302,-0.809,0.0
26.541,2.211,-0.643,0.0
23.129,1.931,-0.692,0.0
20.529,1.717,-0.732,0.0
18.338,1.536,-0.761,0.0
16.726,1.404,-0.79,0.0
15.394,1.295,-0.816,0.0
25.615,2.16,-0.655,0.0
22.225,1.877,-0.695,0.0
19.926,1.686,-0.738,0.0
17.964,1.523,-0.77,0.0
16.406,1.393,-0.797,0.0
15.039,1.279,-0.817,0.0
24.683,2.105,-0.665,0.0
21.955,1.875,-0.717,1.0
19.433,1.663,-0.746,0.0
17.46,1.497,-0.772,0.0
16.056,1.379,-0.803,0.0
14.727,1.267,-0.821,0.0
23.783,2.05,-0.674,0.0
21.161,1.827,-0.721,0.0
18.812,1.627,-0.748,0.0
17.063,1.478,-0.778,0.0
15.727,1.365,-0.808,0.0
14.405,1.252,-0.823,0.0
23.124,2.014,-0.687,0.0
20.594,1.796,-0.73,0.0
18.334,1.601,-0.755,0.0
16.736,1.464,-0.787,0.0
15.348,1.345,-0.81,0.0
14.23,1.249,-0.833,0.0
22.478,1.976,-0.699,0.0
19.977,1.759,-0.736,0.0
17.977,1.585,-0.765,0.0
16.31,1.44,-0.79,0.0
15.114,1.337,-0.819,0.0
13.954,1.236,-0.836,0.0
21.765,1.931,-0.707,0.0
19.432,1.726,-0.743,0.0
17.567,1.563,-0.773,0.0
16.057,1.431,-0.8,0.0
14.744,1.315,-0.819,0.0
13.72,1.226,-0.842,0.0
21.131,1.891,-0.717,0.0
18.784,1.683,-0.745,0.0
17.094,1.533,-0.776,0.0
15.639,1.405,-0.801,0.0
14.452,1.3,-0.824,0.0
13.391,1.206,-0.84,0.0
20.572,1.855,-0.727,0.0
18.386,1.66,-0.755,0.0
16.771,1.516,-0.785,0.0
15.34,1.388,-0.808,0.0
14.219,1.289,-0.831,0.0
13.109,1.19,-0.841,0.0
19.959,1.813,-0.733,0.0
17.951,1.632,-0.762,0.0
16.46,1.499,-0.794,0.0
14.998,1.367,-0.811,0.0
13.935,1.272,-0.834,0.0
12.951,1.184,-0.849,0.0
19.438,1.778,-0.741,0.0
17.565,1.608,-0.77,0.0
16.052,1.471,-0.796,0.0
14.631,1.342,-0.812,0.0
13.72,1.26,-0.84,0.0
12.629,1.162,-0.846,0.0
18.816,1.732,-0.744,0.0
17.138,1.579,-0.776,0.0
15.663,1.444,-0.799,0.0
14.445,1.334,-0.822,0.0
13.541,1.252,-0.848,0.0
12.466,1.154,-0.853,0.0
18.384,1.702,-0.753,0.0
16.773,1.554,-0.783,0.0
15.416,1.43,-0.808,0.0
14.26,1.324,-0.831,1.0
13.193,1.226,-0.845,0.0
12.271,1.142,-0.857,0.0
18.001,1.675,-0.762,0.0
16.423,1.529,-0.79,0.0
15.068,1.404,-0.811,0.0
13.968,1.303,-0.834,0.0
12.981,1.212,-0.85,0.0
11.96,1.118,-0.852,0.0
17.584,1.644,-0.769,0.0
16.089,1.505,-0.796,0.0
14.802,1.386,-0.818,0.0
13.72,1.286,-0.838,0.0
12.76,1.197,-0.853,0.0
11.825,1.111,-0.859,0.0
17.217,1.616,-0.777,0.0
15.689,1.474,-0.798,0.0
14.416,1.356,-0.816,0.0
13.405,1.261,-0.838,0.0
12.478,1.175,-0.852,0.0
11.591,1.093,-0.858,0.0
16.832,1.586,-0.783,0.0
15.456,1.457,-0.808,0.0
14.227,1.343,-0.825,0.0
13.222,1.249,-0.845,0.0
12.299,1.162,-0.857,0.0
11.389,1.078,-0.859,0.0
16.408,1.551,-0.786,0.0
15.08,1.427,-0.809,0.0
14.001,1.325,-0.832,0.0
13.028,1.234,-0.85,0.0
12.004,1.138,-0.853,0.0
11.22,1.065,-0.862,0.0
16.087,1.525,-0.793,0.0
14.838,1.408,-0.817,0.0
13.74,1.304,-0.835,0.0
12.822,1.218,-0.855,0.0
11.85,1.126,-0.858,0.0
11.05,1.051,-0.864,0.0
15.724,1.494,-0.797,0.0
14.543,1.383,-0.82,0.0
13.503,1.285,-0.839,0.0
12.487,1.189,-0.85,0.0
11.604,1.105,-0.857,0.0
10.886,1.038,-0.867,0.0
15.448,1.471,-0.804,0.0
14.276,1.36,-0.825,0.0
13.207,1.259,-0.839,0.0
12.277,1.171,-0.852,0.0
11.429,1.09,-0.86,0.0
10.766,1.028,-0.872,0.0
14.968,1.427,-0.799,1.0
14.002,1.336,-0.828,0.0
12.981,1.239,-0.843,0.0
12.037,1.149,-0.852,0.0
11.257,1.075,-0.862,0.0
10.624,1.015,-0.875,0.0
14.901,1.422,-0.816,1.0
13.785,1.316,-0.834,0.0
12.783,1.221,-0.847,0.0
11.83,1.13,-0.853,0.0
11.08,1.059,-0.863,0.0
10.368,0.992,-0.868,0.0
14.748,1.408,-0.827,0.0
13.605,1.299,-0.841,0.0
12.544,1.198,-0.848,0.0
11.663,1.115,-0.857,0.0
10.922,1.044,-0.865,0.0
10.371,0.992,-0.882,0.0
14.35,1.37,-0.823,0.0
13.234,1.264,-0.835,0.0
12.34,1.179,-0.85,0.0
11.476,1.097,-0.858,0.0
10.771,1.03,-0.867,0.0
10.257,0.981,-0.885,0.0
14.024,1.338,-0.823,0.0
13.052,1.246,-0.841,0.0
12.17,1.162,-0.854,0.0
11.305,1.08,-0.86,0.0
10.651,1.017,-0.872,0.0
10.133,0.968,-0.888,0.0
13.879,1.323,-0.832,0.0
12.931,1.233,-0.849,0.0
11.905,1.135,-0.851,0.0
11.122,1.061,-0.86,0.0
10.506,1.003,-0.873,0.0
10.037,0.958,-0.892,0.0
13.654,1.3,-0.836,0.0
12.691,1.208,-0.85,0.0
11.783,1.122,-0.857,0.0
10.98,1.046,-0.863,0.0
10.382,0.989,-0.876,0.0
9.852,0.939,-0.888,0.0
13.355,1.269,-0.834,0.0
12.466,1.185,-0.85,0.0
11.5,1.093,-0.851,0.0
10.844,1.031,-0.866,0.0
10.315,0.981,-0.883,0.0
9.756,0.928,-0.892,0.0
13.221,1.254,-0.842,0.0
12.233,1.16,-0.849,0.0
11.371,1.078,-0.855,0.0
10.71,1.016,-0.868,0.0
10.208,0.968,-0.886,0.0
9.665,0.917,-0.895,0.0
13.011,1.231,-0.844,0.0
12.007,1.135,-0.848,0.0
11.234,1.062,-0.858,0.0
10.586,1.001,-0.871,0.0
10.059,0.951,-0.886,0.0
9.624,0.91,-0.903,0.0
12.804,1.207,-0.846,0.0
11.835,1.116,-0.85,0.0
11.04,1.041,-0.857,0.0
10.382,0.979,-0.866,0.0
9.994,0.942,-0.892,0.0
9.497,0.895,-0.902,0.0
12.525,1.177,-0.842,0.0
11.741,1.103,-0.857,0.0
10.959,1.029,-0.863,0.0
10.34,0.971,-0.875,0.0
9.822,0.922,-0.888,0.0
9.359,0.879,-0.9,0.0
12.4,1.16,-0.848,0.0
11.579,1.083,-0.859,0.0
10.852,1.015,-0.867,0.0
10.295,0.963,-0.883,0.0
9.813,0.917,-0.898,0.0
9.316,0.871,-0.907,0.0
12.251,1.141,-0.852,0.0
11.358,1.058,-0.855,0.0
10.734,0.999,-0.869,0.0
10.164,0.946,-0.883,0.0
9.687,0.901,-0.897,0.0
9.19,0.855,-0.905,0.0
11.991,1.112,-0.847,0.0
11.273,1.045,-0.861,0.0
10.629,0.985,-0.873,0.0
10.109,0.936,-0.889,0.0
9.638,0.892,-0.903,0.0
9.133,0.845,-0.909,0.0
11.853,1.093,-0.849,0.0
11.091,1.022,-0.858,0.0
10.469,0.965,-0.871,0.0
10.055,0.926,-0.895,0.0
9.511,0.876,-0.902,0.0
9.082,0.836,-0.913,0.0
11.698,1.072,-0.851,0.0
10.942,1.003,-0.858,0.0
10.408,0.953,-0.876,0.0
9.858,0.902,-0.888,0.0
9.405,0.861,-0.901,0.0
8.991,0.822,-0.913,0.0
11.6,1.057,-0.855,0.0
10.855,0.988,-0.863,0.0
10.318,0.939,-0.879,0.0
9.807,0.892,-0.893,0.0
9.326,0.848,-0.903,0.0
8.907,0.809,-0.914,0.0
11.424,1.034,-0.853,0.0
10.741,0.971,-0.864,0.0
10.219,0.924,-0.881,0.0
9.77,0.883,-0.899,0.0
9.283,0.838,-0.908,0.0
8.821,0.796,-0.914,0.0
11.318,1.017,-0.856,0.0
10.647,0.956,-0.867,0.0
10.117,0.908,-0.882,0.0
9.643,0.865,-0.897,0.0
9.151,0.82,-0.904,0.0
8.779,0.786,-0.918,0.0
11.187,0.998,-0.857,0.0
10.579,0.943,-0.871,0.0
10.104,0.9,-0.89,0.0
9.604,0.855,-0.902,0.0
9.106,0.81,-0.908,0.0
8.698,0.773,-0.917,0.0
11.114,0.983,-0.861,0.0
10.461,0.925,-0.87,0.0
9.969,0.88,-0.887,0.0
9.514,0.84,-0.902,0.0
9.081,0.801,-0.913,0.0
8.633,0.761,-0.918,0.0
10.97,0.962,-0.859,0.0
10.43,0.914,-0.877,0.0
9.85,0.863,-0.884,0.0
9.454,0.827,-0.904,0.0
9.007,0.787,-0.913,0.0
8.651,0.756,-0.927,0.0
10.88,0.946,-0.861,0.0
10.309,0.895,-0.875,0.0
9.81,0.851,-0.889,0.0
9.35,0.811,-0.902,0.0
8.896,0.77,-0.909,0.0
8.568,0.742,-0.925,0.0
10.829,0.932,-0.866,0.0
10.237,0.881,-0.877,0.0
9.785,0.841,-0.895,0.0
0.0,0.0,0.0,0.0
8.898,0.763,-0.916,0.0
8.569,0.734,-0.932,0.0
10.715,0.914,-0.865,0.0
10.201,0.869,-0.882,0.0
9.721,0.827,-0.896,0.0
9.247,0.786,-0.906,0.0
8.884,0.754,-0.922,0.0
8.464,0.718,-0.927,0.0
10.648,0.899,-0.867,0.0
10.172,0.858,-0.887,0.0
9.696,0.816,-0.901,0.0
0.0,0.0,0.0,0.0
8.77,0.737,-0.916,0.0
8.361,0.702,-0.922,0.0
10.568,0.882,-0.868,0.0
10.007,0.834,-0.879,0.0
9.594,0.799,-0.898,0.0
0.0,0.0,0.0,0.0
8.709,0.724,-0.916,0.0
8.356,0.694,-0.926,0.0
10.514,0.868,-0.87,0.0
10.008,0.825,-0.886,0.0
9.673,0.797,-0.911,0.0
9.088,0.747,-0.909,0.0
8.695,0.714,-0.92,0.0
8.306,0.682,-0.926,0.0
10.426,0.851,-0.87,0.0
9.953,0.811,-0.887,0.0
9.485,0.772,-0.899,0.0
9.03,0.734,-0.909,0.0
8.619,0.7,-0.917,0.0
8.3,0.673,-0.93,0.0
10.345,0.834,-0.869,0.0
9.924,0.799,-0.89,0.0
9.514,0.765,-0.907,0.0
8.981,0.721,-0.909,0.0
8.606,0.69,-0.92,0.0
8.255,0.661,-0.93,0.0
10.316,0.821,-0.872,0.0
9.888,0.786,-0.892,0.0
9.407,0.747,-0.902,0.0
9.014,0.714,-0.917,0.0
8.572,0.678,-0.921,0.0
8.17,0.646,-0.925,0.0
10.306,0.81,-0.876,0.0
9.826,0.771,-0.891,0.0
9.363,0.733,-0.903,0.0
8.912,0.697,-0.911,0.0
0.0,0.0,0.0,0.0
8.147,0.635,-0.926,0.0
10.262,0.796,-0.877,0.0
9.764,0.755,-0.89,0.0
0.0,0.0,0.0,0.0
8.921,0.688,-0.916,0.0
8.527,0.657,-0.924,0.0
8.102,0.623,-0.924,0.0
10.245,0.783,-0.88,0.0
9.745,0.744,-0.892,0.0
0.0,0.0,0.0,0.0
8.87,0.674,-0.914,0.0
0.0,0.0,0.0,0.0
8.157,0.618,-0.934,0.0
10.214,0.769,-0.881,0.0
9.672,0.727,-0.889,0.0
9.244,0.694,-0.903,0.0
8.855,0.663,-0.916,0.0
0.0,0.0,0.0,0.0
8.132,0.607,-0.934,0.0
10.208,0.757,-0.884,0.0
9.723,0.72,-0.897,0.0
9.191,0.679,-0.9,0.0
8.893,0.656,-0.923,0.0
0.0,0.0,0.0,0.0
8.131,0.597,-0.936,0.0
10.159,0.742,-0.883,0.0
9.649,0.703,-0.893,0.0
9.22,0.67,-0.906,0.0
8.757,0.636,-0.911,0.0
0.0,0.0,0.0,0.0
8.061,0.583,-0.93,0.0
10.131,0.728,-0.883,0.0
9.651,0.692,-0.896,0.0
9.209,0.659,-0.907,0.0
8.838,0.631,-0.922,0.0
8.468,0.603,-0.931,0.0
8.052,0.573,-0.931,0.0
10.117,0.715,-0.884,0.0
9.649,0.68,-0.898,0.0
9.18,0.646,-0.906,0.0
8.785,0.617,-0.918,0.0
8.412,0.589,-0.927,0.0
8.054,0.563,-0.933,0.0
10.106,0.702,-0.885,0.0
9.612,0.666,-0.896,0.0
9.1,0.629,-0.9,0.0
8.713,0.601,-0.912,0.0
8.362,0.576,-0.922,0.0
8.021,0.551,-0.93,0.0
10.096,0.689,-0.886,0.0
9.666,0.658,-0.902,0.0
9.124,0.62,-0.903,0.0
8.7,0.589,-0.911,0.0
8.364,0.565,-0.924,0.0
8.033,0.542,-0.932,0.0
10.079,0.675,-0.885,0.0
9.611,0.642,-0.898,0.0
9.129,0.608,-0.904,0.0
8.739,0.581,-0.916,0.0
8.37,0.555,-0.925,0.0
8.045,0.532,-0.934,0.0
10.079,0.662,-0.885,0.0
9.592,0.629,-0.897,0.0
9.156,0.598,-0.907,0.0
8.727,0.569,-0.915,0.0
8.381,0.545,-0.926,0.0
8.048,0.522,-0.935,0.0
10.078,0.649,-0.885,0.0
9.593,0.616,-0.897,0.0
9.126,0.585,-0.904,0.0
8.779,0.561,-0.92,0.0
8.373,0.534,-0.925,0.0
8.024,0.51,-0.932,0.0
10.079,0.637,-0.885,0.0
9.608,0.605,-0.898,0.0
9.134,0.574,-0.905,0.0
8.764,0.549,-0.918,0.0
8.398,0.524,-0.927,0.0
8.054,0.502,-0.935,0.0
10.06,0.622,-0.883,0.0
9.618,0.593,-0.898,0.0
9.182,0.565,-0.908,0.0
8.751,0.537,-0.916,0.0
8.364,0.511,-0.922,0.0
8.06,0.491,-0.934,0.0
10.111,0.612,-0.886,0.0
9.617,0.581,-0.896,0.0
9.216,0.555,-0.91,0.0
8.778,0.527,-0.917,0.0
8.449,0.505,-0.93,0.0
8.06,0.481,-0.933,0.0
10.114,0.599,-0.884,0.0
9.671,0.571,-0.9,0.0
9.149,0.539,-0.902,0.0
8.748,0.513,-0.912,0.0
8.401,0.491,-0.923,0.0
8.064,0.47,-0.932,0.0
10.145,0.588,-0.885,0.0
9.648,0.557,-0.895,0.0
9.19,0.529,-0.904,0.0
8.827,0.506,-0.919,0.0
8.45,0.483,-0.927,0.0
8.064,0.459,-0.93,0.0
10.154,0.575,-0.883,0.0
9.709,0.548,-0.898,0.0
9.239,0.519,-0.906,0.0
8.824,0.494,-0.916,0.0
8.499,0.474,-0.93,0.0
8.118,0.452,-0.933,0.0
10.203,0.564,-0.884,0.0
9.733,0.536,-0.898,0.0
9.202,0.505,-0.9,0.0
8.849,0.484,-0.915,0.0
8.488,0.462,-0.926,0.0
8.094,0.439,-0.928,0.0
10.185,0.549,-0.879,0.0
9.764,0.524,-0.897,0.0
9.234,0.494,-0.9,0.0
8.917,0.475,-0.919,0.0
8.502,0.452,-0.924,0.0
8.173,0.433,-0.934,0.0
10.245,0.539,-0.88,0.0
9.772,0.512,-0.894,0.0
9.362,0.488,-0.908,0.0
8.935,0.464,-0.917,0.0
8.505,0.44,-0.92,0.0
8.189,0.422,-0.932,0.0
10.279,0.527,-0.879,0.0
9.795,0.5,-0.891,0.0
9.355,0.475,-0.903,0.0
8.935,0.452,-0.913,0.0
8.588,0.433,-0.925,0.0
8.212,0.412,-0.931,0.0
10.335,0.515,-0.878,0.0
9.867,0.49,-0.893,0.0
9.351,0.462,-0.898,0.0
8.972,0.442,-0.912,0.0
8.614,0.423,-0.924,0.0
8.248,0.403,-0.93,0.0
10.413,0.505,-0.88,0.0
9.923,0.479,-0.893,0.0
9.458,0.455,-0.903,0.0
9.1,0.436,-0.92,0.0
8.643,0.412,-0.922,0.0
8.292,0.394,-0.931,0.0
10.473,0.494,-0.879,0.0
9.96,0.468,-0.89,0.0
9.465,0.442,-0.898,0.0
0.0,0.0,0.0,0.0
8.667,0.402,-0.919,0.0
8.341,0.385,-0.931,0.0
10.505,0.481,-0.875,0.0
10.0,0.456,-0.888,0.0
9.554,0.434,-0.901,0.0
9.12,0.412,-0.911,0.0
8.789,0.395,-0.926,0.0
8.335,0.373,-0.925,0.0
10.561,0.469,-0.872,0.0
10.088,0.446,-0.889,0.0
9.623,0.424,-0.901,0.0
9.23,0.404,-0.916,0.0
8.789,0.383,-0.92,0.0
8.41,0.365,-0.927,0.0
10.64,0.459,-0.871,0.0
10.125,0.434,-0.885,0.0
9.729,0.415,-0.904,0.0
9.307,0.395,-0.917,0.0
8.832,0.373,-0.918,0.0
8.467,0.356,-0.927,0.0
10.714,0.447,-0.869,0.0
10.191,0.423,-0.883,0.0
9.764,0.403,-0.899,0.0
9.321,0.383,-0.911,0.0
8.883,0.363,-0.917,0.0
8.494,0.346,-0.923,0.0
10.874,0.439,-0.874,0.0
10.273,0.413,-0.882,0.0
9.831,0.393,-0.898,0.0
9.382,0.373,-0.909,0.0
8.985,0.355,-0.92,0.0
8.578,0.337,-0.925,0.0
10.966,0.429,-0.872,0.0
10.34,0.402,-0.879,0.0
9.868,0.381,-0.892,0.0
9.424,0.362,-0.905,0.0
9.045,0.346,-0.918,0.0
8.628,0.328,-0.923,0.0
11.031,0.416,-0.868,1.0
10.422,0.391,-0.876,0.0
9.94,0.371,-0.89,0.0
9.533,0.354,-0.907,0.0
9.1,0.336,-0.915,0.0
8.721,0.32,-0.925,0.0
11.146,0.406,-0.866,0.0
10.534,0.382,-0.876,0.0
10.029,0.361,-0.889,0.0
9.563,0.342,-0.9,0.0
9.13,0.325,-0.91,0.0
8.787,0.311,-0.923,0.0
11.242,0.395,-0.863,0.0
10.685,0.373,-0.878,0.0
10.119,0.351,-0.887,0.0
9.696,0.334,-0.903,0.0
9.265,0.318,-0.914,0.0
8.874,0.302,-0.924,0.0
11.355,0.384,-0.86,0.0
10.795,0.363,-0.876,0.0
10.194,0.341,-0.883,0.0
9.779,0.324,-0.901,0.0
9.283,0.306,-0.906,0.0
8.897,0.291,-0.917,0.0
11.418,0.372,-0.853,0.0
10.906,0.353,-0.874,0.0
10.294,0.331,-0.881,0.0
9.868,0.315,-0.899,0.0
9.365,0.297,-0.904,0.0
8.982,0.283,-0.916,0.0
11.531,0.361,-0.849,0.0
11.004,0.342,-0.87,0.0
10.421,0.322,-0.88,0.0
9.952,0.305,-0.895,0.0
9.51,0.289,-0.907,0.0
9.098,0.275,-0.917,0.0
11.729,0.352,-0.85,0.0
11.144,0.332,-0.868,1.0
10.504,0.311,-0.875,0.0
10.028,0.295,-0.89,0.0
9.572,0.279,-0.902,0.0
9.176,0.266,-0.914,0.0
11.875,0.342,-0.847,0.0
11.278,0.322,-0.865,0.0
10.679,0.303,-0.877,0.0
10.14,0.285,-0.888,0.0
9.71,0.271,-0.903,0.0
9.277,0.257,-0.913,0.0
12.111,0.334,-0.849,0.0
11.385,0.311,-0.86,0.0
10.805,0.293,-0.874,0.0
10.224,0.275,-0.883,0.0
9.796,0.262,-0.899,0.0
9.354,0.248,-0.909,0.0
12.316,0.324,-0.849,0.0
11.464,0.3,-0.851,0.0
10.96,0.284,-0.873,0.0
10.337,0.266,-0.88,0.0
9.936,0.253,-0.899,0.0
9.429,0.238,-0.904,0.0
12.493,0.314,-0.845,0.0
11.669,0.291,-0.851,0.0
11.114,0.275,-0.87,0.0
10.472,0.257,-0.877,0.0
10.044,0.244,-0.895,0.0
9.541,0.23,-0.902,0.0
12.802,0.307,-0.849,0.0
11.83,0.281,-0.847,0.0
11.249,0.265,-0.866,1.0
10.651,0.248,-0.878,0.0
10.153,0.235,-0.891,0.0
9.741,0.223,-0.907,0.0
13.08,0.298,-0.849,0.0
12.087,0.273,-0.849,0.0
11.384,0.255,-0.861,1.0
10.786,0.239,-0.874,0.0
10.274,0.226,-0.888,0.0
9.804,0.214,-0.9,0.0
13.346,0.289,-0.848,0.0
12.345,0.265,-0.85,0.0
11.494,0.244,-0.853,0.0
10.989,0.231,-0.875,0.0
10.373,0.216,-0.881,0.0
9.927,0.205,-0.897,0.0
13.569,0.279,-0.843,0.0
12.528,0.255,-0.845,0.0
11.708,0.236,-0.851,0.0
11.175,0.223,-0.874,0.0
10.538,0.208,-0.88,0.0
10.06,0.197,-0.894,0.0
13.853,0.269,-0.84,0.0
12.881,0.248,-0.849,0.0
11.885,0.226,-0.847,0.0
11.304,0.213,-0.867,1.0
10.689,0.199,-0.877,0.0
10.23,0.189,-0.893,0.0
13.957,0.256,-0.825,0.0
13.204,0.24,-0.851,0.0
12.191,0.219,-0.85,0.0
11.434,0.203,-0.859,0.0
10.878,0.191,-0.875,0.0
10.309,0.179,-0.884,0.0
14.357,0.248,-0.827,0.0
13.43,0.23,-0.844,0.0
12.464,0.211,-0.85,0.0
11.6,0.194,-0.854,0.0
11.1,0.184,-0.876,0.0
10.448,0.171,-0.88,0.0
14.696,0.239,-0.823,0.0
13.711,0.22,-0.84,0.0
12.638,0.201,-0.842,0.0
11.822,0.186,-0.851,0.0
11.247,0.175,-0.869,0.0
10.652,0.163,-0.88,0.0
14.982,0.229,-0.815,0.0
13.945,0.21,-0.832,0.0
13.155,0.196,-0.855,0.0
12.123,0.178,-0.853,0.0
11.395,0.166,-0.862,0.0
10.826,0.155,-0.876,0.0
15.355,0.219,-0.81,0.0
14.296,0.202,-0.83,0.0
13.417,0.187,-0.849,0.0
12.387,0.17,-0.851,0.0
11.584,0.157,-0.857,0.0
11.066,0.148,-0.877,0.0
15.879,0.212,-0.811,0.0
14.685,0.193,-0.828,0.0
13.643,0.177,-0.841,0.0
12.569,0.161,-0.842,0.0
11.802,0.149,-0.853,0.0
11.26,0.14,-0.873,0.0
16.179,0.201,-0.799,0.0
15.023,0.184,-0.821,0.0
13.982,0.169,-0.838,0.0
13.031,0.155,-0.851,0.0
12.104,0.142,-0.854,0.0
11.4,0.132,-0.864,0.0
16.653,0.192,-0.794,0.0
15.33,0.174,-0.811,0.0
14.255,0.159,-0.829,0.0
13.318,0.146,-0.846,0.0
12.411,0.134,-0.854,0.0
11.587,0.124,-0.858,0.0
17.113,0.182,-0.786,0.0
15.784,0.165,-0.808,0.0
14.65,0.151,-0.826,0.0
13.72,0.139,-0.847,0.0
12.788,0.128,-0.857,0.0
11.807,0.116,-0.853,0.0
17.646,0.173,-0.779,0.0
16.169,0.156,-0.799,0.0
15.027,0.142,-0.821,0.0
13.906,0.13,-0.834,0.0
13.059,0.12,-0.851,0.0
12.143,0.109,-0.856,0.0
18.018,0.162,-0.763,0.0
16.77,0.148,-0.798,0.0
15.365,0.133,-0.811,0.0
14.33,0.122,-0.833,0.0
13.385,0.112,-0.848,0.0
12.448,0.102,-0.854,0.0
18.754,0.154,-0.76,0.0
17.096,0.138,-0.782,0.0
15.836,0.125,-0.807,0.0
14.615,0.113,-0.823,0.0
13.759,0.105,-0.847,0.0
12.847,0.096,-0.857,0.0
19.437,0.145,-0.752,0.0
17.675,0.129,-0.776,0.0
16.298,0.117,-0.8,0.0
15.089,0.106,-0.821,0.0
14.032,0.097,-0.837,0.0
13.144,0.089,-0.853,0.0
20.08,0.135,-0.739,0.0
18.335,0.121,-0.77,0.0
16.787,0.108,-0.793,0.0
15.465,0.098,-0.812,0.0
14.345,0.089,-0.828,0.0
13.407,0.081,-0.844,0.0
20.932,0.127,-0.731,0.0
18.966,0.112,-0.76,0.0
17.246,0.1,-0.781,0.0
15.972,0.09,-0.808,0.0
14.775,0.082,-0.825,0.0
13.728,0.074,-0.838,0.0
21.775,0.117,-0.718,0.0
19.536,0.103,-0.746,0.0
18.008,0.093,-0.781,0.0
16.506,0.083,-0.803,0.0
15.163,0.074,-0.817,0.0
14.144,0.068,-0.836,0.0
22.772,0.109,-0.707,0.0
20.422,0.095,-0.74,0.0
18.519,0.084,-0.767,0.0
16.91,0.075,-0.79,0.0
15.793,0.068,-0.82,0.0
14.555,0.061,-0.831,0.0
0.0,0.0,0.0,0.0
21.211,0.086,-0.726,0.0
19.285,0.076,-0.76,0.0
17.568,0.068,-0.786,0.0
16.217,0.061,-0.809,0.0
14.946,0.054,-0.824,0.0
24.779,0.09,-0.671,0.0
22.292,0.079,-0.719,0.0
19.807,0.068,-0.742,0.0
18.113,0.06,-0.774,0.0
16.734,0.054,-0.802,0.0
15.458,0.048,-0.821,0.0
26.244,0.082,-0.658,0.0
23.246,0.07,-0.703,0.0
20.798,0.06,-0.736,0.0
18.716,0.052,-0.761,0.0
17.315,0.047,-0.794,0.0
15.911,0.042,-0.812,0.0
27.698,0.073,-0.638,0.0
24.274,0.061,-0.685,0.0
21.673,0.053,-0.724,0.0
19.524,0.046,-0.755,0.0
17.862,0.04,-0.783,0.0
16.478,0.036,-0.808,0.0
29.125,0.063,-0.612,0.0
25.65,0.053,-0.671,0.0
22.716,0.045,-0.712,0.0
20.37,0.039,-0.746,0.0
18.481,0.034,-0.772,0.0
16.905,0.029,-0.794,0.0
31.145,0.055,-0.591,0.0
26.98,0.045,-0.651,0.0
23.542,0.038,-0.69,0.0
21.154,0.032,-0.731,0.0
19.143,0.028,-0.761,0.0
17.559,0.024,-0.788,0.0
0.0,0.0,0.0,0.0
28.647,0.037,-0.632,0.0
25.121,0.031,-0.684,0.0
21.93,0.025,-0.713,0.0
19.968,0.022,-0.752,0.0
18.159,0.018,-0.778,0.0
0.0,0.0,0.0,0.0
0.0,0.0,0.0,0.0
26.556,0.024,-0.668,0.0
23.022,0.019,-0.7,0.0
20.891,0.016,-0.743,0.0
18.846,0.013,-0.768,0.0
38.154,0.028,-0.487,0.0
32.265,0.022,-0.578,0.0
27.722,0.017,-0.64,0.0
0.0,0.0,0.0,0.0
21.57,0.011,-0.722,0.0
19.622,0.009,-0.758,0.0
44.802,0.021,-0.478,0.0
35.31,0.014,-0.558,0.0
29.303,0.01,-0.614,0.0
25.461,0.008,-0.667,0.0
22.72,0.006,-0.712,0.0
20.321,0.004,-0.742,0.0
45.296,0.01,-0.387,2.0
0.0,0.0,0.0,0.0
31.557,0.004,-0.594,0.0
26.872,0.002,-0.647,0.0
23.773,0.001,-0.695,0.0
21.366,0.0,-0.735,0.0
0.0,0.0,0.0,0.0
40.684,0.0,-0.471,0.0
32.81,-0.001,-0.549,0.0
0.0,0.0,0.0,0.0
25.05,-0.002,-0.68,0.0
22.346,-0.003,-0.721,0.0
54.529,-0.006,-0.236,0.0
44.91,-0.006,-0.425,2.0
37.354,-0.006,-0.545,0.0
30.703,-0.006,-0.609,0.0
26.7,-0.006,-0.668,0.0
23.433,-0.006,-0.707,0.0
0.0,0.0,0.0,0.0
0.0,0.0,0.0,0.0
39.392,-0.011,-0.491,0.0
32.343,-0.01,-0.574,0.0
28.209,-0.009,-0.645,0.0
0.0,0.0,0.0,0.0
0.0,0.0,0.0,0.0
0.0,0.0,0.0,0.0
44.685,-0.016,-0.463,1.0
0.0,0.0,0.0,0.0
29.894,-0.011,-0.621,0.0
25.899,-0.01,-0.671,0.0
0.0,0.0,0.0,0.0
0.0,0.0,0.0,0.0
45.421,-0.018,-0.375,0.0
0.0,0.0,0.0,0.0
31.712,-0.013,-0.59,0.0
27.822,-0.011,-0.661,0.0
98.155,-0.038,0.409,1.0
0.0,0.0,0.0,0.0
0.0,0.0,0.0,0.0
0.0,0.0,0.0,0.0
0.0,0.0,0.0,0.0
0.0,0.0,0.0,0.0
110.778,-0.041,0.698,11.0
0.0,0.0,0.0,0.0
0.0,0.0,0.0,0.0
44.911,-0.015,-0.413,2.0
37.287,-0.012,-0.535,0.0
31.26,-0.01,-0.609,0.0
117.226,-0.036,0.989,7.0
97.586,-0.029,0.323,1.0
0.0,0.0,0.0,0.0
0.0,0.0,0.0,0.0
0.0,0.0,0.0,0.0
0.0,0.0,0.0,0.0
117.294,-0.024,1.24,11.0
110.557,-0.021,0.601,7.0
46.154,-0.007,0.014,1.0
0.0,0.0,0.0,0.0
44.762,-0.005,-0.451,1.0
0.0,0.0,0.0,0.0
111.093,-0.008,1.414,11.0
111.17,-0.005,0.843,10.0
95.645,-0.001,0.234,1.0
0.0,0.0,0.0,0.0
0.0,0.0,0.0,0.0
40.337,0.002,-0.527,0.0
111.149,0.011,1.653,9.0
117.268,0.015,1.141,10.0
110.324,0.018,0.505,2.0
0.0,0.0,0.0,0.0
55.097,0.013,-0.318,0.0
44.745,0.012,-0.489,0.0
112.745,0.035,1.918,7.0
111.12,0.039,1.32,16.0
110.766,0.043,0.747,10.0
0.0,0.0,0.0,0.0
0.0,0.0,0.0,0.0
45.612,0.024,-0.401,1.0
113.068,0.063,2.165,4.0
111.137,0.067,1.557,12.0
111.131,0.073,0.984,7.0
95.709,0.067,0.344,5.0
0.0,0.0,0.0,0.0
0.0,0.0,0.0,0.0
113.889,0.096,2.422,9.0
112.415,0.101,1.812,8.0
111.16,0.106,1.22,18.0
110.497,0.111,0.631,6.0
0.0,0.0,0.0,0.0
0.0,0.0,0.0,0.0
114.07,0.133,2.67,10.0
112.55,0.138,2.053,10.0
111.13,0.144,1.456,17.0
111.099,0.151,0.873,7.0
94.651,0.134,0.256,1.0
0.0,0.0,0.0,0.0
117.493,0.179,2.998,14.0
112.631,0.18,2.295,8.0
111.134,0.185,1.69,8.0
111.142,0.193,1.106,18.0
103.581,0.187,0.497,1.0
0.0,0.0,0.0,0.0
70.137,0.135,1.937,18.0
112.928,0.225,2.537,6.0
117.542,0.244,2.034,2.0
111.11,0.239,1.338,21.0
110.829,0.247,0.764,8.0
92.875,0.215,0.163,2.0
69.952,0.165,2.078,29.0
119.837,0.292,2.942,11.0
119.858,0.302,2.324,27.0
119.805,0.312,1.692,13.0
111.122,0.299,0.996,14.0
94.641,0.263,0.36,2.0
69.788,0.197,2.218,37.0
119.877,0.349,3.192,12.0
119.892,0.359,2.573,6.0
193.537,0.599,3.135,10.0
119.709,0.381,1.322,12.0
110.711,0.363,0.651,4.0
69.906,0.232,2.366,28.0
70.103,0.239,2.011,16.0
119.868,0.421,2.82,13.0
119.88,0.433,2.187,150.0
119.848,0.445,1.569,20.0
111.004,0.423,0.878,14.0
70.24,0.271,2.521,21.0
70.018,0.277,2.152,35.0
119.804,0.487,3.061,21.0
119.853,0.5,2.432,12.0
111.203,0.475,1.681,10.0
111.104,0.487,1.107,23.0
70.179,0.311,2.663,10.0
69.871,0.317,2.29,18.0
70.007,0.325,1.932,1.0
111.134,0.529,2.48,9.0
111.121,0.541,1.905,22.0
111.094,0.554,1.329,29.0
70.251,0.354,2.808,6.0
69.818,0.36,2.429,25.0
111.094,0.585,3.29,19.0
111.105,0.599,2.705,22.0
111.045,0.612,2.13,25.0
111.098,0.626,1.555,29.0
70.29,0.4,2.953,4.0
69.951,0.407,2.576,17.0
69.921,0.415,2.212,9.0
111.045,0.673,2.927,26.0
111.06,0.687,2.353,29.0
111.083,0.701,1.778,31.0
70.301,0.448,3.094,2.0
70.071,0.455,2.72,12.0
69.865,0.463,2.35,14.0
111.045,0.75,3.147,27.0
111.08,0.764,2.572,25.0
111.102,0.78,1.997,16.0
70.366,0.498,3.236,8.0
104.79,0.756,4.275,17.0
104.756,0.77,3.73,13.0
104.757,0.784,3.176,22.0
104.791,0.799,2.632,30.0
104.778,0.813,2.089,12.0
80.755,0.632,3.874,3.0
70.034,0.558,2.995,23.0
69.906,0.567,2.626,7.0
104.638,0.864,3.377,28.0
104.736,0.88,2.836,30.0
0.0,0.0,0.0,0.0
78.666,0.678,3.927,8.0
97.625,0.855,4.364,2.0
97.903,0.872,3.868,14.0
69.765,0.631,2.385,11.0
104.707,0.962,3.035,41.0
104.714,0.978,2.491,28.0
70.471,0.664,3.652,3.0
80.624,0.771,3.757,20.0
97.848,0.951,4.051,12.0
104.54,1.032,3.772,28.0
69.874,0.7,2.157,10.0
98.768,1.005,2.536,20.0
81.335,0.834,4.368,8.0
78.719,0.819,3.817,10.0
70.132,0.741,3.035,8.0
98.065,1.052,3.723,19.0
98.728,1.074,3.233,15.0
98.679,1.09,2.718,23.0
78.591,0.876,4.371,3.0
70.475,0.796,3.551,5.0
98.596,1.129,4.451,25.0
98.635,1.145,3.928,21.0
69.884,0.823,2.418,9.0
98.67,1.179,2.9,23.0
80.032,0.963,4.598,4.0
70.531,0.861,3.684,10.0
78.74,0.974,3.701,9.0
98.638,1.237,4.109,19.0
69.921,0.888,2.548,8.0
98.461,1.268,3.074,27.0
78.342,1.017,4.646,6.0
70.542,0.927,3.813,9.0
78.734,1.048,3.843,5.0
98.19,1.324,4.269,28.0
98.3,1.343,3.759,22.0
98.411,1.361,3.249,19.0
80.264,1.119,4.904,13.0
80.388,1.134,4.489,6.0
98.029,1.4,4.96,11.0
78.762,1.139,3.564,14.0
98.255,1.439,3.932,20.0
69.885,1.035,2.43,5.0
74.365,1.11,4.676,12.0
78.453,1.185,4.521,4.0
85.556,1.308,4.479,4.0
98.081,1.517,4.611,7.0
120.568,1.888,5.036,15.0
69.862,1.107,2.552,5.0
74.302,1.185,4.802,10.0
74.252,1.198,4.407,4.0
91.406,1.491,4.944,16.0
85.58,1.411,4.17,12.0
78.717,1.313,3.422,16.0
120.539,2.033,4.606,11.0
41.444,0.704,2.749,4.0
74.288,1.276,4.536,6.0
92.333,1.603,5.15,5.0
91.462,1.604,4.61,16.0
92.102,1.633,4.158,22.0
91.873,1.647,3.664,4.0
67.898,1.225,4.617,3.0
74.229,1.354,4.655,7.0
79.963,1.474,4.593,7.0
91.465,1.703,4.762,10.0
85.478,1.609,4.001,14.0
78.756,1.497,3.271,18.0
68.025,1.302,4.738,13.0
74.453,1.439,4.791,1.0
70.66,1.38,4.174,5.0
82.035,1.619,4.405,8.0
85.402,1.702,4.135,24.0
85.421,1.719,3.686,22.0
40.971,0.83,2.92,31.0
41.417,0.847,2.733,5.0
74.805,1.545,4.539,9.0
80.905,1.688,4.474,9.0
85.202,1.794,4.261,18.0
85.33,1.815,3.818,30.0
41.037,0.879,2.991,45.0
41.358,0.894,2.795,23.0
83.773,1.829,5.218,2.0
80.959,1.783,4.605,5.0
85.316,1.897,4.401,22.0
85.314,1.915,3.95,31.0
40.93,0.925,3.047,40.0
41.249,0.94,2.852,16.0
78.917,1.815,5.037,12.0
83.089,1.929,4.854,3.0
83.033,1.945,4.412,11.0
85.406,2.018,4.084,26.0
40.733,0.969,3.095,38.0
41.141,0.987,2.907,16.0
70.693,1.711,4.619,7.0
78.827,1.924,4.723,6.0
80.951,1.993,4.421,11.0
82.081,2.038,4.047,1.0
40.759,1.019,3.158,34.0
40.996,1.033,2.958,13.0
70.722,1.798,4.726,6.0
72.003,1.846,4.42,38.0
78.804,2.037,4.419,18.0
78.823,2.055,4.002,22.0
40.785,1.07,3.22,44.0
40.845,1.081,3.006,45.0
65.252,1.741,4.455,16.0
70.803,1.904,4.45,20.0
73.211,1.984,4.211,9.0
78.818,2.153,4.114,23.0
40.785,1.122,3.278,39.0
40.885,1.133,3.068,45.0
70.844,1.979,4.937,5.0
78.343,2.206,5.033,12.0
72.056,2.045,4.245,17.0
79.49,2.273,4.26,8.0
40.715,1.172,3.33,38.0
40.848,1.185,3.122,25.0
41.092,1.201,2.921,16.0
65.432,1.927,4.294,24.0
70.845,2.102,4.271,8.0
72.82,2.177,4.001,5.0
40.598,1.222,3.376,38.0
40.861,1.238,3.178,31.0
45.125,1.378,3.267,7.0
78.156,2.404,5.233,5.0
65.571,2.031,4.039,2.0
72.171,2.251,4.059,26.0
40.534,1.273,3.424,38.0
40.776,1.29,3.225,41.0
45.11,1.437,3.325,2.0
66.614,2.137,4.547,16.0
65.585,2.118,4.124,27.0
72.478,2.358,4.17,8.0
40.37,1.322,3.462,46.0
40.732,1.343,3.273,33.0
59.579,1.977,4.467,19.0
66.565,2.224,4.626,18.0
66.275,2.229,4.25,15.0
72.316,2.449,4.25,32.0
40.343,1.375,3.509,48.0
40.77,1.399,3.326,40.0
40.768,1.408,3.106,37.0
44.925,1.561,3.177,27.0
66.493,2.326,4.344,14.0
65.982,2.323,3.956,24.0
40.59,1.439,3.58,36.0
40.498,1.445,3.353,47.0
40.616,1.458,3.143,40.0
40.663,1.469,2.923,36.0
44.728,1.626,2.974,27.0
65.765,2.406,4.02,20.0
40.425,1.489,3.613,43.0
40.484,1.5,3.399,47.0
40.519,1.511,3.182,40.0
40.647,1.525,2.969,38.0
40.886,1.543,2.766,41.0
80.367,3.052,5.003,8.0
40.276,1.54,3.645,40.0
40.715,1.566,3.463,34.0
40.429,1.563,3.22,45.0
40.582,1.578,3.008,38.0
41.125,1.609,2.826,41.0
44.85,1.765,2.84,12.0
40.358,1.599,3.696,46.0
40.401,1.61,3.48,37.0
40.409,1.619,3.261,42.0
40.654,1.638,3.056,44.0
44.685,1.81,3.117,4.0
41.066,1.673,2.643,23.0
40.578,1.665,3.758,28.0
40.459,1.669,3.526,24.0
40.322,1.672,3.295,39.0
40.562,1.691,3.09,46.0
40.803,1.711,2.887,41.0
40.984,1.728,2.678,43.0
40.944,1.739,3.833,16.0
40.42,1.725,3.563,38.0
40.299,1.729,3.333,37.0
40.461,1.745,3.122,37.0
40.54,1.757,2.908,45.0
41.199,1.795,2.731,30.0
40.589,1.781,3.838,36.0
40.45,1.784,3.604,39.0
40.433,1.793,3.382,36.0
40.379,1.799,3.153,36.0
40.585,1.818,2.949,44.0
41.051,1.848,2.759,39.0
40.686,1.845,3.885,42.0
40.324,1.837,3.63,40.0
40.691,1.862,3.44,15.0
40.38,1.857,3.19,39.0
40.557,1.875,2.983,53.0
40.843,1.898,2.781,45.0
40.733,1.905,3.925,44.0
40.369,1.897,3.669,41.0
40.357,1.906,3.447,24.0
40.588,1.926,3.24,39.0
40.517,1.932,3.014,35.0
40.732,1.951,2.807,36.0
40.95,1.975,3.98,45.0
40.399,1.957,3.705,44.0
40.218,1.957,3.468,41.0
40.3,1.97,3.25,39.0
40.505,1.989,3.045,43.0
40.771,2.012,2.842,38.0
40.762,2.025,3.994,46.0
40.554,2.024,3.75,46.0
40.681,2.039,3.539,28.0
40.289,2.028,3.279,35.0
40.524,2.049,3.076,30.0
40.759,2.07,2.871,39.0
40.853,2.089,4.033,42.0
40.604,2.085,3.785,41.0
40.542,2.091,3.556,49.0
40.358,2.09,3.314,43.0
40.453,2.104,3.1,36.0
40.828,2.133,2.905,44.0
40.881,2.151,4.065,30.0
40.695,2.149,3.822,33.0
41.363,2.193,3.656,28.0
40.546,2.158,3.357,36.0
40.336,2.156,3.117,42.0
40.755,2.188,2.926,48.0
45.812,2.476,4.585,20.0
40.938,2.222,3.871,37.0
41.057,2.237,3.655,42.0
40.503,2.215,3.378,34.0
40.527,2.225,3.157,41.0
40.883,2.254,2.96,37.0
45.975,2.552,4.629,3.0
41.146,2.293,3.915,27.0
41.275,2.308,3.699,39.0
40.418,2.269,3.395,38.0
40.538,2.285,3.182,41.0
41.272,2.335,3.012,42.0
45.4,2.586,4.597,19.0
45.498,2.602,4.355,7.0
41.372,2.374,3.731,46.0
40.447,2.33,3.42,40.0
40.654,2.35,3.212,32.0
41.332,2.399,3.038,22.0
48.241,2.819,4.911,1.0
44.756,2.624,4.307,9.0
41.378,2.435,3.752,48.0
40.483,2.391,3.443,41.0
40.762,2.416,3.241,16.0
41.285,2.456,3.054,41.0
40.811,2.444,4.174,6.0
44.734,2.688,4.326,32.0
41.453,2.5,3.778,16.0
40.797,2.468,3.488,46.0
41.232,2.503,3.297,25.0
41.265,2.514,3.071,42.0
52.323,3.209,5.374,11.0
45.29,2.787,4.399,26.0
45.531,2.811,4.169,8.0
41.605,2.577,3.574,40.0
41.443,2.576,3.33,32.0
41.486,2.587,3.104,28.0
52.288,3.283,5.391,36.0
52.302,3.294,5.1,15.0
45.474,2.873,4.181,4.0
42.058,2.666,3.629,31.0
41.889,2.664,3.381,6.0
41.859,2.671,3.146,19.0
52.282,3.358,5.408,29.0
52.33,3.372,5.121,13.0
42.392,2.74,3.912,17.0
41.918,2.718,3.63,17.0
0.0,0.0,0.0,0.0
51.287,3.345,3.871,21.0
58.637,3.851,6.083,6.0
61.255,4.034,6.012,17.0
42.028,2.776,3.89,19.0
41.816,2.77,3.633,40.0
41.997,2.79,3.414,25.0
41.986,2.798,3.18,16.0
46.524,3.121,4.838,8.0
42.036,2.827,4.136,16.0
42.04,2.836,3.901,35.0
41.821,2.829,3.643,37.0
41.814,2.837,3.409,21.0
41.884,2.85,3.182,25.0
46.474,3.183,4.843,12.0
41.951,2.881,4.136,39.0
42.021,2.894,3.908,40.0
41.669,2.878,3.638,38.0
41.68,2.887,3.406,16.0
41.833,2.905,3.185,32.0
53.063,3.709,5.539,8.0
41.795,2.929,4.128,16.0
0.0,0.0,0.0,0.0
41.342,2.913,3.615,38.0
41.669,2.944,3.411,32.0
41.717,2.955,3.182,31.0
53.051,3.783,5.544,9.0
41.703,2.981,4.124,37.0
41.429,2.969,3.864,18.0
41.46,2.979,3.63,38.0
41.416,2.984,3.394,41.0
41.56,3.002,3.173,39.0
46.025,3.346,4.814,11.0
46.085,3.358,4.561,5.0
41.291,3.016,3.854,24.0
41.285,3.023,3.617,36.0
41.439,3.041,3.398,34.0
41.597,3.061,3.178,39.0
46.012,3.407,4.814,23.0
46.014,3.415,4.555,12.0
41.284,3.071,3.854,40.0
41.482,3.093,3.635,29.0
41.472,3.1,3.401,33.0
41.546,3.113,3.174,35.0
62.776,4.734,6.568,12.0
41.092,3.105,4.067,30.0
41.231,3.122,3.848,42.0
41.238,3.13,3.612,39.0
41.482,3.156,3.401,23.0
41.596,3.172,3.177,26.0
41.241,3.165,4.313,3.0
41.103,3.161,4.066,41.0
41.124,3.169,3.836,31.0
41.222,3.184,3.608,38.0
41.484,3.211,3.398,43.0
41.586,3.226,3.172,34.0
45.291,3.536,4.732,6.0
41.127,3.217,4.064,22.0
41.189,3.229,3.838,16.0
41.303,3.245,3.61,41.0
41.542,3.27,3.397,31.0
41.582,3.28,3.167,36.0
45.28,3.594,4.725,6.0
41.183,3.275,4.064,29.0
41.155,3.279,3.828,37.0
41.256,3.294,3.6,42.0
41.549,3.324,3.392,37.0
41.674,3.341,3.167,33.0
45.296,3.654,4.719,23.0
41.19,3.328,4.057,39.0
41.611,3.369,3.863,51.0
41.307,3.351,3.596,37.0
45.532,3.701,3.707,10.0
41.521,3.381,3.146,38.0
41.151,3.372,4.278,31.0
41.25,3.386,4.054,9.0
42.007,3.454,3.89,18.0
41.258,3.399,3.582,35.0
41.376,3.414,3.359,29.0
41.418,3.424,3.129,40.0
48.03,3.995,4.98,7.0
42.315,3.525,4.147,3.0
47.859,3.995,4.419,5.0
41.312,3.454,3.576,28.0
41.36,3.464,3.346,16.0
41.439,3.477,3.118,32.0
58.344,4.924,6.033,3.0
41.439,3.503,4.048,24.0
41.315,3.498,3.801,34.0
41.261,3.499,3.558,43.0
41.494,3.525,3.343,31.0
41.444,3.527,3.105,32.0
61.477,5.263,6.335,5.0
41.424,3.551,4.033,35.0
41.324,3.548,3.788,42.0
41.303,3.551,3.547,31.0
41.547,3.578,3.332,31.0
41.464,3.577,3.091,38.0
60.283,5.23,6.19,3.0
41.373,3.595,4.011,31.0
41.294,3.593,3.769,42.0
41.241,3.594,3.525,31.0
41.529,3.624,3.314,28.0
41.559,3.632,3.081,39.0
45.898,4.035,4.693,9.0
41.262,3.632,3.984,35.0
41.309,3.641,3.752,39.0
44.281,3.909,3.766,5.0
41.599,3.677,3.302,37.0
41.563,3.68,3.063,37.0
45.874,4.084,4.669,8.0
41.256,3.677,3.964,41.0
45.908,4.097,4.149,7.0
41.408,3.701,3.502,16.0
41.662,3.728,3.287,19.0
41.512,3.72,3.039,40.0
41.333,3.725,4.187,22.0
41.31,3.727,3.948,32.0
41.312,3.732,3.712,38.0
41.522,3.756,3.49,24.0
41.511,3.76,3.253,42.0
41.505,3.764,3.017,44.0
41.342,3.77,4.165,8.0
41.485,3.787,3.943,41.0
41.17,3.762,3.677,41.0
41.568,3.803,3.472,33.0
41.474,3.799,3.228,42.0
41.526,3.809,2.995,40.0
48.191,4.444,4.828,14.0
41.364,3.818,3.907,32.0
41.302,3.817,3.665,29.0
41.68,3.856,3.456,16.0
41.466,3.841,3.202,43.0
41.567,3.854,2.974,26.0
45.438,4.235,4.525,17.0
41.38,3.86,3.884,37.0
41.279,3.855,3.638,20.0
41.525,3.882,3.418,25.0
41.483,3.883,3.178,41.0
55.112,5.164,3.908,13.0
44.627,4.203,4.415,20.0
41.334,3.896,3.853,34.0
41.788,3.943,3.656,16.0
41.833,3.951,3.416,38.0
41.534,3.927,3.154,37.0
55.082,5.214,3.87,9.0
44.284,4.212,4.351,11.0
41.356,3.937,3.826,30.0
41.947,3.997,3.641,22.0
41.78,3.985,3.383,16.0
41.568,3.968,3.128,35.0
0.0,0.0,0.0,0.0
41.754,4.009,4.073,25.0
41.588,3.996,3.818,24.0
41.997,4.039,3.615,19.0
41.693,4.013,3.346,31.0
41.753,4.023,3.112,41.0
0.0,0.0,0.0,0.0
41.777,4.048,4.044,14.0
41.717,4.045,3.799,38.0
41.95,4.071,3.58,27.0
41.664,4.046,3.312,39.0
42.159,4.098,3.111,28.0
43.502,4.232,2.961,18.0
48.348,4.725,4.643,5.0
41.904,4.098,3.784,15.0
42.052,4.115,3.556,28.0
44.342,4.343,3.491,19.0
42.223,4.138,3.083,17.0
43.231,4.241,2.908,18.0
44.433,4.378,4.232,19.0
43.804,4.319,3.92,18.0
41.995,4.143,3.516,27.0
44.344,4.378,3.454,8.0
42.284,4.178,3.052,16.0
43.026,4.254,2.86,22.0
44.31,4.4,4.183,19.0
43.871,4.359,3.889,20.0
41.991,4.175,3.481,23.0
42.264,4.204,3.257,14.0
42.725,4.253,3.048,18.0
42.883,4.272,2.813,26.0
48.151,4.817,4.504,6.0
43.977,4.401,3.86,4.0
48.985,4.906,4.018,8.0
42.728,4.281,3.255,17.0
42.671,4.278,3.006,18.0
42.853,4.3,2.774,25.0
44.082,4.441,4.083,14.0
43.978,4.432,3.82,11.0
48.996,4.941,3.974,5.0
42.789,4.317,3.221,37.0
42.924,4.333,2.985,17.0
42.787,4.322,2.73,3.0
43.988,4.461,4.034,32.0
43.994,4.463,3.781,7.0
44.168,4.483,3.541,21.0
42.811,4.347,3.183,13.0
43.127,4.381,2.959,17.0
42.81,4.351,2.692,3.0
43.844,4.473,3.978,40.0
44.062,4.497,3.745,32.0
44.162,4.509,3.499,23.0
42.881,4.38,3.147,16.0
42.999,4.394,2.909,29.0
58.316,5.963,3.61,12.0
43.825,4.497,3.934,30.0
44.071,4.523,3.702,33.0
44.207,4.539,3.459,18.0
0.0,0.0,0.0,0.0
42.869,4.405,2.858,30.0
58.286,5.992,3.551,5.0
43.884,4.527,3.895,15.0
43.969,4.537,3.649,32.0
44.194,4.561,3.413,18.0
42.834,4.422,3.058,38.0
42.837,4.424,2.812,29.0
58.281,6.022,3.492,5.0
44.063,4.568,3.866,20.0
44.113,4.574,3.616,31.0
44.148,4.578,3.364,29.0
42.879,4.448,3.017,21.0
57.956,6.013,3.745,12.0
87.839,9.118,5.171,15.0
44.09,4.591,3.822,9.0
44.134,4.596,3.571,38.0
44.092,4.593,3.313,36.0
43.003,4.48,2.98,17.0
42.767,4.457,2.718,17.0
42.657,4.446,2.466,10.0
51.779,5.414,4.432,6.0
44.092,4.611,3.519,35.0
43.534,4.553,3.224,23.0
42.982,4.495,2.932,17.0
42.718,4.469,2.668,16.0
87.375,9.143,4.956,17.0
44.155,4.634,3.731,19.0
44.0,4.617,3.464,36.0
42.689,4.48,3.115,18.0
42.837,4.496,2.874,20.0
42.826,4.496,2.627,4.0
87.231,9.16,4.851,22.0
43.913,4.624,3.661,38.0
44.184,4.652,3.428,23.0
42.681,4.494,3.066,10.0
42.835,4.51,2.826,31.0
42.752,4.502,2.575,8.0
87.067,9.17,4.744,25.0
43.862,4.632,3.606,47.0
49.298,5.205,3.769,8.0
44.639,4.713,3.155,18.0
42.801,4.519,2.774,24.0
42.694,4.508,2.522,23.0
86.937,9.18,4.638,22.0
43.913,4.648,3.56,43.0
49.339,5.222,3.715,9.0
0.0,0.0,0.0,0.0
42.779,4.527,2.724,30.0
42.658,4.514,2.471,30.0
86.9,9.196,4.535,15.0
44.003,4.667,3.515,33.0
44.2,4.687,3.276,25.0
0.0,0.0,0.0,0.0
42.686,4.526,2.667,23.0
42.65,4.521,2.421,26.0
84.154,8.921,4.293,17.0
44.218,4.698,3.48,19.0
44.365,4.712,3.235,19.0
0.0,0.0,0.0,0.0
42.661,4.53,2.615,24.0
84.157,8.935,4.675,20.0
84.169,8.936,4.192,28.0
44.367,4.719,3.438,28.0
44.503,4.732,3.192,12.0
42.984,4.57,2.835,23.0
42.677,4.536,2.565,17.0
84.138,8.942,4.572,33.0
84.158,8.943,4.09,35.0
44.327,4.719,3.381,16.0
55.19,5.874,3.89,7.0
42.92,4.566,2.778,26.0
42.679,4.539,2.512,17.0
84.163,8.951,4.47,40.0
84.146,8.947,3.986,38.0
44.209,4.708,3.317,28.0
43.333,4.613,3.001,18.0
42.794,4.554,2.716,23.0
42.648,4.537,2.457,36.0
84.141,8.949,4.365,40.0
84.142,8.948,3.881,40.0
44.253,4.713,3.264,31.0
0.0,0.0,0.0,0.0
42.67,4.54,2.654,22.0
84.155,8.952,4.742,16.0
84.144,8.948,4.258,41.0
84.161,8.948,3.775,40.0
44.423,4.729,3.22,19.0
42.993,4.574,2.868,17.0
42.652,4.536,2.599,26.0
84.134,8.944,4.635,32.0
84.146,8.942,4.151,39.0
84.161,8.942,3.668,35.0
55.159,5.867,3.927,8.0
42.978,4.569,2.812,25.0
42.696,4.537,2.547,16.0
84.158,8.938,4.529,28.0
84.137,8.932,4.044,30.0
84.167,8.932,3.562,31.0
43.091,4.577,3.013,9.0
42.86,4.55,2.75,30.0
42.671,4.528,2.491,30.0
84.15,8.924,4.421,13.0
84.16,8.921,3.938,14.0
84.177,8.92,3.455,20.0
0.0,0.0,0.0,0.0
42.717,4.527,2.685,22.0
42.656,4.518,2.435,23.0
86.868,9.196,4.452,21.0
86.872,9.191,3.952,13.0
84.201,8.904,3.347,8.0
0.0,0.0,0.0,0.0
42.751,4.521,2.631,9.0
86.976,9.191,4.853,17.0
86.95,9.183,4.343,22.0
86.919,9.175,3.841,21.0
85.318,9.001,3.28,10.0
42.872,4.525,2.83,29.0
42.738,4.507,2.575,12.0
87.075,9.178,4.744,24.0
87.071,9.171,4.235,27.0
87.049,9.163,3.734,26.0
85.468,8.991,3.175,10.0
42.78,4.502,2.768,35.0
42.701,4.49,2.516,22.0
87.21,9.163,4.637,22.0
87.177,9.153,4.125,18.0
87.177,9.147,3.625,20.0
85.621,8.978,3.069,11.0
42.764,4.485,2.71,25.0
87.377,9.155,5.035,14.0
87.338,9.144,4.529,21.0
87.346,9.138,4.019,15.0
87.339,9.13,3.517,11.0
85.759,8.959,2.961,11.0
42.748,4.466,2.653,6.0
87.57,9.14,4.93,20.0
87.528,9.128,4.424,18.0
87.54,9.122,3.912,16.0
85.947,8.948,3.348,2.0
85.948,8.942,2.854,11.0
87.737,9.126,5.329,14.0
87.752,9.119,4.823,18.0
87.74,9.109,4.317,18.0
87.723,9.099,3.803,20.0
86.189,8.932,3.242,2.0
86.124,8.919,2.746,10.0
87.989,9.108,5.227,17.0
87.967,9.096,4.719,19.0
87.939,9.085,4.211,18.0
87.89,9.071,3.694,18.0
86.357,8.905,3.135,1.0
86.399,8.902,2.641,10.0
88.231,9.086,5.124,22.0
88.21,9.073,4.615,18.0
88.179,9.06,4.107,17.0
88.169,9.051,3.591,14.0
86.603,8.882,3.031,4.0
86.663,8.88,2.535,11.0
88.473,9.059,5.022,28.0
88.462,9.047,4.512,28.0
88.46,9.037,4.003,17.0
88.437,9.026,3.485,9.0
86.842,8.854,2.925,8.0
86.905,8.851,2.428,10.0
88.525,9.009,4.908,31.0
88.541,8.999,4.399,30.0
88.538,8.988,3.891,20.0
88.58,8.983,3.375,1.0
87.177,8.831,2.822,5.0
87.225,8.827,2.323,10.0
88.543,8.951,4.793,37.0
88.528,8.938,4.282,38.0
88.535,8.928,3.775,34.0
87.48,8.811,3.219,1.0
87.478,8.801,2.716,3.0
87.54,8.797,2.216,6.0
71.025,-6.053,6.683,9.0
71.448,-6.084,6.34,19.0
72.897,-6.203,6.08,4.0
70.979,-6.035,5.534,17.0
70.474,-5.989,5.119,17.0
70.104,-5.953,4.719,33.0
78.972,-6.722,7.538,10.0
71.573,-6.087,6.447,6.0
72.481,-6.159,6.141,14.0
70.671,-6.001,5.604,32.0
70.655,-5.995,5.225,20.0
70.158,-5.948,4.815,29.0
73.295,-6.229,7.093,13.0
0.0,0.0,0.0,0.0
72.243,-6.128,6.217,25.0
70.503,-5.975,5.683,28.0
70.806,-5.996,5.328,31.0
70.156,-5.936,4.906,14.0
73.401,-6.225,7.199,18.0
0.0,0.0,0.0,0.0
71.55,-6.056,6.249,23.0
70.453,-5.956,5.769,34.0
71.033,-6.0,5.436,12.0
70.534,-5.952,5.022,9.0
80.925,-6.846,8.04,6.0
70.999,-5.999,6.672,9.0
71.944,-6.072,6.376,12.0
70.503,-5.943,5.863,28.0
73.185,-6.163,5.694,11.0
70.563,-5.936,5.113,39.0
73.195,-6.172,7.366,4.0
71.15,-5.993,6.776,7.0
72.116,-6.066,6.481,12.0
70.556,-5.928,5.955,8.0
70.9,-5.949,5.604,9.0
70.59,-5.917,5.202,20.0
73.089,-6.142,7.446,4.0
71.049,-5.962,6.855,10.0
72.735,-6.095,6.626,15.0
72.883,-6.1,6.241,7.0
73.202,-6.119,5.876,7.0
70.752,-5.906,5.3,13.0
70.32,-5.885,7.25,8.0
73.485,-6.141,7.179,17.0
71.281,-5.948,6.58,6.0
74.598,-6.216,6.477,9.0
77.165,-6.422,6.285,5.0
70.882,-5.891,5.393,17.0
70.401,-5.865,7.342,25.0
73.204,-6.089,7.239,15.0
71.042,-5.901,6.641,10.0
74.634,-6.189,6.568,3.0
70.489,-5.837,5.823,6.0
70.954,-5.867,5.481,9.0
71.016,-5.887,7.49,37.0
73.162,-6.055,7.319,15.0
71.05,-5.87,6.724,8.0
79.502,-6.558,7.087,4.0
70.495,-5.806,5.904,13.0
72.951,-6.0,5.717,23.0
70.647,-5.824,7.531,28.0
73.146,-6.019,7.401,7.0
79.051,-6.494,7.571,9.0
77.764,-6.378,7.019,10.0
73.076,-5.984,6.202,5.0
73.07,-5.973,5.808,14.0
0.0,0.0,0.0,0.0
72.44,-5.926,7.41,9.0
73.666,-6.014,7.137,8.0
70.905,-5.779,6.478,9.0
73.023,-5.942,6.277,9.0
73.248,-5.949,5.902,11.0
71.097,-5.788,7.737,33.0
72.543,-5.895,7.499,9.0
70.921,-5.752,6.947,8.0
70.908,-5.74,6.554,15.0
70.725,-5.715,6.155,17.0
73.369,-5.918,5.988,12.0
70.754,-5.72,7.775,26.0
71.658,-5.781,7.484,11.0
71.802,-5.782,7.109,11.0
79.499,-6.389,7.431,8.0
70.817,-5.681,6.235,17.0
73.355,-5.872,6.063,8.0
71.025,-5.699,7.878,17.0
71.484,-5.724,7.539,14.0
71.817,-5.739,7.183,25.0
78.081,-6.226,7.377,9.0
70.904,-5.643,6.314,17.0
70.77,-5.621,5.918,17.0
71.353,-5.68,7.985,20.0
71.207,-5.657,7.579,9.0
71.941,-5.702,7.265,19.0
71.181,-5.631,6.793,12.0
73.623,-5.811,6.626,6.0
70.685,-5.567,5.979,17.0
18.148,-0.441,-0.649,151.0
18.097,-0.444,-0.752,19.0
0.0,0.0,0.0,0.0
18.125,-0.452,-0.966,8.0
18.149,-0.457,-1.072,1.0
18.129,-0.46,-1.176,0.0
18.142,-0.464,-0.676,32.0
18.061,-0.466,-0.778,4.0
18.132,-0.472,-0.886,5.0
18.158,-0.477,-0.995,0.0
13.698,-0.363,-0.83,0.0
12.762,-0.341,-0.847,0.0
21.893,-0.59,-0.849,21.0
21.878,-0.594,-0.975,0.0
21.902,-0.6,-1.103,0.0
14.504,-0.4,-0.816,0.0
13.546,-0.377,-0.841,0.0
12.516,-0.351,-0.849,0.0
21.906,-0.62,-0.881,63.0
21.914,-0.625,-1.008,1.0
21.953,-0.631,-1.137,0.0
14.262,-0.413,-0.823,0.0
13.2,-0.385,-0.838,0.0
12.272,-0.361,-0.85,0.0
18.185,-0.539,-0.757,1.0
16.539,-0.494,-0.784,0.0
15.194,-0.457,-0.808,0.0
14.04,-0.426,-0.829,0.0
13.01,-0.397,-0.844,0.0
12.056,-0.371,-0.852,0.0
17.772,-0.551,-0.764,0.0
16.337,-0.51,-0.797,0.0
14.848,-0.467,-0.81,0.0
13.727,-0.435,-0.83,0.0
12.78,-0.408,-0.846,0.0
11.838,-0.381,-0.853,0.0
17.394,-0.564,-0.771,0.0
15.91,-0.519,-0.797,0.0
14.607,-0.48,-0.816,0.0
13.514,-0.447,-0.835,0.0
12.542,-0.418,-0.847,0.0
11.638,-0.391,-0.854,0.0
17.143,-0.58,-0.782,0.0
15.6,-0.531,-0.802,0.0
14.326,-0.491,-0.819,0.0
13.243,-0.457,-0.835,0.0
12.338,-0.429,-0.849,0.0
11.467,-0.402,-0.856,0.0
16.713,-0.589,-0.784,0.0
15.295,-0.543,-0.805,0.0
14.121,-0.505,-0.825,0.0
13.103,-0.471,-0.842,0.0
12.136,-0.44,-0.85,0.0
11.341,-0.414,-0.86,0.0
16.285,-0.597,-0.783,0.0
14.952,-0.552,-0.805,0.0
13.862,-0.515,-0.827,0.0
13.065,-0.489,-0.856,0.0
11.956,-0.45,-0.852,0.0
11.176,-0.424,-0.861,0.0
16.036,-0.612,-0.79,0.0
14.736,-0.566,-0.811,0.0
13.684,-0.529,-0.832,0.0
12.587,-0.49,-0.839,0.0
11.772,-0.461,-0.853,0.0
11.035,-0.435,-0.863,0.0
15.759,-0.624,-0.795,0.0
14.519,-0.579,-0.816,0.0
13.509,-0.542,-0.837,0.0
12.457,-0.503,-0.845,0.0
11.637,-0.473,-0.856,0.0
10.962,-0.448,-0.87,0.0
15.517,-0.638,-0.8,0.0
14.275,-0.59,-0.818,0.0
13.315,-0.554,-0.839,0.0
12.321,-0.516,-0.849,0.0
11.467,-0.483,-0.856,0.0
10.85,-0.46,-0.873,0.0
15.29,-0.651,-0.804,0.0
14.06,-0.602,-0.82,0.0
13.159,-0.567,-0.843,0.0
12.172,-0.528,-0.851,0.0
11.347,-0.495,-0.859,0.0
10.719,-0.47,-0.873,0.0
15.076,-0.664,-0.808,0.0
13.936,-0.618,-0.827,0.0
13.04,-0.581,-0.849,0.0
12.001,-0.538,-0.851,0.0
11.236,-0.507,-0.862,0.0
10.619,-0.482,-0.876,0.0
14.844,-0.676,-0.81,0.0
13.725,-0.629,-0.828,0.0
12.772,-0.589,-0.844,0.0
11.829,-0.548,-0.851,0.0
11.121,-0.519,-0.864,0.0
10.541,-0.494,-0.879,0.0
67.447,-6.124,0.177,5.0
47.799,-4.327,-0.129,22.0
41.086,-3.708,-0.331,2.0
29.861,-2.687,-0.403,10.0
26.071,-2.339,-0.491,24.0
23.356,-2.089,-0.565,12.0
80.571,-7.202,0.291,6.0
50.033,-4.458,-0.086,24.0
0.0,0.0,0.0,0.0
29.875,-2.645,-0.374,5.0
0.0,0.0,0.0,0.0
23.899,-2.103,-0.555,5.0
83.983,-7.386,0.383,3.0
51.351,-4.5,-0.04,25.0
0.0,0.0,0.0,0.0
29.886,-2.602,-0.346,0.0
28.266,-2.453,-0.479,26.0
24.659,-2.133,-0.55,4.0
83.504,-7.219,0.459,9.0
51.781,-4.461,0.007,5.0
44.453,-3.817,-0.232,19.0
35.665,-3.052,-0.381,19.0
28.858,-2.461,-0.463,26.0
25.226,-2.144,-0.54,2.0
83.518,-7.094,0.533,5.0
58.663,-4.966,0.06,1.0
45.385,-3.828,-0.197,6.0
35.663,-2.997,-0.349,38.0
29.413,-2.463,-0.446,22.0
25.846,-2.157,-0.531,2.0
87.436,-7.292,0.634,6.0
67.59,-5.617,0.127,8.0
47.692,-3.949,-0.166,7.0
35.658,-2.941,-0.319,6.0
30.042,-2.469,-0.43,19.0
26.836,-2.197,-0.528,3.0
92.937,-7.604,0.753,5.0
67.558,-5.507,0.184,8.0
49.797,-4.043,-0.131,25.0
40.624,-3.286,-0.329,3.0
32.391,-2.61,-0.437,18.0
28.442,-2.283,-0.536,2.0
114.3,-9.169,1.02,6.0
67.877,-5.422,0.241,7.0
50.935,-4.052,-0.093,13.0
40.511,-3.21,-0.295,23.0
0.0,0.0,0.0,0.0
30.229,-2.377,-0.546,1.0
67.87,-5.331,0.66,79.0
67.86,-5.309,0.295,89.0
52.042,-4.055,-0.054,3.0
40.627,-3.152,-0.265,10.0
34.469,-2.664,-0.41,1.0
32.6,-2.509,-0.563,1.0
67.898,-5.22,0.712,22.0
82.944,-6.35,0.423,9.0
61.172,-4.663,-0.017,2.0
40.632,-3.084,-0.234,6.0
35.679,-2.697,-0.398,1.0
35.144,-2.645,-0.582,0.0
119.221,-8.964,1.337,15.0
20.034,-1.499,0.116,3.0
67.398,-5.023,0.028,2.0
45.12,-3.348,-0.228,17.0
38.327,-2.832,-0.4,2.0
0.0,0.0,0.0,0.0
20.04,-1.472,0.238,26.0
20.023,-1.464,0.13,23.0
52.031,-3.788,0.058,0.0
0.0,0.0,0.0,0.0
42.329,-3.053,-0.413,1.0
0.0,0.0,0.0,0.0
20.03,-1.436,0.252,26.0
20.018,-1.429,0.143,16.0
0.0,0.0,0.0,0.0
48.678,-3.441,-0.18,0.0
47.374,-3.333,-0.432,0.0
