X,Y,Z,Reflectivity
71.806,-4.788,4.92,11.0
71.737,-4.786,4.538,19.0
71.106,-4.746,4.125,41.0
64.349,-4.308,5.536,18.0
72.487,-4.853,5.853,15.0
72.025,-4.824,5.436,7.0
72.008,-4.824,5.048,13.0
71.643,-4.8,4.647,30.0
71.455,-4.789,4.259,29.0
64.352,-4.326,5.639,19.0
72.72,-4.889,5.989,17.0
72.152,-4.851,5.561,10.0
72.525,-4.877,5.2,18.0
71.654,-4.819,4.76,29.0
71.691,-4.822,4.387,14.0
64.302,-4.338,5.737,25.0
72.257,-4.875,6.065,28.0
72.72,-4.905,5.719,33.0
72.979,-4.923,5.348,14.0
71.784,-4.842,4.882,9.0
71.704,-4.836,4.499,15.0
72.903,-4.933,6.619,13.0
72.126,-4.879,6.168,13.0
72.092,-4.876,5.784,22.0
72.048,-4.872,5.392,8.0
71.956,-4.865,5.006,10.0
71.624,-4.842,4.606,18.0
73.182,-4.963,6.76,23.0
69.439,-4.707,6.046,13.0
72.723,-4.929,5.947,14.0
72.069,-4.883,5.506,16.0
72.025,-4.879,5.123,8.0
71.638,-4.851,4.717,22.0
69.795,-4.741,6.556,24.0
64.349,-4.369,5.703,36.0
72.293,-4.907,6.025,17.0
72.679,-4.93,5.665,45.0
76.076,-5.159,5.528,5.0
71.671,-4.859,4.83,12.0
69.965,-4.757,6.68,48.0
64.256,-4.367,5.794,10.0
72.244,-4.907,6.131,30.0
72.146,-4.898,5.733,34.0
76.043,-5.159,5.641,7.0
75.579,-5.126,5.208,8.0
69.66,-4.739,6.757,30.0
73.174,-4.974,6.708,30.0
69.375,-4.713,5.992,11.0
72.186,-4.901,5.846,13.0
71.958,-4.882,5.446,13.0
72.129,-4.891,5.077,6.0
69.944,-4.757,6.89,18.0
69.682,-4.736,6.493,10.0
64.365,-4.37,5.656,28.0
72.496,-4.919,5.978,15.0
72.628,-4.924,5.603,20.0
71.99,-4.877,5.174,7.0
70.963,-4.823,7.096,20.0
69.954,-4.75,6.623,37.0
64.299,-4.362,5.745,28.0
72.224,-4.895,6.062,24.0
72.54,-4.912,5.704,49.0
72.953,-4.935,5.35,11.0
70.939,-4.814,7.198,15.0
69.752,-4.729,6.705,46.0
72.966,-4.941,6.625,16.0
72.119,-4.879,6.158,13.0
72.131,-4.876,5.775,20.0
72.05,-4.866,5.387,11.0
70.79,-4.795,7.286,13.0
69.726,-4.717,6.803,38.0
0.0,0.0,0.0,0.0
69.419,-4.685,6.026,21.0
72.89,-4.914,5.94,16.0
71.936,-4.845,5.48,11.0
68.078,-4.6,7.103,27.0
70.189,-4.736,6.947,47.0
69.837,-4.706,6.54,19.0
64.317,-4.329,5.673,30.0
72.512,-4.874,6.01,25.0
73.454,-4.932,5.698,12.0
70.858,-4.773,7.493,14.0
70.852,-4.765,7.113,46.0
70.453,-4.732,6.695,19.0
64.276,-4.311,5.759,20.0
72.336,-4.845,6.095,21.0
73.022,-4.884,5.765,23.0
71.082,-4.769,7.615,30.0
70.887,-4.749,7.214,8.0
64.049,-4.284,6.175,23.0
69.65,-4.652,6.336,12.0
64.302,-4.289,5.506,23.0
72.759,-4.847,5.842,26.0
71.3,-4.763,7.736,12.0
68.066,-4.539,7.02,9.0
64.068,-4.266,6.263,15.0
69.729,-4.636,6.436,18.0
64.324,-4.27,5.594,38.0
72.787,-4.824,5.942,48.0
70.135,-4.662,7.704,7.0
68.063,-4.516,7.11,25.0
0.0,0.0,0.0,0.0
70.199,-4.643,6.571,11.0
64.305,-4.246,5.675,35.0
72.447,-4.776,6.006,25.0
70.244,-4.644,7.807,9.0
68.082,-4.493,7.199,12.0
71.888,-4.736,7.215,12.0
64.038,-4.21,6.077,33.0
64.15,-4.21,5.743,34.0
64.375,-4.218,5.419,14.0
70.687,-4.646,7.946,17.0
71.161,-4.667,7.616,19.0
59.618,-3.902,6.059,21.0
64.036,-4.184,6.157,39.0
64.12,-4.181,5.82,32.0
64.122,-4.173,5.477,39.0
70.895,-4.628,8.059,31.0
70.303,-4.579,7.612,17.0
59.568,-3.872,6.128,27.0
64.073,-4.156,6.24,34.0
64.109,-4.15,5.898,36.0
64.129,-4.143,5.556,35.0
71.029,-4.602,8.162,26.0
70.348,-4.548,7.703,30.0
59.576,-3.843,6.202,33.0
64.025,-4.121,6.313,11.0
64.061,-4.115,5.971,30.0
64.083,-4.108,5.629,35.0
70.089,-4.505,8.139,14.0
70.404,-4.516,7.793,28.0
59.501,-3.807,6.264,25.0
59.601,-3.805,5.946,25.0
64.056,-4.08,6.045,38.0
64.076,-4.072,5.702,33.0
69.973,-4.46,8.207,24.0
70.528,-4.484,7.889,30.0
70.552,-4.475,7.508,16.0
59.523,-3.766,6.007,34.0
64.03,-4.042,6.116,33.0
64.022,-4.032,5.77,34.0
69.867,-4.413,8.274,31.0
70.386,-4.434,7.952,29.0
70.447,-4.427,7.576,26.0
59.436,-3.725,6.064,31.0
59.299,-3.708,5.729,33.0
64.034,-3.994,5.841,38.0
69.824,-4.367,8.345,27.0
70.207,-4.38,8.009,11.0
70.332,-4.375,7.641,30.0
59.603,-3.698,6.145,28.0
59.177,-3.663,5.78,32.0
64.071,-3.956,5.912,34.0
69.656,-4.311,8.4,9.0
70.116,-4.328,8.073,31.0
70.288,-4.327,7.71,17.0
59.641,-3.661,6.211,23.0
59.096,-3.618,5.834,30.0
64.028,-3.91,5.973,24.0
65.447,-4.007,7.96,12.0
70.027,-4.275,8.135,18.0
59.204,-3.604,6.554,34.0
59.328,-3.601,6.238,8.0
59.11,-3.578,5.893,32.0
63.9,-3.858,6.024,15.0
65.087,-3.939,7.981,37.0
70.14,-4.232,8.217,26.0
58.854,-3.541,6.572,33.0
59.09,-3.544,6.271,30.0
59.16,-3.538,5.955,32.0
59.202,-3.531,5.638,30.0
64.931,-3.882,8.025,41.0
65.018,-3.875,7.679,31.0
58.822,-3.495,6.625,33.0
59.03,-3.497,6.319,33.0
58.568,-3.458,5.951,32.0
58.911,-3.468,5.665,34.0
64.778,-3.822,8.066,36.0
64.949,-3.82,7.731,37.0
58.818,-3.448,6.678,33.0
58.935,-3.445,6.363,33.0
58.311,-3.397,5.977,31.0
58.424,-3.394,5.67,32.0
64.755,-3.77,8.121,39.0
64.97,-3.769,7.791,37.0
58.875,-3.404,6.736,33.0
58.8,-3.389,6.399,33.0
58.209,-3.344,6.016,31.0
58.165,-3.33,5.694,30.0
64.785,-3.718,8.181,26.0
64.929,-3.713,7.841,40.0
58.83,-3.353,6.78,11.0
58.906,-3.346,6.459,33.0
58.149,-3.292,6.058,29.0
58.136,-3.28,5.738,31.0
64.616,-3.654,8.212,13.0
64.747,-3.648,7.871,39.0
58.817,-3.302,6.826,19.0
58.688,-3.283,6.482,33.0
58.328,-3.252,6.122,32.0
58.143,-3.23,5.784,30.0
51.371,-2.859,6.569,33.0
64.782,-3.592,7.925,34.0
51.886,-2.867,6.061,25.0
58.606,-3.226,6.517,33.0
58.497,-3.209,6.183,32.0
58.23,-3.183,5.835,32.0
51.382,-2.813,6.608,28.0
64.767,-3.533,7.971,22.0
51.882,-2.819,6.098,31.0
58.417,-3.163,6.537,27.0
58.917,-3.178,6.269,32.0
58.527,-3.145,5.905,33.0
51.359,-2.765,6.641,41.0
52.034,-2.79,6.439,26.0
51.767,-2.765,6.119,37.0
51.786,-2.756,5.829,25.0
58.85,-3.119,6.3,32.0
58.573,-3.093,5.948,30.0
51.41,-2.719,6.681,34.0
51.82,-2.729,6.446,26.0
51.763,-2.715,6.152,37.0
51.799,-2.706,5.864,23.0
58.505,-3.044,6.3,32.0
56.589,-2.933,5.782,20.0
51.458,-2.671,6.719,26.0
51.879,-2.681,6.485,26.0
51.844,-2.669,6.192,25.0
51.798,-2.655,5.894,18.0
58.096,-2.966,6.289,31.0
56.63,-2.88,5.818,6.0
51.133,-2.603,6.706,29.0
51.897,-2.631,6.516,26.0
51.852,-2.617,6.222,25.0
51.823,-2.605,5.925,20.0
58.168,-2.911,6.329,23.0
46.852,-2.335,4.838,27.0
51.077,-2.549,6.726,36.0
51.852,-2.576,6.538,26.0
51.93,-2.568,6.258,27.0
51.833,-2.553,5.952,37.0
58.412,-2.864,6.384,16.0
46.741,-2.283,4.849,28.0
51.104,-2.498,6.754,28.0
51.574,-2.509,6.527,39.0
51.993,-2.518,6.29,26.0
51.786,-2.497,5.971,37.0
52.106,-2.501,5.718,25.0
46.84,-2.238,4.88,35.0
51.066,-2.442,6.771,26.0
51.438,-2.449,6.532,25.0
51.136,-2.422,6.208,42.0
51.779,-2.442,5.992,26.0
58.026,-2.724,6.391,8.0
46.843,-2.189,4.899,39.0
51.115,-2.39,6.799,19.0
51.046,-2.376,6.503,25.0
51.698,-2.394,6.296,27.0
51.759,-2.385,6.009,25.0
57.741,-2.648,6.381,7.0
46.806,-2.137,4.912,36.0
51.183,-2.337,6.826,12.0
50.96,-2.316,6.509,25.0
51.708,-2.338,6.315,26.0
51.699,-2.326,6.019,25.0
51.821,-2.32,5.744,30.0
46.75,-2.083,4.921,33.0
44.584,-1.987,5.96,33.0
50.993,-2.261,6.529,11.0
51.379,-2.266,6.29,25.0
51.589,-2.264,6.021,26.0
51.615,-2.254,5.735,22.0
46.706,-2.03,4.929,35.0
44.436,-1.931,5.952,38.0
45.105,-1.949,5.787,19.0
44.801,-1.926,5.496,37.0
51.647,-2.209,6.04,26.0
51.615,-2.197,5.747,33.0
46.7,-1.978,4.938,43.0
44.583,-1.887,5.981,19.0
44.645,-1.88,5.738,19.0
44.866,-1.879,5.513,33.0
58.792,-2.449,6.887,8.0
51.612,-2.138,5.756,36.0
52.444,-2.161,5.556,16.0
44.324,-1.825,5.955,34.0
44.417,-1.819,5.716,33.0
44.822,-1.826,5.515,42.0
44.88,-1.817,5.264,31.0
51.485,-2.074,5.75,15.0
52.037,-2.085,5.519,27.0
44.191,-1.769,5.942,40.0
44.659,-1.777,5.752,35.0
44.978,-1.779,5.539,35.0
44.867,-1.765,5.268,41.0
44.821,-1.754,5.01,37.0
51.411,-2.0,5.458,25.0
44.13,-1.715,5.938,46.0
44.412,-1.716,5.724,28.0
45.007,-1.729,5.546,33.0
44.88,-1.714,5.272,37.0
44.638,-1.695,4.992,40.0
51.46,-1.943,5.465,23.0
44.313,-1.67,5.964,30.0
44.399,-1.663,5.724,37.0
44.638,-1.663,5.501,28.0
44.921,-1.663,5.277,33.0
44.614,-1.642,4.989,43.0
51.24,-1.875,5.442,5.0
44.339,-1.619,5.968,32.0
44.595,-1.619,5.748,39.0
44.527,-1.606,5.487,31.0
44.893,-1.61,5.273,14.0
44.767,-1.595,5.005,36.0
44.697,-1.583,4.745,34.0
44.763,-1.582,6.022,28.0
44.478,-1.562,5.73,32.0
44.539,-1.554,5.485,38.0
44.923,-1.557,5.273,29.0
44.69,-1.539,4.992,40.0
44.834,-1.535,4.755,37.0
44.633,-1.524,6.0,21.0
44.402,-1.506,5.716,35.0
44.548,-1.501,5.481,38.0
45.021,-1.507,5.279,27.0
44.63,-1.484,4.98,33.0
44.169,-1.46,4.679,42.0
51.133,-1.685,6.867,19.0
44.411,-1.453,5.71,28.0
44.413,-1.443,5.457,45.0
44.387,-1.433,5.197,19.0
44.048,-1.412,4.907,18.0
43.944,-1.399,4.647,41.0
44.791,-1.421,6.006,20.0
44.289,-1.396,5.686,42.0
44.443,-1.391,5.452,43.0
44.008,-1.367,5.143,19.0
43.827,-1.352,4.873,32.0
43.745,-1.341,4.616,48.0
51.142,-1.561,6.846,12.0
44.422,-1.346,5.692,43.0
44.177,-1.329,5.408,34.0
43.706,-1.305,5.096,41.0
43.647,-1.294,4.841,42.0
43.874,-1.292,4.617,36.0
44.581,-1.307,5.955,26.0
44.424,-1.293,5.679,37.0
50.138,-1.448,6.123,5.0
43.688,-1.252,5.081,36.0
43.73,-1.244,4.837,41.0
43.784,-1.237,4.594,43.0
44.523,-1.251,5.932,44.0
44.383,-1.238,5.659,32.0
44.41,-1.229,5.408,18.0
43.7,-1.2,5.067,28.0
43.759,-1.193,4.824,39.0
43.742,-1.184,4.573,42.0
45.069,-1.212,5.988,35.0
44.373,-1.184,5.64,30.0
44.385,-1.176,5.387,28.0
44.182,-1.161,5.105,19.0
43.62,-1.137,4.791,43.0
43.719,-1.131,4.553,46.0
44.948,-1.155,5.953,20.0
44.544,-1.135,5.643,33.0
50.541,-1.278,6.112,8.0
50.162,-1.258,5.774,5.0
43.619,-1.085,4.771,41.0
43.559,-1.075,4.516,42.0
44.673,-1.095,5.895,19.0
44.568,-1.083,5.625,45.0
50.069,-1.207,6.031,10.0
0.0,0.0,0.0,0.0
43.29,-1.025,4.714,48.0
43.453,-1.02,4.483,41.0
45.29,-1.055,5.953,20.0
44.394,-1.025,5.579,18.0
49.945,-1.144,5.989,21.0
44.953,-1.021,5.128,22.0
43.253,-0.973,4.686,40.0
43.416,-0.968,4.456,41.0
45.175,-0.999,5.913,20.0
47.919,-1.05,5.995,6.0
0.0,0.0,0.0,0.0
44.319,-0.953,5.03,19.0
43.32,-0.923,4.668,38.0
43.476,-0.918,4.436,41.0
45.418,-0.95,5.916,21.0
44.448,-0.921,5.533,19.0
50.203,-1.031,5.96,9.0
44.187,-0.899,4.987,18.0
43.332,-0.873,4.642,38.0
43.398,-0.866,4.4,40.0
45.571,-0.9,5.907,29.0
48.041,-0.939,5.949,6.0
44.809,-0.867,5.29,12.0
49.964,-0.958,5.606,4.0
43.353,-0.823,4.615,39.0
42.596,-0.8,4.29,31.0
45.781,-0.85,5.902,21.0
48.095,-0.884,5.921,10.0
48.569,-0.883,5.699,6.0
43.875,-0.79,4.891,31.0
43.243,-0.771,4.572,42.0
0.0,0.0,0.0,0.0
45.587,-0.794,5.843,21.0
44.543,-0.767,5.451,30.0
0.0,0.0,0.0,0.0
43.76,-0.737,4.845,32.0
43.264,-0.721,4.541,44.0
41.875,-0.69,4.154,30.0
45.675,-0.743,5.818,20.0
48.298,-0.776,5.872,6.0
41.768,-0.664,4.836,12.0
43.876,-0.69,4.822,29.0
43.79,-0.68,4.561,8.0
41.814,-0.642,4.114,37.0
46.089,-0.697,5.832,6.0
41.433,-0.618,5.003,33.0
41.362,-0.61,4.754,16.0
43.257,-0.631,4.718,3.0
41.665,-0.6,4.304,16.0
41.852,-0.595,4.082,34.0
45.708,-0.639,5.744,21.0
41.338,-0.571,4.955,31.0
41.119,-0.561,4.69,42.0
41.529,-0.559,4.492,27.0
0.0,0.0,0.0,0.0
42.016,-0.552,4.061,36.0
47.888,-0.617,5.974,5.0
41.296,-0.525,4.912,38.0
41.176,-0.516,4.659,45.0
41.517,-0.514,4.452,46.0
41.764,-0.51,4.238,16.0
41.999,-0.506,4.02,29.0
41.174,-0.485,5.097,34.0
41.069,-0.478,4.845,40.0
41.298,-0.473,4.632,38.0
41.443,-0.468,4.404,37.0
41.631,-0.463,4.184,40.0
41.781,-0.458,3.958,38.0
43.294,-0.464,5.316,4.0
40.972,-0.432,4.793,41.0
41.256,-0.429,4.586,33.0
41.343,-0.423,4.352,40.0
41.654,-0.419,4.144,38.0
41.517,-0.411,3.89,39.0
40.989,-0.395,4.991,25.0
41.075,-0.39,4.762,37.0
41.174,-0.384,4.534,42.0
41.293,-0.379,4.303,43.0
41.601,-0.375,4.094,38.0
41.557,-0.369,3.85,37.0
40.995,-0.352,4.947,35.0
41.12,-0.347,4.722,38.0
41.308,-0.342,4.504,35.0
41.277,-0.336,4.257,47.0
41.669,-0.333,4.056,42.0
41.443,-0.325,3.794,42.0
40.969,-0.31,4.898,37.0
41.31,-0.307,4.698,46.0
41.328,-0.301,4.459,41.0
41.216,-0.294,4.204,46.0
41.853,-0.292,4.026,45.0
41.36,-0.282,3.739,42.0
40.999,-0.269,4.854,42.0
41.726,-0.268,4.696,35.0
41.114,-0.258,4.388,45.0
41.202,-0.252,4.154,42.0
41.773,-0.25,3.969,40.0
41.293,-0.241,3.684,42.0
41.071,-0.229,4.813,32.0
41.402,-0.225,4.61,18.0
41.182,-0.218,4.345,45.0
41.198,-0.212,4.103,42.0
41.694,-0.209,3.911,44.0
41.343,-0.202,3.638,43.0
41.079,-0.189,4.762,37.0
41.208,-0.183,4.537,25.0
41.288,-0.178,4.305,36.0
41.552,-0.174,4.086,45.0
41.702,-0.169,3.858,40.0
41.345,-0.162,3.586,34.0
41.465,-0.151,4.754,16.0
41.15,-0.144,4.477,20.0
41.185,-0.139,4.241,39.0
41.409,-0.134,4.018,48.0
41.832,-0.13,3.816,39.0
41.523,-0.124,3.547,35.0
41.419,-0.112,4.694,33.0
41.095,-0.106,4.417,36.0
41.308,-0.101,4.198,48.0
41.982,-0.098,4.018,32.0
41.712,-0.092,3.75,37.0
41.475,-0.087,3.488,41.0
41.155,-0.074,4.608,40.0
41.61,-0.07,4.416,32.0
41.296,-0.064,4.141,44.0
41.765,-0.06,3.94,36.0
41.461,-0.055,3.671,35.0
41.483,-0.05,3.432,44.0
41.328,-0.038,4.57,25.0
41.54,-0.034,4.35,39.0
41.387,-0.028,4.092,47.0
42.49,-0.025,3.949,33.0
41.479,-0.019,3.614,36.0
41.558,-0.015,3.38,41.0
41.202,-0.003,4.497,28.0
41.399,0.001,4.276,45.0
41.425,0.005,4.037,45.0
42.466,0.01,3.886,17.0
41.525,0.014,3.558,46.0
41.599,0.019,3.323,43.0
41.164,0.031,4.433,42.0
41.326,0.035,4.208,46.0
41.835,0.04,4.015,17.0
42.59,0.045,3.835,20.0
41.434,0.048,3.489,42.0
41.866,0.053,3.282,15.0
41.238,0.064,4.379,35.0
41.324,0.068,4.146,48.0
42.253,0.074,3.992,32.0
41.493,0.077,3.673,33.0
41.472,0.081,3.43,44.0
48.35,0.099,3.718,10.0
41.283,0.096,4.32,44.0
41.305,0.1,4.08,48.0
41.999,0.106,3.903,41.0
41.471,0.108,3.608,47.0
41.666,0.113,3.381,44.0
45.868,0.128,3.456,10.0
41.476,0.128,4.275,50.0
41.44,0.132,4.028,48.0
41.412,0.135,3.783,43.0
41.551,0.139,3.549,39.0
41.777,0.144,3.325,40.0
45.829,0.162,3.381,34.0
41.383,0.157,4.199,34.0
41.65,0.162,3.983,26.0
41.374,0.164,3.714,44.0
41.588,0.169,3.485,42.0
41.803,0.173,3.259,41.0
45.795,0.193,3.305,40.0
41.287,0.185,4.123,42.0
41.73,0.191,3.922,30.0
41.601,0.194,3.666,40.0
41.76,0.198,3.432,48.0
47.809,0.23,3.65,10.0
61.074,0.299,4.307,3.0
41.428,0.213,4.068,35.0
41.41,0.217,3.823,35.0
41.525,0.22,3.59,34.0
41.865,0.225,3.371,37.0
47.848,0.261,3.573,4.0
47.99,0.266,3.304,17.0
41.484,0.24,4.003,38.0
41.524,0.243,3.763,33.0
41.485,0.246,3.516,43.0
41.912,0.252,3.303,14.0
44.946,0.273,3.28,9.0
48.005,0.294,3.224,5.0
41.58,0.266,3.94,40.0
41.433,0.267,3.684,42.0
41.701,0.272,3.463,37.0
48.256,0.317,3.721,22.0
47.778,0.317,3.405,12.0
60.561,0.406,3.963,5.0
41.656,0.29,3.875,45.0
41.403,0.29,3.609,43.0
41.778,0.295,3.397,40.0
47.765,0.34,3.6,7.0
47.887,0.344,3.33,14.0
60.035,0.435,3.824,10.0
41.644,0.312,3.801,34.0
41.501,0.313,3.545,44.0
41.936,0.319,3.336,42.0
44.989,0.344,3.311,18.0
67.15,0.517,4.55,11.0
59.986,0.465,3.716,4.0
41.448,0.331,3.709,38.0
41.516,0.333,3.472,44.0
41.854,0.338,3.255,45.0
67.967,0.552,4.882,16.0
60.059,0.491,3.963,5.0
78.349,0.645,4.713,18.0
41.432,0.35,3.633,41.0
41.822,0.355,3.422,30.0
51.141,0.437,3.884,10.0
41.588,0.357,2.912,12.0
60.032,0.517,3.853,15.0
78.274,0.677,4.567,20.0
41.574,0.369,3.57,40.0
41.541,0.37,3.323,39.0
47.646,0.427,3.533,9.0
41.574,0.373,2.835,25.0
66.991,0.604,4.177,6.0
78.416,0.71,4.432,9.0
41.487,0.385,3.486,42.0
41.304,0.384,3.228,30.0
47.66,0.445,3.446,4.0
59.964,0.562,3.979,11.0
80.756,0.759,4.886,4.0
81.429,0.768,4.451,9.0
41.572,0.401,3.415,44.0
41.5,0.401,3.165,33.0
60.53,0.587,4.262,7.0
59.995,0.583,3.868,11.0
78.286,0.763,4.59,8.0
81.401,0.795,4.297,16.0
41.555,0.414,3.335,20.0
47.639,0.476,3.544,7.0
41.562,0.416,2.848,16.0
59.969,0.601,3.752,13.0
78.527,0.79,4.455,8.0
81.753,0.823,4.161,6.0
41.196,0.423,3.227,39.0
41.55,0.427,3.011,11.0
60.081,0.619,4.001,13.0
80.744,0.833,4.896,8.0
81.351,0.84,4.458,9.0
78.696,0.814,3.854,7.0
41.295,0.434,3.154,34.0
41.53,0.437,2.929,33.0
67.065,0.707,4.336,11.0
80.521,0.85,4.728,12.0
81.381,0.859,4.302,5.0
98.608,1.042,4.638,16.0
41.399,0.445,3.082,31.0
41.58,0.447,2.851,23.0
67.095,0.721,4.209,7.0
78.532,0.844,4.46,6.0
70.456,0.757,3.589,5.0
98.589,1.061,4.447,17.0
41.555,0.454,3.013,14.0
60.201,0.657,4.011,21.0
74.459,0.813,4.526,9.0
81.309,0.888,4.458,6.0
78.719,0.859,3.855,9.0
70.039,0.764,3.021,16.0
41.562,0.46,2.931,13.0
60.2,0.666,3.892,18.0
80.149,0.886,4.711,9.0
82.995,0.917,4.385,3.0
98.618,1.089,4.635,24.0
98.612,1.088,4.058,22.0
41.584,0.464,2.849,30.0
71.775,0.801,4.497,2.0
78.524,0.876,4.46,3.0
70.435,0.785,3.58,7.0
98.584,1.097,4.436,19.0
98.52,1.095,3.857,18.0
60.242,0.678,4.007,17.0
74.476,0.837,4.516,3.0
70.449,0.79,3.858,2.0
78.712,0.882,3.843,8.0
70.073,0.784,3.011,17.0
69.867,0.78,2.594,10.0
60.207,0.679,3.881,12.0
80.427,0.906,4.713,6.0
98.509,1.108,5.195,7.0
98.572,1.106,4.611,27.0
98.647,1.104,4.038,22.0
69.823,0.78,2.45,12.0
74.454,0.84,4.647,7.0
74.434,0.838,4.21,2.0
70.504,0.791,3.574,5.0
70.054,0.784,3.134,11.0
98.478,1.1,3.83,17.0
98.688,1.1,3.263,20.0
80.731,0.907,4.874,2.0
70.517,0.79,3.843,2.0
98.618,1.102,4.796,11.0
70.06,0.78,2.991,12.0
69.864,0.776,2.574,14.0
98.688,1.092,3.06,24.0
0.0,0.0,0.0,0.0
98.524,1.096,5.167,10.0
98.574,1.092,4.593,26.0
98.639,1.089,4.009,21.0
98.491,1.084,3.428,16.0
98.664,1.082,2.858,24.0
78.578,0.867,4.421,2.0
78.757,0.866,3.97,6.0
70.054,0.767,3.122,11.0
98.202,1.071,3.792,17.0
98.697,1.072,3.235,21.0
98.654,1.067,2.658,22.0
81.362,0.885,4.413,6.0
98.579,1.068,4.768,14.0
98.653,1.064,4.194,16.0
69.832,0.749,2.552,9.0
98.704,1.055,3.032,23.0
98.642,1.049,2.454,22.0
98.567,1.054,5.143,10.0
98.594,1.048,4.566,14.0
98.503,1.042,3.985,15.0
69.824,0.735,2.41,13.0
98.699,1.033,2.831,24.0
98.644,1.027,2.252,26.0
70.431,0.736,3.529,7.0
70.104,0.729,3.102,7.0
98.107,1.014,3.768,22.0
98.737,1.015,3.206,19.0
98.715,1.009,2.627,23.0
98.663,1.002,2.05,23.0
70.381,0.716,3.38,5.0
98.645,0.998,4.163,15.0
69.663,0.7,2.531,7.0
98.789,0.987,3.004,27.0
98.756,0.98,2.425,15.0
98.731,0.973,1.849,16.0
70.22,0.693,3.228,7.0
97.952,0.961,3.931,23.0
69.669,0.678,2.388,10.0
98.822,0.955,2.799,16.0
104.754,1.005,2.354,18.0
104.772,0.998,1.744,16.0
104.282,0.993,4.577,9.0
104.552,0.988,3.977,22.0
104.652,0.981,3.368,23.0
104.697,0.973,2.746,43.0
104.66,0.965,2.135,7.0
104.736,0.958,1.526,20.0
97.849,0.894,4.093,23.0
104.566,0.947,3.761,17.0
104.684,0.94,3.154,38.0
104.717,0.931,2.53,16.0
99.994,0.881,1.834,5.0
104.775,0.915,1.31,15.0
69.854,0.608,2.776,12.0
69.725,0.601,2.362,13.0
104.701,0.894,2.937,33.0
101.503,0.858,2.244,1.0
100.092,0.838,1.629,4.0
104.715,0.867,1.094,7.0
69.852,0.576,2.632,9.0
104.661,0.855,3.333,21.0
104.731,0.845,2.723,30.0
100.841,0.805,2.022,1.0
100.381,0.791,1.426,3.0
104.778,0.817,0.879,16.0
69.723,0.54,2.483,21.0
104.741,0.802,3.118,25.0
104.765,0.791,2.506,31.0
101.085,0.754,1.818,1.0
100.691,0.742,1.224,3.0
97.962,0.712,0.619,8.0
104.703,0.756,3.514,22.0
104.795,0.746,2.905,22.0
104.857,0.736,2.296,21.0
101.671,0.703,1.622,1.0
104.885,0.714,1.06,15.0
91.751,0.615,0.391,2.0
111.076,0.738,3.501,16.0
111.074,0.726,2.851,30.0
111.085,0.714,2.202,29.0
111.096,0.702,1.542,5.0
104.912,0.651,0.843,20.0
86.701,0.529,0.192,4.0
111.058,0.669,3.27,30.0
111.056,0.656,2.621,29.0
111.065,0.643,1.972,33.0
111.058,0.631,1.314,28.0
104.486,0.582,0.627,3.0
42.83,0.233,0.006,0.0
111.077,0.596,3.043,26.0
111.073,0.584,2.394,25.0
111.076,0.571,1.746,30.0
111.003,0.557,1.086,20.0
90.751,0.444,0.357,2.0
0.0,0.0,0.0,0.0
111.187,0.521,2.821,15.0
111.16,0.507,2.17,22.0
111.117,0.493,1.521,26.0
110.8,0.478,0.86,8.0
88.257,0.37,0.17,1.0
0.0,0.0,0.0,0.0
119.87,0.474,2.797,13.0
119.857,0.459,2.097,51.0
111.178,0.411,1.297,15.0
94.75,0.338,0.542,3.0
0.0,0.0,0.0,0.0
49.941,0.165,-0.295,0.0
119.851,0.383,2.556,22.0
119.839,0.368,1.858,24.0
111.101,0.326,1.075,8.0
91.891,0.258,0.344,1.0
44.852,0.119,-0.093,0.0
46.346,0.117,-0.367,0.0
119.818,0.288,2.315,21.0
111.221,0.252,1.501,15.0
110.829,0.236,0.851,8.0
0.0,0.0,0.0,0.0
0.0,0.0,0.0,0.0
42.855,0.073,-0.424,1.0
117.405,0.185,2.037,6.0
111.128,0.159,1.279,21.0
103.036,0.132,0.585,3.0
73.208,0.083,-0.018,0.0
49.85,0.049,-0.303,0.0
40.178,0.034,-0.478,0.0
33.119,-3.544,0.42,89.0
33.117,-3.535,0.242,80.0
33.101,-3.526,0.064,85.0
33.087,-3.516,-0.116,81.0
33.092,-3.509,-0.294,77.0
28.844,-3.052,-0.411,22.0
33.141,-3.507,0.451,76.0
33.134,-3.497,0.273,72.0
33.126,-3.489,0.095,72.0
33.106,-3.478,-0.086,74.0
33.086,-3.468,-0.263,74.0
29.926,-3.13,-0.399,26.0
119.135,-12.463,1.733,23.0
33.104,-3.454,0.303,0.0
33.149,-3.45,0.126,4.0
33.114,-3.438,-0.055,24.0
33.11,-3.429,-0.233,52.0
30.641,-3.166,-0.381,21.0
104.644,-10.814,1.618,12.0
104.642,-10.786,1.054,10.0
79.359,-8.159,0.372,6.0
47.709,-4.892,-0.037,22.0
38.928,-3.982,-0.239,14.0
0.0,0.0,0.0,0.0
135.389,-13.814,2.213,151.0
111.507,-11.346,1.222,6.0
83.75,-8.498,0.467,4.0
48.588,-4.918,0.004,19.0
41.558,-4.195,-0.22,16.0
35.253,-3.549,-0.376,15.0
135.439,-13.637,2.332,150.0
111.678,-11.214,1.32,8.0
84.086,-8.419,0.54,8.0
51.217,-5.114,0.048,22.0
43.085,-4.291,-0.192,17.0
35.836,-3.559,-0.352,17.0
135.473,-13.456,2.444,96.0
118.983,-11.783,1.504,5.0
84.843,-8.378,0.614,6.0
54.483,-5.365,0.095,2.0
44.632,-4.382,-0.162,19.0
37.102,-3.632,-0.335,16.0
135.499,-13.267,2.553,72.0
119.07,-11.624,1.601,10.0
89.185,-8.68,0.718,4.0
55.606,-5.396,0.141,0.0
46.074,-4.458,-0.131,20.0
38.054,-3.671,-0.313,14.0
119.246,-11.503,2.341,27.0
119.116,-11.455,1.694,13.0
110.893,-10.632,0.978,6.0
71.735,-6.856,0.238,4.0
47.511,-4.527,-0.099,21.0
38.594,-3.667,-0.289,14.0
193.159,-18.352,3.935,13.0
119.175,-11.286,1.784,14.0
111.305,-10.507,1.064,13.0
78.275,-7.365,0.317,1.0
48.502,-4.549,-0.065,12.0
40.259,-3.764,-0.272,16.0
119.249,-11.15,2.516,8.0
135.553,-12.633,2.127,150.0
111.541,-10.36,1.146,14.0
83.006,-7.684,0.395,5.0
51.054,-4.71,-0.033,24.0
41.446,-3.812,-0.251,16.0
119.267,-10.969,2.599,30.0
72.774,-6.669,1.191,29.0
114.685,-10.474,1.256,6.0
85.003,-7.737,0.463,11.0
51.631,-4.683,0.001,7.0
0.0,0.0,0.0,0.0
135.639,-12.262,3.046,150.0
119.252,-10.742,2.031,22.0
114.549,-10.281,1.33,8.0
85.528,-7.649,0.521,14.0
54.833,-4.886,0.037,3.0
44.544,-3.956,-0.211,19.0
135.678,-12.046,3.134,78.0
135.672,-12.0,2.398,112.0
119.126,-10.499,1.459,12.0
86.289,-7.577,0.579,11.0
57.91,-5.066,0.074,1.0
0.0,0.0,0.0,0.0
119.245,-10.393,2.827,24.0
119.243,-10.352,2.179,64.0
119.124,-10.302,1.529,17.0
87.561,-7.544,0.64,7.0
67.469,-5.791,0.126,6.0
47.541,-4.065,-0.168,21.0
72.724,-6.217,1.766,10.0
119.322,-10.161,2.248,53.0
119.185,-10.109,1.598,19.0
93.98,-7.941,0.739,3.0
67.815,-5.707,0.164,4.0
0.0,0.0,0.0,0.0
35.051,1.204,-0.512,0.0
29.219,1.01,-0.595,0.0
25.139,0.874,-0.656,0.0
22.243,0.778,-0.711,0.0
19.884,0.7,-0.75,0.0
17.866,0.633,-0.777,0.0
33.155,1.182,-0.537,0.0
27.869,0.999,-0.612,0.0
24.348,0.877,-0.674,0.0
21.466,0.778,-0.72,0.0
18.887,0.688,-0.742,0.0
17.291,0.634,-0.779,0.0
31.818,1.174,-0.567,0.0
26.7,0.99,-0.629,0.0
23.539,0.878,-0.69,0.0
20.549,0.77,-0.723,0.0
18.358,0.692,-0.752,0.0
16.847,0.638,-0.787,0.0
0.0,0.0,0.0,0.0
26.011,0.996,-0.655,0.0
22.611,0.87,-0.699,0.0
20.019,0.774,-0.736,0.0
18.045,0.701,-0.768,0.0
16.438,0.642,-0.794,0.0
28.742,1.128,-0.605,0.0
24.792,0.978,-0.665,0.0
21.672,0.859,-0.706,0.0
19.428,0.774,-0.747,0.0
17.489,0.7,-0.773,0.0
15.987,0.643,-0.799,0.0
27.203,1.099,-0.618,0.0
23.671,0.961,-0.674,0.0
21.078,0.86,-0.722,0.0
18.813,0.771,-0.755,0.0
17.001,0.7,-0.78,0.0
15.589,0.645,-0.805,0.0
26.214,1.088,-0.639,0.0
22.951,0.957,-0.692,0.0
20.447,0.856,-0.734,0.0
18.231,0.767,-0.762,0.0
16.671,0.704,-0.793,0.0
15.203,0.645,-0.811,0.0
25.245,1.075,-0.658,0.0
22.109,0.945,-0.703,0.0
19.73,0.847,-0.742,0.0
17.8,0.767,-0.773,0.0
16.109,0.697,-0.793,0.0
14.83,0.644,-0.816,0.0
24.17,1.054,-0.671,0.0
21.419,0.938,-0.718,0.0
19.012,0.835,-0.747,0.0
17.206,0.759,-0.777,0.0
15.718,0.696,-0.8,0.0
14.408,0.641,-0.817,0.0
23.32,1.04,-0.687,0.0
20.558,0.92,-0.724,0.0
18.396,0.826,-0.754,0.0
16.719,0.754,-0.783,0.0
15.399,0.697,-0.811,0.0
14.283,0.649,-0.834,0.0
22.518,1.026,-0.702,0.0
19.883,0.909,-0.734,0.0
17.932,0.823,-0.766,0.0
16.227,0.747,-0.788,0.0
14.896,0.688,-0.81,0.0
13.82,0.641,-0.831,0.0
21.553,1.002,-0.709,0.0
19.495,0.909,-0.753,0.0
17.344,0.811,-0.77,0.0
15.878,0.745,-0.799,0.0
14.508,0.683,-0.814,0.0
13.563,0.641,-0.839,0.0
20.755,0.983,-0.718,0.0
18.78,0.892,-0.758,0.0
16.873,0.804,-0.779,0.0
15.456,0.738,-0.804,0.0
14.313,0.686,-0.827,0.0
13.231,0.636,-0.842,0.0
20.063,0.966,-0.729,0.0
18.062,0.872,-0.76,0.0
16.387,0.794,-0.784,0.0
15.071,0.732,-0.81,0.0
13.945,0.68,-0.83,0.0
12.971,0.634,-0.848,0.0
19.466,0.953,-0.741,0.0
17.564,0.862,-0.77,0.0
16.099,0.792,-0.798,0.0
14.664,0.724,-0.814,0.0
13.64,0.675,-0.836,0.0
12.577,0.624,-0.844,0.0
18.882,0.938,-0.751,0.0
17.03,0.849,-0.776,0.0
15.599,0.779,-0.8,0.0
14.327,0.718,-0.819,0.0
13.417,0.674,-0.845,0.0
12.371,0.623,-0.851,0.0
70.137,1.039,2.275,5.0
98.582,1.485,2.678,19.0
189.648,2.905,4.155,23.0
91.976,1.431,1.521,24.0
91.917,1.453,1.036,36.0
91.803,1.473,0.55,16.0
70.035,1.142,2.377,5.0
91.934,1.522,2.636,16.0
91.908,1.544,2.15,34.0
91.853,1.567,1.656,44.0
91.875,1.59,1.172,34.0
91.859,1.612,0.686,27.0
91.905,1.638,3.256,11.0
91.837,1.659,2.768,34.0
91.8,1.682,2.283,34.0
88.618,1.645,1.726,1.0
87.566,1.648,1.243,11.0
91.944,1.755,0.821,15.0
91.643,1.774,3.379,26.0
91.808,1.8,2.899,36.0
91.873,1.824,2.416,16.0
87.128,1.752,1.821,55.0
85.408,1.74,1.334,24.0
85.331,1.761,0.882,33.0
85.319,1.784,3.268,17.0
85.309,1.806,2.815,33.0
85.301,1.828,2.363,36.0
85.27,1.85,1.903,41.0
85.237,1.872,1.451,36.0
85.258,1.894,1.001,40.0
85.311,1.919,3.386,13.0
85.272,1.941,2.932,29.0
85.231,1.962,2.479,37.0
85.252,1.984,2.019,38.0
85.258,2.006,1.567,35.0
85.267,2.029,1.115,34.0
85.358,2.057,3.504,23.0
78.848,1.921,2.818,22.0
85.347,2.102,2.597,26.0
85.33,2.124,2.135,16.0
120.054,3.019,2.366,19.0
79.0,2.007,1.137,21.0
78.837,2.027,3.339,30.0
78.838,2.048,2.92,32.0
78.871,2.069,2.502,25.0
78.87,2.09,2.074,33.0
78.868,2.111,1.655,34.0
78.86,2.132,1.236,30.0
78.813,2.156,3.441,32.0
78.811,2.176,3.02,25.0
78.807,2.196,2.6,29.0
78.81,2.216,2.171,26.0
76.794,2.18,1.707,3.0
76.06,2.18,1.287,5.0
115.861,3.36,5.203,19.0
117.808,3.448,4.662,12.0
78.856,2.328,2.699,30.0
78.914,2.351,2.272,25.0
74.855,2.25,1.756,6.0
74.228,2.251,1.346,4.0
116.23,3.564,5.36,9.0
78.775,2.436,3.212,5.0
190.71,5.949,6.756,20.0
211.138,6.644,6.332,19.0
119.977,3.807,2.957,20.0
72.48,2.319,1.399,24.0
72.443,2.343,3.426,23.0
72.458,2.362,3.039,36.0
72.451,2.381,2.65,38.0
72.435,2.4,2.255,38.0
72.41,2.419,1.867,38.0
72.368,2.438,1.48,35.0
72.329,2.461,3.503,23.0
72.396,2.483,3.119,39.0
72.398,2.502,2.73,40.0
72.392,2.522,2.335,37.0
72.398,2.541,1.947,36.0
72.37,2.56,1.559,30.0
72.38,2.586,3.586,14.0
72.447,2.608,3.2,30.0
72.456,2.627,2.811,26.0
72.471,2.647,2.415,24.0
72.532,2.669,2.028,19.0
120.107,4.454,2.716,20.0
66.032,2.472,3.341,42.0
66.245,2.498,2.996,22.0
66.246,2.516,2.64,4.0
190.721,7.296,6.556,27.0
195.214,7.522,5.663,20.0
120.07,4.659,2.838,11.0
78.566,3.077,4.056,11.0
66.204,2.611,3.062,16.0
66.124,2.625,2.702,28.0
66.134,2.644,2.34,23.0
194.915,7.845,5.848,12.0
120.126,4.869,2.958,22.0
65.696,2.687,3.458,42.0
52.75,2.172,2.491,23.0
66.001,2.735,2.761,16.0
66.02,2.754,2.4,34.0
66.05,2.773,2.044,33.0
66.061,2.792,1.689,28.0
65.851,2.809,3.529,28.0
65.946,2.832,3.178,11.0
52.797,2.281,2.258,26.0
66.038,2.871,2.462,23.0
66.065,2.89,2.107,25.0
63.329,2.788,1.678,12.0
64.498,2.866,3.515,13.0
65.889,2.945,3.235,13.0
52.772,2.373,2.305,25.0
52.825,2.389,2.016,12.0
0.0,0.0,0.0,0.0
61.872,2.833,1.694,6.0
59.466,2.747,3.294,18.0
59.544,2.766,2.975,14.0
52.617,2.459,2.344,16.0
189.917,8.929,7.414,15.0
0.0,0.0,0.0,0.0
127.133,6.046,3.586,2.0
41.71,2.001,2.345,30.0
59.467,2.869,3.021,17.0
59.479,2.885,2.698,16.0
52.49,2.56,2.091,11.0
0.0,0.0,0.0,0.0
125.061,6.169,3.629,2.0
41.669,2.073,2.376,22.0
52.567,2.629,2.712,21.0
59.381,2.985,2.74,17.0
59.416,3.002,2.413,26.0
59.444,3.019,2.091,30.0
59.433,3.035,1.768,26.0
41.669,2.146,2.407,34.0
59.364,3.073,3.106,9.0
59.383,3.089,2.784,15.0
59.389,3.105,2.455,28.0
59.403,3.122,2.133,40.0
59.398,3.138,1.809,41.0
41.181,2.194,2.408,46.0
59.342,3.177,3.146,7.0
52.951,2.848,2.519,27.0
59.472,3.214,2.499,28.0
59.476,3.23,2.175,21.0
59.453,3.245,1.851,21.0
41.355,2.276,2.446,45.0
41.951,2.32,2.252,26.0
52.519,2.917,2.533,7.0
119.701,6.682,5.109,31.0
119.689,6.714,4.455,34.0
119.707,6.748,3.803,22.0
41.541,2.361,2.484,36.0
52.58,3.002,2.856,13.0
52.379,3.004,2.559,6.0
53.186,3.064,2.302,4.0
118.736,6.874,4.492,8.0
115.523,6.718,3.74,13.0
41.549,2.436,2.509,14.0
41.651,2.453,2.287,36.0
52.241,3.09,2.582,6.0
115.437,6.859,5.064,20.0
115.463,6.891,4.434,36.0
115.487,6.923,3.804,32.0
41.518,2.509,2.531,39.0
41.548,2.521,2.304,35.0
53.24,3.244,2.661,2.0
111.065,6.797,4.932,13.0
111.051,6.826,4.322,56.0
50.905,3.142,1.702,11.0
41.543,2.584,2.553,29.0
41.525,2.594,2.324,39.0
52.355,3.283,2.642,25.0
94.419,5.945,4.238,5.0
110.979,7.017,4.373,22.0
50.222,3.188,1.703,5.0
52.242,3.342,3.236,8.0
41.625,2.673,2.349,44.0
52.259,3.37,2.662,40.0
52.28,3.384,2.37,34.0
52.306,3.4,2.084,35.0
49.66,3.24,1.706,15.0
41.775,2.746,2.605,29.0
52.229,3.447,2.969,11.0
52.251,3.461,2.683,36.0
52.226,3.472,2.388,45.0
52.224,3.485,2.101,49.0
48.996,3.283,1.702,14.0
41.724,2.817,2.618,39.0
41.725,2.827,2.388,32.0
52.271,3.554,2.703,25.0
52.244,3.565,2.409,30.0
52.237,3.578,2.12,38.0
48.257,3.318,1.693,9.0
41.762,2.892,2.635,31.0
41.68,2.897,2.4,42.0
52.397,3.655,2.727,26.0
52.346,3.664,2.43,8.0
52.342,3.676,2.141,10.0
47.297,3.333,1.674,18.0
42.015,2.983,2.664,28.0
41.665,2.968,2.411,31.0
80.843,5.779,4.231,14.0
71.746,5.146,3.351,22.0
71.205,5.125,2.932,13.0
102.077,7.372,3.641,40.0
41.991,3.055,2.673,39.0
78.391,5.721,4.557,13.0
80.914,5.924,4.256,21.0
90.22,6.627,4.236,12.0
71.323,5.256,2.954,8.0
101.981,7.54,3.661,32.0
46.044,3.429,2.942,1.0
0.0,0.0,0.0,0.0
74.237,5.563,3.919,9.0
71.637,5.385,3.378,14.0
71.501,5.391,2.975,15.0
101.991,7.716,3.679,38.0
45.954,3.501,2.945,41.0
46.027,3.517,2.693,4.0
71.909,5.513,3.809,10.0
71.686,5.512,3.391,15.0
71.844,5.541,3.0,9.0
101.353,7.842,3.671,14.0
45.92,3.577,2.949,15.0
45.908,3.587,2.692,15.0
45.937,3.599,2.439,14.0
45.92,3.608,2.178,26.0
45.944,3.621,1.924,29.0
45.928,3.63,1.668,33.0
45.827,3.647,2.948,26.0
45.831,3.657,2.692,29.0
45.842,3.668,2.438,39.0
45.817,3.677,2.177,33.0
45.83,3.689,1.922,38.0
45.835,3.699,1.668,41.0
45.724,3.716,2.944,36.0
45.781,3.73,2.692,39.0
45.81,3.742,2.438,41.0
45.794,3.751,2.177,39.0
45.799,3.761,1.923,42.0
45.805,3.772,1.668,38.0
45.737,3.792,2.945,10.0
45.768,3.804,2.692,42.0
45.808,3.818,2.438,41.0
45.809,3.827,2.178,39.0
45.82,3.838,1.923,34.0
45.826,3.849,1.668,30.0
45.769,3.869,2.947,38.0
45.823,3.883,2.694,32.0
45.876,3.898,2.44,26.0
45.89,3.908,2.18,26.0
45.94,3.923,1.926,12.0
45.92,3.931,1.669,11.0
45.805,3.947,2.946,11.0
45.87,3.962,2.693,18.0
79.004,6.841,4.197,38.0
86.095,7.472,4.084,11.0
93.039,8.095,3.893,43.0
93.102,8.12,3.375,57.0
41.85,3.673,2.688,24.0
72.39,6.368,4.243,16.0
85.437,7.534,4.529,22.0
85.871,7.59,4.062,35.0
93.176,8.255,3.887,16.0
93.135,8.271,3.364,14.0
55.796,4.986,3.575,24.0
84.993,7.612,4.97,15.0
84.636,7.597,4.474,36.0
85.603,7.7,4.036,29.0
93.039,8.388,3.866,25.0
93.024,8.406,3.345,15.0
44.577,4.052,2.849,11.0
72.472,6.603,4.224,11.0
84.847,7.747,4.469,44.0
85.692,7.841,4.024,22.0
93.039,8.532,3.847,27.0
93.005,8.548,3.324,10.0
44.572,4.121,2.839,16.0
84.691,7.846,4.918,25.0
84.736,7.867,4.443,34.0
92.754,8.629,4.333,14.0
92.572,8.63,3.806,16.0
92.373,8.63,3.279,2.0
44.554,4.187,2.826,6.0
73.551,6.926,4.252,18.0
85.145,8.033,4.442,12.0
91.982,8.695,4.272,16.0
91.792,8.694,3.748,19.0
89.942,8.536,3.168,1.0
72.758,6.947,4.594,29.0
72.972,6.98,4.196,32.0
73.362,7.03,3.806,23.0
91.225,8.758,4.209,15.0
91.053,8.759,3.689,14.0
89.345,8.611,3.118,11.0
72.838,7.061,4.576,19.0
72.975,7.086,4.173,33.0
90.73,8.826,4.676,13.0
90.593,8.829,4.15,7.0
88.737,8.663,3.565,11.0
88.674,8.673,3.064,9.0
73.021,7.183,4.562,23.0
73.098,7.202,4.153,22.0
88.517,8.736,4.529,15.0
88.532,8.754,4.022,30.0
88.558,8.771,3.523,26.0
87.924,8.725,3.003,3.0
73.275,7.311,4.548,18.0
88.535,8.848,4.995,33.0
88.545,8.864,4.494,20.0
88.548,8.879,3.985,37.0
88.546,8.894,3.486,26.0
87.327,8.787,2.945,3.0
58.182,5.886,3.586,18.0
88.558,8.972,4.957,37.0
88.539,8.985,4.455,28.0
88.477,8.993,3.942,20.0
88.379,8.998,3.439,8.0
86.759,8.849,2.886,8.0
58.118,5.958,3.555,10.0
88.206,9.057,4.895,18.0
88.057,9.055,4.388,19.0
87.881,9.051,3.874,21.0
86.323,8.904,3.317,1.0
86.127,8.899,2.823,11.0
58.289,6.053,3.536,20.0
87.608,9.111,4.817,20.0
87.474,9.109,4.315,20.0
87.338,9.109,3.805,19.0
85.677,8.949,3.247,10.0
85.533,8.947,2.759,11.0
42.719,4.491,2.569,3.0
87.058,9.165,4.741,18.0
86.933,9.165,4.24,26.0
86.856,9.169,3.736,14.0
84.186,8.9,3.145,29.0
84.174,8.912,2.668,43.0
42.728,4.546,2.544,24.0
84.129,8.962,4.533,25.0
84.126,8.974,4.055,59.0
84.139,8.987,3.57,59.0
84.153,9.001,3.094,56.0
84.179,9.016,2.618,32.0
42.786,4.604,2.523,33.0
54.679,5.891,2.913,19.0
84.26,9.09,4.011,17.0
84.211,9.096,3.522,17.0
84.109,9.097,3.041,10.0
84.045,9.103,2.562,5.0
42.759,4.653,2.494,14.0
84.086,9.16,4.427,11.0
84.043,9.166,3.947,19.0
84.014,9.174,3.46,8.0
83.65,9.146,2.971,4.0
83.475,9.138,2.491,8.0
42.769,4.703,2.467,11.0
54.679,6.019,2.842,13.0
84.07,9.265,3.893,25.0
83.573,9.222,3.385,2.0
83.076,9.178,2.894,3.0
83.007,9.182,2.42,12.0
84.061,9.339,4.79,24.0
84.074,9.351,4.312,36.0
84.073,9.361,3.833,32.0
82.687,9.216,3.292,5.0
82.61,9.219,2.819,8.0
82.565,9.225,2.348,12.0
84.021,9.427,4.727,22.0
83.998,9.434,4.247,24.0
83.866,9.429,3.763,24.0
82.21,9.252,3.212,3.0
82.179,9.259,2.743,12.0
82.138,9.265,2.275,12.0
54.612,6.185,3.031,13.0
83.542,9.471,4.16,24.0
83.48,9.473,3.682,22.0
81.872,9.3,3.136,3.0
81.83,9.305,2.669,10.0
81.729,9.304,2.2,12.0
54.615,6.242,2.989,16.0
83.099,9.506,4.073,17.0
83.054,9.509,3.597,9.0
81.41,9.329,3.054,5.0
81.391,9.336,2.591,12.0
81.343,9.34,2.125,12.0
54.553,6.288,2.942,12.0
82.694,9.539,3.988,18.0
81.2,9.374,3.452,4.0
67.759,7.829,2.488,6.0
67.714,7.832,2.1,11.0
67.585,7.825,1.711,16.0
67.657,7.862,3.593,9.0
67.541,7.854,3.201,12.0
66.384,7.726,2.767,14.0
66.327,7.726,2.379,28.0
66.324,7.732,2.001,40.0
66.317,7.738,1.624,60.0
66.303,7.764,3.465,38.0
66.305,7.77,3.085,51.0
66.296,7.774,2.707,62.0
66.288,7.78,2.321,71.0
66.299,7.787,1.943,71.0
66.319,7.797,1.566,67.0
66.3,7.821,3.407,71.0
66.302,7.826,3.027,58.0
66.297,7.832,2.647,45.0
66.306,7.838,2.263,39.0
66.351,7.85,1.885,26.0
66.462,7.87,1.509,19.0
66.325,7.879,3.348,31.0
66.413,7.894,2.972,21.0
66.467,7.906,2.595,20.0
66.445,7.908,2.207,18.0
66.376,7.906,1.826,13.0
66.296,7.903,1.445,16.0
66.362,7.935,3.288,16.0
66.319,7.934,2.906,16.0
66.239,7.93,2.524,18.0
66.146,7.924,2.135,16.0
66.093,7.923,1.756,16.0
66.007,7.918,1.377,15.0
66.076,7.95,3.212,14.0
66.018,7.947,2.831,14.0
65.946,7.943,2.45,15.0
65.872,7.939,2.064,16.0
65.789,7.934,1.685,16.0
65.743,7.934,1.308,14.0
65.821,7.965,3.136,13.0
65.759,7.961,2.756,13.0
65.673,7.955,2.376,16.0
65.605,7.951,1.992,16.0
65.548,7.949,1.615,17.0
65.467,7.944,1.24,15.0
65.553,7.976,3.059,11.0
65.494,7.972,2.681,14.0
65.422,7.967,2.303,15.0
65.352,7.962,1.92,15.0
65.278,7.958,1.544,17.0
65.234,7.957,1.17,16.0
65.319,7.988,2.982,12.0
65.279,7.985,2.606,15.0
65.191,7.978,2.229,17.0
65.134,7.975,1.847,17.0
65.084,7.973,1.473,16.0
65.01,7.968,1.1,15.0
65.136,8.003,2.907,14.0
65.065,7.996,2.53,15.0
64.984,7.99,2.154,16.0
64.931,7.986,1.774,18.0
64.877,7.983,1.402,16.0
64.807,7.979,1.029,16.0
64.903,8.008,2.828,13.0
64.878,8.007,2.455,16.0
64.783,7.998,2.081,14.0
64.744,7.996,1.701,16.0
64.663,7.99,1.329,16.0
64.61,7.987,0.958,18.0
64.712,8.016,2.752,13.0
64.654,8.01,2.379,9.0
64.587,8.004,2.007,15.0
64.526,7.999,1.628,18.0
64.487,7.998,1.257,19.0
64.443,7.995,0.888,18.0
64.538,8.022,2.676,14.0
64.489,8.018,2.303,13.0
64.439,8.014,1.932,18.0
64.4,8.011,1.555,19.0
64.331,8.005,1.186,17.0
64.3,8.004,0.817,17.0
64.416,8.033,2.601,14.0
64.36,8.027,2.23,15.0
64.294,8.02,1.858,16.0
64.252,8.017,1.482,18.0
64.196,8.012,1.113,17.0
64.152,8.009,0.745,16.0
64.257,8.035,2.525,13.0
64.228,8.032,2.154,14.0
64.158,8.024,1.784,16.0
64.117,8.021,1.409,17.0
64.048,8.014,1.041,19.0
64.045,8.016,0.674,16.0
64.149,8.04,2.449,15.0
64.129,8.038,2.08,15.0
64.068,8.032,1.711,15.0
64.018,8.027,1.336,18.0
63.957,8.021,0.969,16.0
63.919,8.018,0.602,19.0
64.056,8.045,2.375,14.0
64.002,8.038,2.006,14.0
63.962,8.034,1.638,15.0
63.922,8.03,1.263,17.0
63.87,8.025,0.895,17.0
63.859,8.025,0.53,18.0
63.957,8.046,2.3,14.0
63.901,8.039,1.931,13.0
63.88,8.036,1.563,17.0
63.852,8.033,1.191,17.0
63.818,8.03,0.823,16.0
63.788,8.027,0.458,18.0
63.905,8.05,2.225,15.0
63.885,8.046,1.858,16.0
63.835,8.04,1.49,18.0
63.801,8.036,1.117,18.0
63.781,8.034,0.752,15.0
63.745,8.031,0.386,19.0
63.857,8.051,2.152,15.0
63.821,8.045,1.784,14.0
63.814,8.044,1.418,16.0
63.764,8.038,1.045,18.0
63.715,8.032,0.679,16.0
63.715,8.032,0.313,20.0
63.825,8.051,2.078,15.0
63.802,8.047,1.711,14.0
63.769,8.042,1.345,16.0
63.738,8.038,0.972,19.0
63.714,8.035,0.606,17.0
63.69,8.032,0.241,19.0
63.814,8.051,2.005,15.0
63.78,8.045,1.637,15.0
63.766,8.042,1.27,16.0
63.742,8.039,0.898,19.0
63.716,8.035,0.532,17.0
63.679,8.03,0.167,16.0
63.809,8.049,1.93,15.0
63.807,8.047,1.564,16.0
63.776,8.041,1.197,17.0
63.722,8.033,0.824,19.0
63.726,8.033,0.459,18.0
63.709,8.031,0.093,13.0
63.846,8.049,1.857,15.0
63.812,8.042,1.49,17.0
63.795,8.038,1.124,18.0
63.766,8.033,0.751,17.0
63.748,8.03,0.385,19.0
63.729,8.027,0.019,11.0
63.876,8.045,1.785,14.0
63.866,8.041,1.418,17.0
63.831,8.035,1.051,17.0
63.808,8.03,0.679,18.0
63.796,8.027,0.313,21.0
63.731,8.018,-0.052,5.0
63.953,8.044,1.714,14.0
63.917,8.037,1.346,18.0
63.901,8.032,0.979,16.0
63.871,8.027,0.607,17.0
63.885,8.026,0.24,19.0
62.687,7.875,-0.122,4.0
64.015,8.039,1.643,16.0
63.985,8.031,1.275,18.0
63.966,8.026,0.907,17.0
63.952,8.022,0.534,18.0
63.92,8.016,0.167,12.0
45.65,5.724,-0.141,12.0
64.083,8.031,1.57,17.0
64.071,8.025,1.202,16.0
64.056,8.021,0.835,17.0
64.054,8.018,0.461,18.0
64.04,8.013,0.095,8.0
0.0,0.0,0.0,0.0
64.209,8.027,1.5,16.0
64.189,8.021,1.132,17.0
64.185,8.017,0.764,16.0
64.151,8.009,0.389,17.0
64.156,8.007,0.022,8.0
41.948,5.234,-0.225,17.0
64.339,8.021,1.43,17.0
64.34,8.017,1.061,17.0
64.329,8.011,0.692,18.0
64.3,8.004,0.317,20.0
64.257,7.996,-0.05,5.0
41.037,5.105,-0.267,17.0
64.462,8.011,1.359,19.0
64.457,8.005,0.99,20.0
64.448,8.0,0.62,22.0
64.454,7.997,0.244,21.0
64.036,7.942,-0.123,5.0
39.95,4.953,-0.305,16.0
64.621,8.002,1.29,16.0
64.619,7.997,0.919,19.0
64.607,7.99,0.549,18.0
64.584,7.983,0.172,10.0
45.73,5.65,-0.139,15.0
39.434,4.87,-0.345,15.0
64.811,7.994,1.221,17.0
64.787,7.986,0.849,18.0
64.798,7.982,0.479,19.0
64.724,7.968,0.101,10.0
0.0,0.0,0.0,0.0
39.041,4.802,-0.385,14.0
64.983,7.981,1.153,16.0
64.99,7.976,0.78,18.0
65.001,7.972,0.408,20.0
64.958,7.962,0.03,13.0
41.991,5.144,-0.221,16.0
38.654,4.732,-0.425,12.0
65.198,7.969,1.084,15.0
65.193,7.963,0.71,19.0
65.215,7.96,0.337,20.0
65.191,7.952,-0.042,10.0
40.934,4.99,-0.26,16.0
38.508,4.691,-0.466,8.0
65.423,7.955,1.015,15.0
65.427,7.95,0.64,15.0
65.452,7.947,0.266,22.0
65.303,7.923,-0.113,3.0
40.082,4.86,-0.298,16.0
38.528,4.669,-0.507,8.0
65.672,7.942,0.948,16.0
65.696,7.939,0.572,17.0
65.71,7.934,0.197,11.0
45.64,5.506,-0.128,5.0
39.41,4.752,-0.336,32.0
38.557,4.646,-0.549,7.0
65.962,7.93,0.881,14.0
65.971,7.924,0.504,17.0
65.978,7.919,0.127,8.0
45.45,5.45,-0.176,13.0
39.185,4.695,-0.376,14.0
38.572,4.619,-0.591,1.0
66.235,7.913,0.815,16.0
66.249,7.907,0.437,15.0
66.248,7.901,0.058,11.0
0.0,0.0,0.0,0.0
38.857,4.626,-0.413,14.0
34.463,4.1,-0.563,0.0
66.524,7.895,0.75,15.0
66.558,7.892,0.37,14.0
66.551,7.883,-0.009,9.0
40.933,4.844,-0.243,17.0
38.606,4.565,-0.45,9.0
32.467,3.836,-0.564,0.0
66.345,7.818,0.679,50.0
66.338,7.809,0.301,42.0
66.35,7.803,-0.077,30.0
40.174,4.72,-0.28,31.0
38.64,4.536,-0.49,9.0
30.722,3.603,-0.565,0.0
66.334,7.758,0.612,74.0
66.339,7.751,0.234,63.0
66.338,7.743,-0.144,28.0
39.752,4.635,-0.317,39.0
38.649,4.502,-0.528,8.0
30.449,3.544,-0.59,1.0
66.387,7.703,0.546,24.0
66.402,7.696,0.168,23.0
45.543,5.273,-0.143,8.0
39.335,4.549,-0.353,15.0
38.701,4.471,-0.567,3.0
29.254,3.377,-0.596,0.0
81.261,9.351,0.589,9.0
81.064,9.317,0.126,11.0
45.552,5.229,-0.188,4.0
39.093,4.483,-0.388,14.0
38.626,4.425,-0.604,0.0
28.553,3.268,-0.609,0.0
81.632,9.312,0.514,9.0
67.223,7.659,0.041,5.0
0.0,0.0,0.0,0.0
38.769,4.406,-0.421,9.0
32.638,3.705,-0.541,0.0
27.873,3.161,-0.621,0.0
82.042,9.272,0.44,5.0
67.188,7.584,-0.022,10.0
40.508,4.567,-0.243,15.0
38.748,4.363,-0.457,9.0
31.523,3.545,-0.551,0.0
27.184,3.054,-0.63,0.0
80.044,8.96,0.356,10.0
65.699,7.344,-0.081,5.0
40.221,4.49,-0.279,27.0
38.759,4.321,-0.493,9.0
31.167,3.471,-0.573,1.0
26.551,2.953,-0.639,0.0
40.534,3.571,-0.29,16.0
39.765,3.494,-0.508,1.0
31.146,2.729,-0.572,0.0
26.601,2.325,-0.641,0.0
23.193,2.022,-0.688,0.0
20.687,1.799,-0.73,0.0
40.494,3.499,-0.306,16.0
36.858,3.176,-0.485,1.0
31.006,2.664,-0.582,0.0
26.316,2.255,-0.644,0.0
22.979,1.964,-0.691,0.0
20.52,1.749,-0.732,0.0
40.344,3.418,-0.32,15.0
36.74,3.103,-0.497,1.0
30.628,2.58,-0.586,0.0
26.186,2.2,-0.65,0.0
22.89,1.917,-0.697,0.0
20.307,1.696,-0.732,0.0
40.362,3.349,-0.334,12.0
35.474,2.935,-0.492,1.0
30.169,2.489,-0.587,0.0
25.964,2.136,-0.653,0.0
22.762,1.867,-0.7,0.0
20.221,1.654,-0.735,0.0
40.45,3.286,-0.347,8.0
35.247,2.855,-0.499,1.0
29.921,2.416,-0.591,0.0
25.753,2.073,-0.655,0.0
22.605,1.814,-0.701,0.0
20.217,1.618,-0.74,0.0
40.489,3.218,-0.358,6.0
35.136,2.784,-0.507,1.0
29.782,2.352,-0.596,0.0
25.496,2.007,-0.655,0.0
22.534,1.769,-0.705,0.0
20.067,1.57,-0.739,0.0
40.6,3.155,-0.369,5.0
35.176,2.724,-0.515,1.0
29.729,2.295,-0.601,0.0
25.422,1.956,-0.658,0.0
22.465,1.723,-0.707,0.0
19.989,1.528,-0.74,0.0
40.796,3.096,-0.379,4.0
35.123,2.656,-0.521,0.0
29.324,2.21,-0.598,0.0
25.333,1.903,-0.661,0.0
22.329,1.672,-0.706,0.0
19.951,1.489,-0.742,0.0
41.145,3.048,-0.388,2.0
35.023,2.585,-0.525,0.0
29.139,2.143,-0.599,0.0
25.399,1.861,-0.666,0.0
22.123,1.616,-0.703,0.0
19.893,1.448,-0.743,0.0
41.622,3.007,-0.398,2.0
34.664,2.495,-0.524,0.0
29.329,2.103,-0.606,0.0
25.098,1.793,-0.66,0.0
22.256,1.584,-0.709,0.0
19.755,1.401,-0.739,0.0
42.261,2.974,-0.408,8.0
35.239,2.47,-0.535,0.0
29.119,2.033,-0.604,0.0
25.13,1.748,-0.663,0.0
22.305,1.545,-0.712,0.0
19.77,1.364,-0.741,0.0
43.009,2.945,-0.417,1.0
0.0,0.0,0.0,0.0
0.0,0.0,0.0,0.0
25.031,1.693,-0.661,0.0
22.313,1.504,-0.713,0.0
19.804,1.329,-0.742,0.0
43.672,2.908,-0.424,2.0
34.917,2.315,-0.532,0.0
0.0,0.0,0.0,0.0
25.177,1.656,-0.664,0.0
22.219,1.455,-0.709,0.0
19.681,1.284,-0.737,0.0
44.287,2.865,-0.428,2.0
34.492,2.222,-0.524,0.0
0.0,0.0,0.0,0.0
25.262,1.613,-0.666,0.0
22.22,1.412,-0.708,0.0
19.681,1.246,-0.736,1.0
44.942,2.821,-0.431,0.0
35.315,2.206,-0.534,0.0
0.0,0.0,0.0,0.0
25.1,1.554,-0.659,0.0
22.306,1.375,-0.709,0.0
19.933,1.223,-0.743,0.0
45.688,2.78,-0.434,0.0
35.221,2.133,-0.528,1.0
29.169,1.758,-0.598,0.0
25.328,1.519,-0.662,0.0
22.42,1.339,-0.709,0.0
19.992,1.188,-0.743,0.0
42.285,2.491,-0.395,0.0
35.309,2.07,-0.524,1.0
29.63,1.728,-0.603,0.0
25.491,1.48,-0.662,0.0
22.616,1.306,-0.711,0.0
20.056,1.152,-0.741,0.0
0.0,0.0,0.0,0.0
35.62,2.018,-0.522,0.0
28.319,1.596,-0.571,0.0
25.427,1.426,-0.655,0.0
22.68,1.265,-0.709,0.0
20.122,1.117,-0.739,0.0
42.536,2.339,-0.38,0.0
35.783,1.957,-0.516,0.0
29.711,1.617,-0.592,0.0
25.721,1.392,-0.656,0.0
22.663,1.22,-0.702,0.0
20.256,1.084,-0.739,0.0
42.556,2.258,-0.369,0.0
35.702,1.883,-0.505,0.0
0.0,0.0,0.0,0.0
26.011,1.357,-0.656,0.0
22.74,1.179,-0.698,0.0
20.325,1.048,-0.736,0.0
43.823,2.238,-0.367,0.0
36.542,1.856,-0.506,0.0
30.184,1.524,-0.583,0.0
26.169,1.313,-0.652,0.0
22.961,1.145,-0.697,0.0
20.466,1.015,-0.734,0.0
0.0,0.0,0.0,0.0
37.074,1.81,-0.5,0.0
0.0,0.0,0.0,0.0
26.42,1.274,-0.648,0.0
23.071,1.106,-0.692,0.0
20.546,0.978,-0.729,0.0
0.0,0.0,0.0,0.0
38.109,1.785,-0.5,0.0
30.93,1.44,-0.574,0.0
26.86,1.242,-0.648,0.0
23.512,1.08,-0.696,0.0
20.78,0.949,-0.728,0.0
0.0,0.0,0.0,0.0
38.042,1.708,-0.483,0.0
31.05,1.384,-0.563,0.0
26.806,1.187,-0.635,0.0
23.605,1.038,-0.688,0.0
21.123,0.923,-0.731,0.0
0.0,0.0,0.0,0.0
0.0,0.0,0.0,0.0
0.0,0.0,0.0,0.0
27.713,1.172,-0.643,0.0
24.001,1.008,-0.688,0.0
21.285,0.888,-0.726,0.0
48.823,2.014,-0.307,1.0
0.0,0.0,0.0,0.0
0.0,0.0,0.0,0.0
27.632,1.114,-0.627,0.0
24.143,0.966,-0.679,0.0
21.463,0.853,-0.721,0.0
48.738,1.914,-0.28,0.0
0.0,0.0,0.0,0.0
32.785,1.268,-0.545,0.0
28.073,1.077,-0.621,0.0
24.735,0.941,-0.682,0.0
21.704,0.819,-0.716,0.0
49.274,1.838,-0.255,1.0
40.618,1.503,-0.431,0.0
0.0,0.0,0.0,0.0
29.179,1.061,-0.629,0.0
24.82,0.896,-0.669,0.0
21.883,0.783,-0.709,0.0
54.166,1.914,-0.248,1.0
0.0,0.0,0.0,0.0
34.968,1.214,-0.538,0.0
28.815,0.992,-0.603,0.0
25.218,0.86,-0.664,0.0
22.351,0.756,-0.71,0.0
60.195,2.01,-0.236,0.0
45.407,1.501,-0.423,0.0
35.69,1.169,-0.526,0.0
0.0,0.0,0.0,0.0
25.811,0.83,-0.662,0.0
22.502,0.716,-0.699,0.0
61.603,1.936,-0.199,3.0
45.649,1.42,-0.394,0.0
35.953,1.107,-0.505,0.0
30.613,0.934,-0.598,0.0
26.18,0.79,-0.653,0.0
22.869,0.683,-0.694,0.0
63.018,1.857,-0.158,3.0
0.0,0.0,0.0,0.0
38.1,1.099,-0.507,0.0
30.951,0.883,-0.581,0.0
26.683,0.753,-0.645,0.0
23.497,0.656,-0.695,0.0
119.85,-0.222,1.825,64.0
114.473,-0.245,1.139,150.0
0.0,0.0,0.0,0.0
0.0,0.0,0.0,0.0
53.572,-0.16,-0.319,0.0
0.0,0.0,0.0,0.0
113.391,-0.4,1.879,1.0
119.708,-0.456,1.352,17.0
111.085,-0.455,0.67,3.0
0.0,0.0,0.0,0.0
0.0,0.0,0.0,0.0
0.0,0.0,0.0,0.0
119.816,-0.622,2.149,62.0
119.683,-0.653,1.515,12.0
114.26,-0.655,0.846,9.0
0.0,0.0,0.0,0.0
0.0,0.0,0.0,0.0
0.0,0.0,0.0,0.0
194.531,-1.323,3.757,20.0
119.748,-0.847,1.683,23.0
119.689,-0.879,1.053,16.0
0.0,0.0,0.0,0.0
0.0,0.0,0.0,0.0
0.0,0.0,0.0,0.0
119.728,-1.006,2.482,93.0
119.743,-1.038,1.854,127.0
119.744,-1.07,1.224,67.0
119.739,-1.101,0.582,6.0
0.0,0.0,0.0,0.0
0.0,0.0,0.0,0.0
119.725,-1.193,2.654,81.0
119.748,-1.225,2.026,39.0
119.727,-1.256,1.397,9.0
119.679,-1.286,0.755,6.0
0.0,0.0,0.0,0.0
0.0,0.0,0.0,0.0
210.5,-2.426,4.977,10.0
204.27,-2.406,3.758,8.0
0.0,0.0,0.0,0.0
139.184,-1.711,1.087,24.0
0.0,0.0,0.0,0.0
0.0,0.0,0.0,0.0
206.407,-2.693,5.191,7.0
0.0,0.0,0.0,0.0
139.043,-1.884,2.038,9.0
138.976,-1.918,1.296,13.0
0.0,0.0,0.0,0.0
0.0,0.0,0.0,0.0
112.972,-1.641,3.011,12.0
205.87,-3.042,4.409,10.0
193.772,-2.912,3.137,9.0
139.125,-2.125,1.51,6.0
138.875,-2.155,0.78,4.0
0.0,0.0,0.0,0.0
112.527,-1.799,3.173,12.0
206.542,-3.354,4.744,9.0
193.877,-3.193,3.437,23.0
0.0,0.0,0.0,0.0
139.078,-2.358,0.998,17.0
0.0,0.0,0.0,0.0
113.082,-1.97,3.365,16.0
205.869,-3.635,5.05,14.0
193.533,-3.462,3.735,26.0
139.005,-2.52,1.943,7.0
139.02,-2.554,1.218,23.0
0.0,0.0,0.0,0.0
112.944,-2.128,3.543,19.0
112.901,-2.152,2.951,26.0
193.735,-3.738,4.051,23.0
138.992,-2.714,2.167,4.0
138.945,-2.744,1.44,9.0
138.918,-2.775,0.715,7.0
112.724,-2.275,3.715,25.0
112.765,-2.302,3.128,7.0
205.667,-4.245,4.63,16.0
193.324,-4.033,3.325,18.0
0.0,0.0,0.0,0.0
138.931,-2.961,0.941,15.0
113.217,-2.437,3.915,24.0
112.7,-2.451,3.31,19.0
118.197,-2.596,2.854,8.0
193.369,-4.291,3.643,22.0
138.862,-3.111,1.892,3.0
138.878,-3.141,1.169,17.0
113.145,-2.584,4.101,18.0
112.656,-2.596,3.494,9.0
118.062,-2.745,3.046,8.0
193.404,-4.54,3.964,13.0
138.854,-3.289,2.123,4.0
138.85,-3.317,1.399,11.0
106.19,-2.559,4.024,18.0
120.875,-2.937,3.949,13.0
118.232,-2.898,3.247,3.0
118.021,-2.917,2.615,3.0
193.455,-4.821,3.28,12.0
204.863,-5.147,2.407,4.0
105.876,-2.683,4.19,4.0
120.571,-3.078,4.142,12.0
120.904,-3.111,3.524,4.0
205.507,-5.33,4.9,14.0
195.103,-5.097,3.636,7.0
138.79,-3.654,1.865,3.0
101.667,-2.698,4.196,13.0
117.109,-3.129,4.222,15.0
120.542,-3.244,3.718,8.0
205.401,-5.569,5.248,5.0
195.065,-5.325,3.968,14.0
138.684,-3.813,2.101,8.0
94.806,-2.627,4.076,6.0
106.231,-2.963,4.014,11.0
120.184,-3.374,3.915,23.0
194.178,-5.488,5.297,21.0
194.844,-5.544,4.304,12.0
193.918,-5.556,3.279,7.0
81.369,-2.348,3.64,37.0
101.576,-2.948,4.015,15.0
105.994,-3.095,3.637,15.0
193.972,-5.7,5.63,14.0
194.466,-5.748,4.633,20.0
194.353,-5.78,3.62,14.0
81.303,-2.433,3.777,36.0
101.189,-3.046,4.174,21.0
106.082,-3.21,3.823,17.0
206.122,-6.275,6.337,6.0
194.023,-5.941,4.959,25.0
194.41,-5.986,3.959,18.0
81.159,-2.515,3.912,13.0
101.209,-3.153,4.353,14.0
101.634,-3.184,3.843,27.0
194.724,-6.132,6.332,20.0
193.532,-6.126,5.289,24.0
193.988,-6.172,4.294,27.0
80.942,-2.592,4.046,10.0
94.698,-3.047,4.242,15.0
100.971,-3.265,3.998,30.0
0.0,0.0,0.0,0.0
193.227,-6.31,5.625,13.0
187.366,-6.146,4.481,7.0
66.624,-2.199,3.448,19.0
94.345,-3.128,4.393,36.0
101.245,-3.371,4.187,9.0
101.234,-3.386,3.65,19.0
187.391,-6.297,5.786,26.0
187.447,-6.326,4.814,21.0
66.408,-2.254,3.555,39.0
94.174,-3.21,4.552,8.0
94.453,-3.233,4.074,15.0
101.138,-3.476,3.828,18.0
193.804,-6.69,6.331,25.0
193.155,-6.694,5.306,21.0
66.414,-2.315,3.675,43.0
81.337,-2.846,4.078,30.0
94.259,-3.311,4.236,26.0
104.047,-3.668,4.125,15.0
194.634,-6.889,6.707,18.0
193.057,-6.86,5.651,20.0
66.317,-2.369,3.789,23.0
66.249,-2.375,3.44,32.0
94.314,-3.394,4.408,15.0
104.044,-3.756,4.313,20.0
