X,Y,Z,Reflectivity
73.263,-4.603,3.512,15.0
73.004,-4.564,3.088,11.0
58.861,-3.674,4.132,20.0
58.916,-3.659,3.801,28.0
70.702,-4.367,4.16,47.0
19.997,-1.228,1.061,6.0
19.979,-1.221,0.947,16.0
20.035,-1.218,0.836,18.0
58.731,-3.565,4.09,28.0
58.821,-3.551,3.761,31.0
71.174,-4.275,4.147,34.0
19.951,-1.191,1.047,17.0
19.979,-1.187,0.935,25.0
20.022,-1.183,0.824,27.0
59.009,-3.481,4.073,34.0
59.08,-3.466,3.742,33.0
71.563,-4.176,4.125,16.0
19.973,-1.159,1.035,23.0
19.958,-1.152,0.922,24.0
20.03,-1.15,0.811,25.0
58.85,-3.372,4.024,31.0
58.707,-3.344,3.68,32.0
58.702,-3.325,3.345,14.0
19.932,-1.123,1.02,19.0
19.972,-1.118,0.909,25.0
20.029,-1.116,0.798,16.0
58.864,-3.271,3.985,33.0
58.672,-3.242,3.637,32.0
58.613,-3.219,3.299,8.0
19.949,-1.089,1.007,18.0
19.997,-1.086,0.896,13.0
20.03,-1.081,0.783,12.0
58.371,-3.144,3.908,30.0
58.429,-3.129,3.579,32.0
58.927,-3.137,3.273,21.0
20.006,-1.059,0.995,9.0
83.635,-4.401,3.685,12.0
20.037,-1.048,0.769,9.0
58.463,-3.051,3.87,31.0
58.493,-3.033,3.538,32.0
58.95,-3.039,3.229,11.0
73.608,-3.771,3.604,11.0
83.516,-4.253,3.614,26.0
20.072,-1.016,0.754,10.0
58.521,-2.953,3.826,33.0
58.316,-2.925,3.48,32.0
77.935,-3.885,4.205,10.0
79.727,-3.949,3.838,15.0
85.048,-4.188,3.61,22.0
20.089,-0.983,0.738,15.0
58.479,-2.853,3.774,33.0
58.236,-2.823,3.425,32.0
79.422,-3.825,4.217,14.0
83.395,-3.991,3.943,10.0
85.657,-4.073,3.562,18.0
20.085,-0.949,0.72,16.0
58.227,-2.742,3.706,25.0
58.122,-2.72,3.367,24.0
73.326,-3.409,3.828,10.0
85.7,-3.958,3.975,8.0
94.748,-4.349,3.854,24.0
20.109,-0.917,0.703,9.0
58.326,-2.649,3.658,21.0
67.3,-3.036,3.836,13.0
80.657,-3.615,4.135,29.0
94.118,-4.189,4.277,18.0
100.099,-4.426,3.977,22.0
116.556,-5.12,3.965,24.0
59.375,-2.596,3.666,34.0
60.266,-2.617,3.375,20.0
80.773,-3.483,4.061,40.0
94.55,-4.049,4.203,14.0
100.376,-4.269,3.887,17.0
117.569,-4.966,3.881,4.0
58.01,-2.439,3.522,16.0
59.88,-2.5,3.293,34.0
80.935,-3.355,3.986,36.0
94.721,-3.899,4.113,8.0
104.069,-4.255,3.924,29.0
193.869,-7.869,6.2,23.0
59.693,-2.411,3.562,27.0
66.376,-2.662,3.58,9.0
81.251,-3.235,3.916,51.0
103.752,-4.101,4.395,13.0
104.431,-4.098,3.826,11.0
193.69,-7.546,5.988,21.0
59.703,-2.314,3.498,33.0
66.317,-2.55,3.505,14.0
81.282,-3.103,3.829,27.0
103.776,-3.931,4.282,25.0
190.396,-7.158,6.764,4.0
193.285,-7.211,5.76,23.0
66.318,-2.461,3.811,14.0
66.236,-2.438,3.425,25.0
94.219,-3.441,4.33,21.0
104.092,-3.772,4.175,24.0
194.557,-6.997,6.689,17.0
193.026,-6.887,5.528,21.0
66.259,-2.35,3.73,42.0
81.194,-2.858,4.104,18.0
94.246,-3.29,4.221,21.0
101.135,-3.501,3.938,25.0
187.464,-6.44,6.224,20.0
187.432,-6.388,5.148,40.0
66.372,-2.247,3.657,38.0
81.135,-2.724,4.003,11.0
94.36,-3.143,4.112,18.0
101.336,-3.347,3.823,16.0
194.764,-6.38,6.228,21.0
194.031,-6.303,5.092,23.0
71.699,-2.314,3.862,28.0
81.197,-2.597,3.905,12.0
101.124,-3.208,4.282,21.0
106.097,-3.336,3.87,18.0
205.418,-6.403,6.311,5.0
194.181,-5.999,4.849,25.0
66.145,-2.029,3.478,10.0
81.199,-2.468,3.801,40.0
94.553,-2.849,3.881,10.0
105.962,-3.166,3.73,16.0
205.252,-6.077,6.043,7.0
194.669,-5.713,4.613,17.0
80.51,-2.345,4.129,12.0
81.458,-2.35,3.707,15.0
106.279,-3.038,4.223,12.0
120.55,-3.415,4.085,30.0
207.285,-5.816,5.829,5.0
206.467,-5.738,4.616,5.0
81.319,-2.242,4.06,30.0
0.0,0.0,0.0,0.0
106.25,-2.873,4.079,15.0
120.793,-3.235,3.928,29.0
0.0,0.0,0.0,0.0
206.288,-5.419,4.332,5.0
74.115,-1.93,3.598,8.0
96.783,-2.495,4.139,13.0
106.215,-2.71,3.93,19.0
120.868,-3.053,3.762,11.0
118.178,-2.955,2.997,17.0
193.37,-4.788,3.792,21.0
81.208,-1.992,3.828,28.0
96.66,-2.345,3.997,14.0
113.131,-2.717,4.025,16.0
207.372,-4.927,6.158,11.0
118.206,-2.779,2.829,16.0
193.208,-4.493,3.509,24.0
81.088,-1.866,3.703,14.0
115.34,-2.627,4.602,8.0
113.164,-2.549,3.861,22.0
112.781,-2.512,3.185,9.0
217.21,-4.787,4.882,7.0
193.355,-4.213,3.229,11.0
95.852,-2.067,4.237,18.0
106.56,-2.272,4.095,10.0
112.812,-2.377,3.682,27.0
112.873,-2.351,3.021,3.0
193.898,-3.994,4.071,20.0
138.964,-2.829,2.116,8.0
95.54,-1.923,4.08,12.0
112.797,-2.243,4.165,15.0
112.977,-2.219,3.518,22.0
112.889,-2.19,2.85,11.0
193.286,-3.706,3.765,31.0
139.047,-2.632,1.904,4.0
106.65,-1.994,4.39,19.0
112.714,-2.081,3.987,25.0
113.051,-2.061,3.346,22.0
206.482,-3.715,4.894,23.0
193.784,-3.441,3.472,23.0
0.0,0.0,0.0,0.0
106.402,-1.84,4.213,12.0
112.861,-1.925,3.814,9.0
112.661,-1.896,3.155,19.0
0.0,0.0,0.0,0.0
193.611,-3.169,3.162,10.0
139.102,-2.246,1.467,9.0
106.597,-1.697,4.051,12.0
209.616,-3.289,6.749,7.0
113.07,-1.748,2.985,16.0
194.703,-2.967,3.993,5.0
138.937,-2.086,2.045,12.0
138.882,-2.054,1.241,16.0
190.6,-2.775,6.93,20.0
0.0,0.0,0.0,0.0
206.473,-2.915,5.114,10.0
195.029,-2.71,3.68,5.0
139.187,-1.903,1.819,2.0
139.153,-1.873,1.015,20.0
210.347,-2.783,7.298,20.0
209.143,-2.722,6.044,15.0
210.744,-2.699,4.87,7.0
204.236,-2.57,3.514,24.0
139.254,-1.722,1.588,4.0
125.446,-1.524,0.703,2.0
210.971,-2.518,6.966,6.0
209.221,-2.451,5.692,13.0
119.695,-1.376,2.561,3.0
119.717,-1.352,1.856,22.0
119.751,-1.326,1.161,58.0
0.0,0.0,0.0,0.0
211.06,-2.249,6.605,17.0
119.72,-1.25,3.05,150.0
119.744,-1.226,2.357,150.0
119.728,-1.201,1.651,150.0
119.724,-1.176,0.956,28.0
0.0,0.0,0.0,0.0
119.742,-1.127,3.539,14.0
119.742,-1.103,2.844,70.0
119.741,-1.079,2.15,93.0
119.668,-1.054,1.442,19.0
114.304,-0.983,0.713,9.0
0.0,0.0,0.0,0.0
119.717,-0.981,3.329,61.0
119.689,-0.957,2.632,22.0
119.757,-0.934,1.938,13.0
119.701,-0.91,1.23,19.0
110.858,-0.821,0.495,4.0
0.0,0.0,0.0,0.0
119.796,-0.839,3.115,49.0
119.81,-0.817,2.421,34.0
119.705,-0.792,1.723,2.0
119.663,-0.77,1.015,10.0
0.0,0.0,0.0,0.0
0.0,0.0,0.0,0.0
119.812,-0.7,2.899,123.0
119.818,-0.678,2.203,21.0
119.663,-0.655,1.505,12.0
114.215,-0.604,0.761,3.0
0.0,0.0,0.0,0.0
0.0,0.0,0.0,0.0
119.839,-0.566,2.681,21.0
114.047,-0.518,1.888,3.0
119.707,-0.523,1.288,16.0
103.743,-0.433,0.502,1.0
0.0,0.0,0.0,0.0
0.0,0.0,0.0,0.0
114.709,-0.416,2.354,10.0
113.286,-0.391,1.667,10.0
114.428,-0.376,1.019,68.0
101.53,-0.316,0.304,1.0
0.0,0.0,0.0,0.0
45.239,-0.125,-0.39,1.0
113.466,-0.292,2.118,8.0
119.726,-0.288,1.539,8.0
110.832,-0.247,0.779,17.0
0.0,0.0,0.0,0.0
0.0,0.0,0.0,0.0
0.0,0.0,0.0,0.0
112.814,-0.175,1.894,18.0
117.359,-0.162,1.287,20.0
103.262,-0.125,0.531,1.0
0.0,0.0,0.0,0.0
0.0,0.0,0.0,0.0
0.0,0.0,0.0,0.0
111.087,-0.061,1.652,14.0
111.179,-0.043,1.007,8.0
95.788,-0.022,0.31,4.0
0.0,0.0,0.0,0.0
45.512,0.003,-0.386,3.0
36.006,0.008,-0.515,0.0
111.112,0.044,1.442,20.0
110.706,0.061,0.791,8.0
0.0,0.0,0.0,0.0
0.0,0.0,0.0,0.0
42.788,0.044,-0.446,1.0
33.541,0.039,-0.544,0.0
111.104,0.148,1.224,18.0
103.486,0.153,0.539,2.0
0.0,0.0,0.0,0.0
49.879,0.088,-0.325,0.0
38.317,0.073,-0.473,0.0
31.129,0.064,-0.565,0.0
111.061,0.246,1.008,17.0
92.172,0.218,0.299,1.0
0.0,0.0,0.0,0.0
44.583,0.118,-0.378,0.0
0.0,0.0,0.0,0.0
29.69,0.087,-0.597,0.0
104.502,0.322,0.743,6.0
0.0,0.0,0.0,0.0
0.0,0.0,0.0,0.0
42.827,0.15,-0.448,0.0
0.0,0.0,0.0,0.0
0.0,0.0,0.0,0.0
94.666,0.37,0.485,3.0
70.874,0.287,-0.049,0.0
48.69,0.203,-0.318,0.0
0.0,0.0,0.0,0.0
31.549,0.14,-0.577,1.0
26.502,0.121,-0.639,0.0
88.219,0.415,0.274,5.0
0.0,0.0,0.0,0.0
45.745,0.227,-0.39,1.0
35.782,0.182,-0.517,0.0
29.079,0.152,-0.59,0.0
25.455,0.136,-0.665,0.0
0.0,0.0,0.0,0.0
0.0,0.0,0.0,0.0
42.827,0.244,-0.452,0.0
33.941,0.198,-0.559,0.0
28.093,0.167,-0.627,0.0
23.899,0.145,-0.673,0.0
0.0,0.0,0.0,0.0
48.576,0.306,-0.328,0.0
37.86,0.243,-0.477,0.0
0.0,0.0,0.0,0.0
26.446,0.176,-0.644,0.0
22.823,0.155,-0.689,0.0
0.0,0.0,0.0,0.0
42.981,0.3,-0.378,0.0
35.274,0.25,-0.516,0.0
29.576,0.213,-0.608,0.0
24.948,0.182,-0.658,0.0
21.976,0.163,-0.708,0.0
0.0,0.0,0.0,0.0
0.0,0.0,0.0,0.0
32.954,0.255,-0.55,0.0
0.0,0.0,0.0,0.0
23.89,0.19,-0.679,0.0
21.056,0.169,-0.722,0.0
48.665,0.395,-0.343,1.0
0.0,0.0,0.0,0.0
0.0,0.0,0.0,0.0
26.401,0.222,-0.651,0.0
22.693,0.193,-0.691,0.0
20.137,0.174,-0.731,0.0
42.938,0.373,-0.391,0.0
34.982,0.307,-0.522,0.0
29.105,0.258,-0.604,0.0
24.741,0.222,-0.661,0.0
21.738,0.197,-0.707,0.0
19.382,0.178,-0.744,0.0
41.085,0.379,-0.458,0.0
32.296,0.301,-0.549,0.0
27.072,0.255,-0.618,0.0
0.0,0.0,0.0,0.0
20.848,0.2,-0.721,0.0
18.624,0.18,-0.753,0.0
0.0,0.0,0.0,0.0
30.456,0.298,-0.579,0.0
26.491,0.262,-0.659,0.0
22.541,0.225,-0.695,0.0
20.109,0.202,-0.737,0.0
18.003,0.182,-0.765,0.0
34.97,0.355,-0.534,0.0
28.766,0.295,-0.607,0.0
0.0,0.0,0.0,0.0
21.528,0.224,-0.708,0.0
19.241,0.202,-0.745,0.0
17.428,0.184,-0.776,0.0
31.969,0.338,-0.554,0.0
27.083,0.289,-0.627,0.0
23.658,0.254,-0.686,0.0
20.428,0.221,-0.714,0.0
18.484,0.201,-0.754,0.0
16.88,0.185,-0.787,0.0
30.258,0.331,-0.586,0.0
25.925,0.286,-0.654,0.0
22.367,0.248,-0.695,0.0
19.943,0.223,-0.738,0.0
17.899,0.201,-0.767,0.0
16.401,0.185,-0.799,0.0
28.427,0.321,-0.609,0.0
24.424,0.277,-0.666,0.0
21.259,0.243,-0.704,0.0
19.03,0.219,-0.743,0.0
17.281,0.2,-0.776,0.0
15.736,0.183,-0.799,0.0
26.674,0.309,-0.627,0.0
23.449,0.273,-0.688,0.0
20.459,0.24,-0.72,0.0
18.399,0.217,-0.757,0.0
16.758,0.198,-0.787,0.0
15.266,0.182,-0.807,0.0
25.571,0.303,-0.654,0.0
22.401,0.267,-0.703,0.0
19.858,0.238,-0.739,0.0
17.737,0.213,-0.766,0.0
16.295,0.197,-0.799,0.0
14.858,0.18,-0.815,0.0
23.854,0.288,-0.659,0.0
21.119,0.256,-0.706,0.0
19.052,0.232,-0.749,0.0
17.109,0.209,-0.774,0.0
15.727,0.193,-0.803,0.0
14.473,0.178,-0.824,0.0
23.173,0.284,-0.687,0.0
20.327,0.25,-0.721,0.0
18.37,0.227,-0.759,0.0
16.665,0.207,-0.788,0.0
15.259,0.19,-0.811,0.0
14.055,0.175,-0.829,0.0
22.212,0.276,-0.704,0.0
19.74,0.246,-0.741,0.0
17.718,0.221,-0.769,0.0
16.145,0.202,-0.796,0.0
14.808,0.186,-0.817,0.0
13.668,0.172,-0.834,0.0
21.032,0.263,-0.71,0.0
18.844,0.237,-0.746,0.0
17.157,0.216,-0.779,0.0
15.647,0.197,-0.804,0.0
14.372,0.182,-0.822,0.0
13.342,0.169,-0.841,0.0
20.277,0.255,-0.725,0.0
18.298,0.231,-0.761,0.0
16.617,0.21,-0.788,0.0
15.15,0.192,-0.809,0.0
14.064,0.179,-0.833,0.0
13.001,0.165,-0.846,0.0
19.519,0.246,-0.737,0.0
17.681,0.224,-0.77,0.0
16.114,0.204,-0.796,0.0
14.739,0.187,-0.816,0.0
13.637,0.173,-0.835,0.0
12.568,0.16,-0.843,0.0
18.727,0.236,-0.744,0.0
17.064,0.216,-0.778,0.0
15.629,0.198,-0.804,0.0
14.307,0.181,-0.821,0.0
13.292,0.169,-0.84,0.0
12.269,0.156,-0.847,0.0
18.155,0.228,-0.757,0.0
16.484,0.207,-0.784,0.0
15.134,0.191,-0.808,0.0
13.873,0.175,-0.823,0.0
12.961,0.164,-0.845,0.0
11.912,0.15,-0.847,0.0
17.526,0.219,-0.766,0.0
16.029,0.2,-0.794,0.0
14.691,0.184,-0.814,0.0
13.581,0.17,-0.833,0.0
12.523,0.157,-0.841,0.0
11.633,0.146,-0.85,0.0
16.996,0.21,-0.776,0.0
15.517,0.192,-0.799,0.0
14.327,0.177,-0.822,0.0
13.27,0.164,-0.84,0.0
12.249,0.152,-0.847,0.0
11.426,0.141,-0.857,0.0
16.521,0.202,-0.786,0.0
15.131,0.185,-0.809,0.0
13.933,0.17,-0.826,0.0
12.84,0.157,-0.837,0.0
11.884,0.145,-0.845,0.0
11.248,0.137,-0.866,0.0
15.997,0.192,-0.792,0.0
14.745,0.177,-0.816,0.0
13.606,0.163,-0.833,0.0
12.493,0.15,-0.839,0.0
11.607,0.139,-0.848,0.0
11.032,0.132,-0.87,0.0
15.507,0.183,-0.798,0.0
14.322,0.169,-0.821,0.0
13.267,0.156,-0.837,0.0
12.241,0.144,-0.845,0.0
11.411,0.134,-0.855,0.0
10.75,0.126,-0.869,0.0
15.137,0.175,-0.808,0.0
13.975,0.161,-0.827,0.0
12.912,0.148,-0.84,0.0
11.904,0.137,-0.845,0.0
11.27,0.129,-0.866,0.0
10.554,0.121,-0.873,0.0
14.725,0.165,-0.813,0.0
13.589,0.152,-0.83,0.0
12.58,0.141,-0.842,0.0
11.613,0.129,-0.846,0.0
11.042,0.123,-0.869,0.0
10.372,0.115,-0.878,0.0
14.328,0.156,-0.819,0.0
13.354,0.145,-0.841,0.0
12.273,0.133,-0.844,0.0
11.412,0.123,-0.853,0.0
10.735,0.116,-0.865,0.0
10.222,0.11,-0.884,0.0
13.957,0.147,-0.823,0.0
13.006,0.136,-0.843,0.0
11.919,0.124,-0.842,0.0
11.291,0.117,-0.865,0.0
10.575,0.11,-0.872,0.0
10.059,0.104,-0.888,0.0
13.729,0.139,-0.835,0.0
12.549,0.126,-0.836,0.0
11.661,0.117,-0.845,0.0
11.056,0.11,-0.867,0.0
10.398,0.103,-0.876,0.0
9.901,0.098,-0.892,0.0
13.368,0.129,-0.837,0.0
12.353,0.119,-0.845,0.0
11.46,0.11,-0.851,0.0
10.8,0.103,-0.866,0.0
10.251,0.097,-0.882,0.0
9.735,0.092,-0.895,0.0
12.985,0.119,-0.835,0.0
12.038,0.11,-0.845,0.0
11.322,0.103,-0.86,0.0
10.608,0.096,-0.869,0.0
10.098,0.091,-0.886,0.0
9.599,0.086,-0.899,0.0
12.676,0.11,-0.838,0.0
11.739,0.101,-0.844,0.0
11.147,0.096,-0.867,0.0
10.443,0.089,-0.874,0.0
9.963,0.084,-0.892,0.0
9.443,0.079,-0.901,0.0
12.407,0.101,-0.841,0.0
11.52,0.093,-0.848,0.0
10.858,0.087,-0.863,0.0
10.288,0.082,-0.879,0.0
9.798,0.077,-0.894,0.0
9.318,0.073,-0.905,0.0
12.141,0.092,-0.844,0.0
11.369,0.085,-0.856,0.0
10.678,0.079,-0.867,0.0
10.16,0.075,-0.885,0.0
9.671,0.071,-0.899,0.0
9.209,0.067,-0.91,0.0
11.819,0.082,-0.841,0.0
11.182,0.077,-0.861,0.0
10.516,0.072,-0.871,0.0
10.009,0.068,-0.889,0.0
9.492,0.063,-0.898,0.0
9.091,0.06,-0.914,0.0
11.622,0.074,-0.846,0.0
10.997,0.069,-0.865,0.0
10.345,0.064,-0.874,0.0
9.86,0.06,-0.892,0.0
9.409,0.057,-0.906,0.0
8.91,0.053,-0.91,0.0
11.423,0.065,-0.85,0.0
10.733,0.06,-0.861,0.0
10.241,0.056,-0.882,0.0
9.7,0.052,-0.893,0.0
9.248,0.049,-0.905,0.0
8.815,0.046,-0.914,0.0
11.312,0.056,-0.86,0.0
10.643,0.052,-0.871,0.0
10.08,0.048,-0.884,0.0
9.524,0.045,-0.891,0.0
9.131,0.042,-0.908,0.0
8.727,0.039,-0.919,0.0
11.119,0.047,-0.862,0.0
10.444,0.043,-0.871,0.0
9.975,0.041,-0.89,0.0
9.468,0.038,-0.901,0.0
9.002,0.035,-0.909,0.0
8.619,0.033,-0.921,0.0
10.913,0.038,-0.863,0.0
10.325,0.035,-0.876,0.0
9.843,0.033,-0.893,0.0
9.351,0.03,-0.904,0.0
8.932,0.028,-0.916,0.0
8.467,0.025,-0.917,0.0
10.729,0.029,-0.864,0.0
10.225,0.027,-0.883,0.0
9.719,0.024,-0.896,0.0
9.192,0.022,-0.902,0.0
8.735,0.02,-0.908,0.0
8.398,0.018,-0.922,0.0
10.55,0.02,-0.865,0.0
10.083,0.018,-0.885,0.0
9.566,0.016,-0.896,0.0
9.095,0.014,-0.906,0.0
8.762,0.013,-0.924,0.0
8.307,0.011,-0.924,0.0
10.457,0.011,-0.872,0.0
9.956,0.01,-0.888,0.0
9.379,0.008,-0.891,0.0
8.963,0.007,-0.905,0.0
8.601,0.005,-0.919,0.0
8.173,0.004,-0.921,0.0
10.321,0.002,-0.875,0.0
9.82,0.001,-0.89,0.0
9.282,0.0,-0.895,0.0
0.0,0.0,0.0,0.0
8.472,-0.001,-0.917,0.0
8.144,-0.002,-0.929,0.0
10.237,-0.006,-0.882,0.0
9.696,-0.007,-0.892,0.0
9.251,-0.007,-0.904,0.0
8.776,-0.008,-0.91,0.0
8.44,-0.009,-0.924,0.0
8.045,-0.009,-0.928,0.0
10.1,-0.015,-0.883,0.0
9.592,-0.015,-0.894,0.0
9.095,-0.016,-0.901,0.0
0.0,0.0,0.0,0.0
8.331,-0.016,-0.923,0.0
7.93,-0.017,-0.925,0.0
9.984,-0.024,-0.886,0.0
9.478,-0.024,-0.896,0.0
9.067,-0.024,-0.91,0.0
8.647,-0.024,-0.919,0.0
8.229,-0.024,-0.922,0.0
7.922,-0.024,-0.934,0.0
9.867,-0.033,-0.888,0.0
9.317,-0.032,-0.892,0.0
8.978,-0.032,-0.912,0.0
8.544,-0.032,-0.918,0.0
8.124,-0.031,-0.92,0.0
7.864,-0.032,-0.937,0.0
9.789,-0.042,-0.892,0.0
9.299,-0.041,-0.901,0.0
8.886,-0.041,-0.913,0.0
8.461,-0.04,-0.919,0.0
8.13,-0.039,-0.931,0.0
7.765,-0.039,-0.934,0.0
9.691,-0.051,-0.894,0.0
9.267,-0.05,-0.909,0.0
8.791,-0.049,-0.913,0.0
8.366,-0.048,-0.918,0.0
8.058,-0.047,-0.931,0.0
7.705,-0.046,-0.936,0.0
9.592,-0.06,-0.896,0.0
9.111,-0.059,-0.904,0.0
8.735,-0.058,-0.917,0.0
8.312,-0.056,-0.922,0.0
7.975,-0.055,-0.931,0.0
7.677,-0.054,-0.941,0.0
9.544,-0.07,-0.902,0.0
9.087,-0.068,-0.911,0.0
8.642,-0.066,-0.916,0.0
8.253,-0.064,-0.924,0.0
7.912,-0.063,-0.932,0.0
7.576,-0.061,-0.936,0.0
9.381,-0.078,-0.896,0.0
8.993,-0.077,-0.911,0.0
8.518,-0.074,-0.912,0.0
8.2,-0.072,-0.926,0.0
7.876,-0.071,-0.935,0.0
7.559,-0.069,-0.942,0.0
9.371,-0.088,-0.904,0.0
8.934,-0.086,-0.914,0.0
8.478,-0.083,-0.916,0.0
8.096,-0.08,-0.922,0.0
7.809,-0.079,-0.935,0.0
7.456,-0.076,-0.936,0.0
9.282,-0.097,-0.905,0.0
8.848,-0.094,-0.913,0.0
8.462,-0.092,-0.922,0.0
8.062,-0.089,-0.926,0.0
7.764,-0.087,-0.937,0.0
7.445,-0.084,-0.942,0.0
9.192,-0.107,-0.904,0.0
8.784,-0.103,-0.915,0.0
8.374,-0.1,-0.92,0.0
8.043,-0.097,-0.931,0.0
7.652,-0.094,-0.93,0.0
7.408,-0.092,-0.944,0.0
9.129,-0.116,-0.906,0.0
8.718,-0.112,-0.915,0.0
8.361,-0.109,-0.926,0.0
7.963,-0.105,-0.929,0.0
7.594,-0.102,-0.93,0.0
7.336,-0.099,-0.941,0.0
9.031,-0.125,-0.904,0.0
8.635,-0.121,-0.914,0.0
8.276,-0.117,-0.923,0.0
7.926,-0.114,-0.931,0.0
7.609,-0.11,-0.938,0.0
7.326,-0.108,-0.945,0.0
9.017,-0.135,-0.909,0.0
8.579,-0.13,-0.914,0.0
8.234,-0.126,-0.925,0.0
7.895,-0.122,-0.933,0.0
7.541,-0.118,-0.935,0.0
7.318,-0.116,-0.95,0.0
8.927,-0.143,-0.907,0.0
8.469,-0.138,-0.909,0.0
8.162,-0.134,-0.923,0.0
0.0,0.0,0.0,0.0
7.501,-0.126,-0.935,0.0
7.266,-0.123,-0.948,0.0
8.872,-0.153,-0.907,0.0
8.484,-0.148,-0.916,0.0
8.145,-0.143,-0.926,0.0
0.0,0.0,0.0,0.0
7.489,-0.135,-0.939,0.0
7.199,-0.131,-0.944,0.0
8.845,-0.163,-0.91,0.0
8.482,-0.157,-0.921,0.0
8.119,-0.152,-0.928,0.0
0.0,0.0,0.0,0.0
7.491,-0.143,-0.944,0.0
7.142,-0.138,-0.941,0.0
8.827,-0.172,-0.914,0.0
8.418,-0.166,-0.919,0.0
8.066,-0.161,-0.927,0.0
0.0,0.0,0.0,0.0
7.44,-0.151,-0.942,0.0
7.161,-0.147,-0.948,0.0
8.777,-0.182,-0.913,0.0
8.414,-0.176,-0.924,0.0
8.056,-0.17,-0.93,0.0
0.0,0.0,0.0,0.0
7.396,-0.159,-0.94,0.0
7.14,-0.155,-0.949,0.0
8.726,-0.191,-0.912,0.0
8.359,-0.184,-0.922,0.0
8.021,-0.179,-0.93,0.0
0.0,0.0,0.0,0.0
0.0,0.0,0.0,0.0
7.09,-0.162,-0.945,0.0
8.755,-0.202,-0.92,0.0
8.319,-0.194,-0.921,0.0
7.992,-0.187,-0.931,0.0
0.0,0.0,0.0,0.0
7.37,-0.176,-0.943,0.0
7.054,-0.17,-0.944,0.0
8.69,-0.211,-0.916,0.0
8.27,-0.202,-0.919,0.0
7.97,-0.196,-0.931,0.0
0.0,0.0,0.0,0.0
7.369,-0.185,-0.946,0.0
7.052,-0.178,-0.946,0.0
8.628,-0.219,-0.913,0.0
8.276,-0.212,-0.923,0.0
7.937,-0.205,-0.93,0.0
0.0,0.0,0.0,0.0
7.333,-0.192,-0.944,0.0
7.041,-0.186,-0.947,0.0
8.616,-0.229,-0.915,0.0
8.239,-0.221,-0.922,0.0
7.962,-0.215,-0.936,0.0
0.0,0.0,0.0,0.0
7.257,-0.199,-0.937,0.0
7.036,-0.195,-0.948,0.0
8.626,-0.24,-0.918,0.0
8.19,-0.229,-0.918,0.0
7.93,-0.224,-0.934,0.0
0.0,0.0,0.0,0.0
7.306,-0.209,-0.945,0.0
7.031,-0.203,-0.949,0.0
8.536,-0.247,-0.911,0.0
8.258,-0.241,-0.928,0.0
7.883,-0.232,-0.93,0.0
0.0,0.0,0.0,0.0
0.0,0.0,0.0,0.0
7.039,-0.212,-0.952,0.0
8.562,-0.258,-0.915,0.0
8.213,-0.25,-0.924,0.0
7.923,-0.243,-0.937,0.0
0.0,0.0,0.0,0.0
0.0,0.0,0.0,0.0
7.058,-0.221,-0.956,0.0
8.55,-0.268,-0.915,0.0
8.199,-0.259,-0.924,0.0
7.875,-0.251,-0.932,0.0
0.0,0.0,0.0,0.0
0.0,0.0,0.0,0.0
7.053,-0.229,-0.956,0.0
8.558,-0.279,-0.917,0.0
8.176,-0.268,-0.922,0.0
7.891,-0.26,-0.935,0.0
7.574,-0.252,-0.941,0.0
0.0,0.0,0.0,0.0
6.992,-0.235,-0.948,0.0
8.549,-0.288,-0.916,0.0
8.184,-0.278,-0.923,0.0
7.852,-0.268,-0.93,0.0
7.614,-0.262,-0.946,0.0
0.0,0.0,0.0,0.0
6.981,-0.243,-0.947,0.0
8.562,-0.299,-0.918,0.0
8.148,-0.286,-0.919,0.0
7.882,-0.279,-0.934,0.0
7.53,-0.268,-0.935,0.0
7.275,-0.26,-0.945,0.0
6.998,-0.252,-0.949,0.0
8.561,-0.309,-0.917,0.0
8.194,-0.297,-0.924,0.0
7.876,-0.288,-0.933,0.0
7.512,-0.276,-0.933,0.0
7.28,-0.269,-0.945,0.0
7.011,-0.261,-0.95,0.0
8.564,-0.319,-0.917,0.0
8.215,-0.308,-0.926,0.0
7.919,-0.298,-0.937,0.0
7.571,-0.287,-0.939,0.0
7.271,-0.277,-0.943,0.0
7.041,-0.27,-0.953,0.0
8.575,-0.329,-0.917,0.0
8.236,-0.318,-0.927,0.0
7.902,-0.307,-0.934,0.0
7.553,-0.295,-0.936,0.0
7.326,-0.287,-0.949,0.0
7.025,-0.277,-0.95,0.0
8.582,-0.339,-0.916,0.0
8.215,-0.326,-0.923,0.0
7.894,-0.315,-0.931,0.0
7.581,-0.304,-0.938,0.0
7.347,-0.297,-0.95,0.0
7.025,-0.285,-0.948,0.0
8.603,-0.349,-0.917,0.0
8.282,-0.338,-0.929,0.0
7.929,-0.325,-0.933,0.0
0.0,0.0,0.0,0.0
7.303,-0.303,-0.943,0.0
7.027,-0.293,-0.946,0.0
8.622,-0.36,-0.916,0.0
8.312,-0.349,-0.93,0.0
7.946,-0.335,-0.933,0.0
7.587,-0.321,-0.934,0.0
7.365,-0.314,-0.948,0.0
7.035,-0.301,-0.945,0.0
8.688,-0.372,-0.921,0.0
8.287,-0.357,-0.924,0.0
7.942,-0.343,-0.93,0.0
0.0,0.0,0.0,0.0
7.327,-0.32,-0.941,0.0
7.047,-0.309,-0.944,0.0
8.691,-0.381,-0.918,0.0
8.334,-0.367,-0.927,0.0
7.954,-0.352,-0.929,0.0
0.0,0.0,0.0,0.0
7.367,-0.33,-0.943,0.0
7.098,-0.319,-0.949,0.0
8.691,-0.391,-0.915,0.0
8.326,-0.376,-0.922,0.0
7.995,-0.363,-0.93,0.0
0.0,0.0,0.0,0.0
7.382,-0.338,-0.942,0.0
7.175,-0.33,-0.956,0.0
8.77,-0.403,-0.919,0.0
8.405,-0.388,-0.927,0.0
8.043,-0.373,-0.932,0.0
7.716,-0.36,-0.938,0.0
0.0,0.0,0.0,0.0
7.16,-0.337,-0.95,0.0
8.776,-0.413,-0.915,0.0
8.39,-0.396,-0.921,0.0
8.045,-0.382,-0.928,0.0
0.0,0.0,0.0,0.0
7.433,-0.356,-0.941,0.0
7.142,-0.343,-0.944,0.0
8.813,-0.423,-0.915,0.0
8.438,-0.407,-0.922,0.0
8.093,-0.392,-0.929,0.0
0.0,0.0,0.0,0.0
7.466,-0.365,-0.941,0.0
7.142,-0.351,-0.94,0.0
8.815,-0.432,-0.91,0.0
8.465,-0.417,-0.92,0.0
8.134,-0.402,-0.929,0.0
0.0,0.0,0.0,0.0
7.444,-0.371,-0.934,0.0
7.225,-0.362,-0.946,0.0
8.877,-0.444,-0.911,0.0
8.512,-0.427,-0.92,0.0
8.122,-0.409,-0.923,0.0
0.0,0.0,0.0,0.0
7.534,-0.383,-0.94,0.0
7.25,-0.37,-0.945,0.0
9.041,-0.461,-0.922,0.0
8.558,-0.438,-0.919,0.0
8.224,-0.422,-0.929,0.0
0.0,0.0,0.0,0.0
7.592,-0.393,-0.942,0.0
7.304,-0.379,-0.947,0.0
9.047,-0.469,-0.916,0.0
8.62,-0.449,-0.92,0.0
8.247,-0.431,-0.926,0.0
0.0,0.0,0.0,0.0
7.628,-0.402,-0.941,0.0
7.348,-0.388,-0.947,0.0
9.049,-0.477,-0.91,0.0
8.704,-0.461,-0.923,0.0
8.318,-0.442,-0.928,0.0
7.966,-0.425,-0.933,0.0
7.637,-0.409,-0.937,0.0
7.394,-0.397,-0.948,0.0
9.099,-0.488,-0.908,0.0
8.743,-0.47,-0.92,0.0
8.337,-0.45,-0.923,0.0
7.99,-0.433,-0.929,0.0
0.0,0.0,0.0,0.0
7.374,-0.403,-0.939,0.0
9.162,-0.499,-0.907,0.0
8.809,-0.482,-0.92,0.0
8.364,-0.459,-0.919,0.0
8.058,-0.443,-0.931,0.0
0.0,0.0,0.0,0.0
7.42,-0.411,-0.939,0.0
9.238,-0.511,-0.907,0.0
8.862,-0.492,-0.918,0.0
8.47,-0.471,-0.924,0.0
8.09,-0.452,-0.927,0.0
7.835,-0.439,-0.941,0.0
7.524,-0.423,-0.945,0.0
9.314,-0.522,-0.906,0.0
8.894,-0.5,-0.913,0.0
8.516,-0.481,-0.921,0.0
8.137,-0.461,-0.925,0.0
7.853,-0.446,-0.936,0.0
7.542,-0.43,-0.94,0.0
9.352,-0.532,-0.901,0.0
9.001,-0.513,-0.916,0.0
8.569,-0.49,-0.919,0.0
8.188,-0.47,-0.923,0.0
7.925,-0.456,-0.937,0.0
7.591,-0.438,-0.939,0.0
9.455,-0.545,-0.902,0.0
9.049,-0.523,-0.912,0.0
8.674,-0.502,-0.922,0.0
8.252,-0.479,-0.923,0.0
7.949,-0.463,-0.932,0.0
7.65,-0.447,-0.939,0.0
9.539,-0.556,-0.901,0.0
9.124,-0.534,-0.911,0.0
8.744,-0.513,-0.92,0.0
8.352,-0.491,-0.925,0.0
7.999,-0.472,-0.93,0.0
7.698,-0.455,-0.937,0.0
9.652,-0.569,-0.901,0.0
9.222,-0.545,-0.911,0.0
8.795,-0.522,-0.917,0.0
8.423,-0.501,-0.924,0.0
8.136,-0.485,-0.937,0.0
7.741,-0.463,-0.934,0.0
9.728,-0.58,-0.898,0.0
9.279,-0.555,-0.907,0.0
8.922,-0.535,-0.92,0.0
8.571,-0.515,-0.931,0.0
8.169,-0.492,-0.932,0.0
7.859,-0.475,-0.939,0.0
9.809,-0.591,-0.895,0.0
9.395,-0.568,-0.908,0.0
8.966,-0.543,-0.915,0.0
8.586,-0.521,-0.923,0.0
8.227,-0.501,-0.929,0.0
7.91,-0.483,-0.937,0.0
9.898,-0.602,-0.892,0.0
9.481,-0.578,-0.905,0.0
9.03,-0.552,-0.911,0.0
0.0,0.0,0.0,0.0
8.255,-0.507,-0.923,0.0
7.963,-0.49,-0.934,0.0
10.042,-0.617,-0.893,0.0
9.584,-0.59,-0.904,0.0
9.141,-0.564,-0.912,0.0
0.0,0.0,0.0,0.0
8.364,-0.518,-0.925,0.0
8.092,-0.503,-0.939,0.0
10.162,-0.629,-0.892,0.0
9.638,-0.598,-0.898,0.0
9.24,-0.575,-0.91,0.0
8.8,-0.548,-0.915,0.0
8.496,-0.531,-0.93,0.0
8.144,-0.51,-0.935,0.0
10.247,-0.64,-0.887,0.0
9.761,-0.611,-0.897,0.0
9.345,-0.586,-0.909,0.0
8.923,-0.56,-0.917,0.0
8.496,-0.535,-0.919,0.0
8.198,-0.517,-0.931,0.0
10.372,-0.652,-0.885,0.0
9.862,-0.621,-0.894,0.0
9.441,-0.596,-0.906,0.0
9.041,-0.572,-0.917,0.0
8.591,-0.544,-0.918,0.0
8.271,-0.525,-0.928,0.0
10.504,-0.665,-0.883,0.0
10.01,-0.635,-0.895,0.0
9.567,-0.608,-0.906,0.0
9.089,-0.578,-0.911,0.0
8.708,-0.555,-0.919,0.0
8.359,-0.534,-0.927,0.0
10.647,-0.678,-0.881,0.0
10.134,-0.646,-0.892,0.0
9.631,-0.615,-0.899,0.0
9.222,-0.59,-0.912,0.0
8.891,-0.57,-0.927,0.0
8.468,-0.544,-0.928,0.0
10.821,-0.693,-0.881,0.0
10.285,-0.659,-0.892,0.0
9.754,-0.626,-0.898,0.0
9.377,-0.603,-0.914,0.0
8.956,-0.577,-0.921,0.0
8.546,-0.551,-0.925,0.0
10.939,-0.704,-0.876,0.0
10.373,-0.668,-0.885,0.0
9.871,-0.637,-0.895,0.0
9.451,-0.611,-0.909,0.0
9.014,-0.583,-0.915,0.0
8.666,-0.561,-0.926,0.0
11.08,-0.716,-0.872,0.0
10.518,-0.68,-0.883,0.0
10.004,-0.648,-0.893,0.0
9.567,-0.62,-0.907,0.0
9.165,-0.595,-0.917,0.0
8.753,-0.569,-0.923,0.0
11.223,-0.728,-0.867,0.0
10.716,-0.695,-0.885,0.0
10.136,-0.659,-0.891,0.0
9.655,-0.628,-0.901,0.0
9.287,-0.605,-0.916,0.0
8.891,-0.58,-0.925,0.0
11.399,-0.741,-0.865,0.0
10.873,-0.708,-0.882,0.0
10.306,-0.671,-0.891,0.0
9.808,-0.64,-0.901,0.0
9.416,-0.615,-0.915,0.0
8.978,-0.587,-0.921,0.0
11.618,-0.757,-0.864,0.0
10.994,-0.717,-0.876,0.0
10.422,-0.68,-0.886,0.0
9.911,-0.648,-0.896,0.0
9.523,-0.623,-0.912,0.0
9.073,-0.594,-0.917,0.0
11.823,-0.772,-0.862,0.0
11.145,-0.728,-0.872,0.0
10.597,-0.693,-0.885,0.0
10.067,-0.659,-0.895,0.0
9.611,-0.629,-0.906,0.0
9.177,-0.602,-0.914,0.0
12.037,-0.787,-0.86,0.0
11.308,-0.74,-0.868,0.0
10.745,-0.703,-0.881,0.0
10.215,-0.669,-0.893,0.0
9.746,-0.639,-0.904,0.0
9.313,-0.611,-0.913,0.0
12.244,-0.801,-0.857,0.0
11.507,-0.753,-0.866,0.0
10.907,-0.714,-0.878,0.0
10.339,-0.677,-0.888,0.0
9.866,-0.647,-0.9,0.0
9.467,-0.621,-0.914,0.0
12.466,-0.815,-0.853,0.0
11.722,-0.767,-0.864,0.0
11.078,-0.725,-0.875,0.0
10.487,-0.687,-0.885,0.0
9.999,-0.655,-0.897,0.0
9.579,-0.628,-0.91,0.0
20.096,-1.313,-1.345,0.0
11.952,-0.781,-0.863,0.0
11.24,-0.735,-0.87,0.0
10.655,-0.697,-0.883,0.0
10.167,-0.665,-0.896,0.0
9.671,-0.633,-0.903,0.0
13.019,-0.849,-0.851,0.0
12.159,-0.793,-0.859,0.0
11.424,-0.746,-0.867,0.0
10.863,-0.709,-0.883,0.0
10.309,-0.673,-0.892,0.0
9.832,-0.642,-0.903,0.0
13.295,-0.866,-0.848,0.0
12.353,-0.804,-0.853,0.0
11.657,-0.759,-0.866,0.0
11.006,-0.717,-0.877,0.0
10.461,-0.681,-0.889,0.0
9.947,-0.648,-0.898,0.0
13.572,-0.881,-0.844,0.0
12.632,-0.82,-0.852,0.0
11.892,-0.772,-0.865,0.0
11.177,-0.726,-0.873,0.0
10.628,-0.69,-0.886,0.0
10.133,-0.658,-0.898,0.0
13.717,-0.888,-0.831,0.0
12.955,-0.838,-0.853,0.0
12.096,-0.783,-0.86,0.0
11.37,-0.735,-0.87,0.0
10.85,-0.702,-0.887,0.0
10.273,-0.664,-0.894,0.0
14.194,-0.915,-0.837,0.0
13.202,-0.851,-0.848,0.0
12.303,-0.793,-0.855,0.0
11.603,-0.747,-0.868,0.0
10.988,-0.707,-0.88,0.0
10.419,-0.671,-0.89,0.0
14.456,-0.928,-0.83,0.0
13.468,-0.864,-0.843,0.0
12.599,-0.808,-0.855,0.0
11.819,-0.757,-0.866,0.0
11.138,-0.713,-0.874,0.0
10.607,-0.679,-0.888,0.0
14.757,-0.942,-0.823,0.0
13.706,-0.874,-0.836,0.0
13.041,-0.831,-0.864,0.0
12.045,-0.768,-0.862,0.0
11.329,-0.721,-0.871,0.0
10.805,-0.688,-0.887,0.0
15.149,-0.961,-0.82,0.0
14.224,-0.902,-0.844,0.0
20.05,-1.271,-1.296,0.0
12.286,-0.778,-0.86,0.0
11.564,-0.732,-0.87,0.0
10.947,-0.692,-0.881,0.0
15.428,-0.972,-0.81,0.0
14.369,-0.905,-0.83,0.0
13.445,-0.846,-0.847,0.0
12.539,-0.788,-0.856,0.0
11.782,-0.74,-0.867,0.0
11.105,-0.697,-0.875,0.0
16.024,-1.003,-0.815,0.0
14.707,-0.919,-0.825,0.0
13.663,-0.853,-0.838,0.0
20.038,-1.25,-1.336,0.0
12.01,-0.748,-0.864,0.0
11.306,-0.704,-0.873,0.0
16.189,-1.005,-0.797,0.0
15.034,-0.932,-0.819,0.0
13.976,-0.865,-0.834,0.0
13.163,-0.814,-0.856,0.0
12.266,-0.758,-0.862,0.0
11.534,-0.712,-0.871,0.0
16.783,-1.032,-0.798,0.0
15.437,-0.948,-0.815,0.0
14.277,-0.876,-0.828,0.0
13.311,-0.815,-0.843,0.0
12.522,-0.766,-0.859,0.0
11.743,-0.717,-0.867,0.0
17.237,-1.05,-0.791,0.0
15.782,-0.96,-0.807,0.0
14.657,-0.89,-0.826,0.0
13.682,-0.83,-0.844,0.0
20.009,-1.212,-1.339,0.0
11.984,-0.725,-0.865,0.0
17.637,-1.063,-0.78,0.0
20.011,-1.204,-0.99,0.0
15.045,-0.904,-0.823,0.0
14.035,-0.842,-0.842,0.0
20.014,-1.199,-1.306,0.0
12.249,-0.732,-0.863,0.0
18.1,-1.079,-0.771,0.0
16.716,-0.994,-0.799,0.0
15.314,-0.909,-0.812,0.0
14.31,-0.848,-0.835,0.0
13.32,-0.788,-0.847,0.0
12.468,-0.736,-0.858,0.0
19.736,-1.162,-0.808,0.0
17.247,-1.014,-0.796,0.0
15.765,-0.925,-0.81,0.0
14.562,-0.852,-0.826,0.0
13.595,-0.794,-0.842,0.0
12.814,-0.747,-0.86,0.0
19.407,-1.128,-0.762,0.0
17.553,-1.018,-0.781,0.0
16.23,-0.939,-0.807,0.0
14.943,-0.863,-0.822,0.0
13.949,-0.804,-0.84,0.0
13.163,-0.757,-0.862,0.0
19.9,-1.14,-0.749,2.0
18.192,-1.04,-0.779,0.0
16.639,-0.949,-0.8,0.0
15.268,-0.869,-0.815,0.0
14.236,-0.808,-0.834,0.0
13.375,-0.758,-0.854,0.0
19.934,-1.126,-0.717,2.0
18.619,-1.049,-0.767,0.0
17.029,-0.957,-0.79,0.0
15.651,-0.877,-0.81,0.0
14.594,-0.816,-0.831,0.0
13.662,-0.762,-0.85,0.0
21.094,-1.173,-0.724,0.0
19.135,-1.061,-0.757,0.0
17.555,-0.971,-0.786,0.0
16.198,-0.893,-0.811,0.0
14.931,-0.821,-0.826,0.0
13.885,-0.762,-0.841,0.0
21.705,-1.186,-0.71,0.0
19.859,-1.082,-0.753,2.0
17.972,-0.977,-0.775,0.0
16.636,-0.902,-0.806,0.0
15.247,-0.824,-0.818,0.0
14.216,-0.766,-0.837,0.0
20.091,-1.079,-0.624,6.0
19.954,-1.068,-0.724,3.0
18.578,-0.991,-0.771,0.0
17.065,-0.908,-0.799,0.0
15.697,-0.833,-0.817,0.0
14.485,-0.766,-0.83,0.0
20.086,-1.058,-0.592,24.0
20.05,-1.053,-0.695,11.0
19.469,-1.019,-0.777,0.0
17.407,-0.908,-0.787,0.0
16.107,-0.838,-0.813,0.0
14.859,-0.77,-0.827,0.0
20.074,-1.037,-0.559,32.0
20.066,-1.033,-0.663,19.0
19.838,-1.017,-0.76,1.0
20.067,-1.026,-0.875,0.0
20.139,-1.026,-0.984,0.0
15.222,-0.773,-0.823,0.0
20.048,-1.014,-0.526,32.0
20.091,-1.012,-0.632,23.0
19.888,-0.998,-0.73,3.0
18.271,-0.914,-0.768,0.0
20.072,-1.0,-0.948,0.0
20.085,-0.997,-1.054,0.0
20.066,-0.992,-0.495,28.0
20.075,-0.989,-0.6,11.0
19.991,-0.981,-0.702,6.0
19.289,-0.943,-0.78,0.0
17.4,-0.847,-0.794,0.0
20.091,-0.974,-1.023,0.0
20.062,-0.969,-0.463,25.0
20.08,-0.966,-0.568,2.0
21.542,-1.032,-0.723,0.0
19.727,-0.941,-0.767,1.0
17.824,-0.846,-0.786,0.0
16.366,-0.774,-0.807,0.0
20.053,-0.944,-0.431,14.0
24.587,-1.153,-0.657,0.0
22.386,-1.045,-0.716,0.0
19.794,-0.92,-0.738,0.0
18.125,-0.838,-0.771,0.0
16.68,-0.768,-0.797,0.0
20.046,-0.919,-0.4,0.0
26.474,-1.208,-0.667,0.0
22.92,-1.041,-0.697,0.0
20.665,-0.934,-0.739,0.0
18.648,-0.839,-0.764,0.0
17.247,-0.772,-0.797,0.0
31.944,-1.424,-0.589,0.0
27.265,-1.209,-0.645,0.0
23.588,-1.041,-0.681,0.0
21.38,-0.939,-0.732,0.0
19.272,-0.842,-0.761,0.0
17.604,-0.765,-0.787,0.0
0.0,0.0,0.0,0.0
28.639,-1.233,-0.635,0.0
24.855,-1.065,-0.681,0.0
21.886,-0.932,-0.716,0.0
19.649,-0.832,-0.746,0.0
18.037,-0.76,-0.779,0.0
0.0,0.0,0.0,0.0
0.0,0.0,0.0,0.0
26.032,-1.079,-0.674,0.0
22.716,-0.937,-0.71,0.0
20.51,-0.841,-0.748,0.0
18.644,-0.76,-0.778,0.0
37.327,-1.515,-0.521,0.0
31.044,-1.252,-0.596,0.0
27.067,-1.085,-0.661,0.0
23.574,-0.939,-0.702,0.0
20.753,-0.822,-0.727,0.0
19.051,-0.75,-0.767,0.0
0.0,0.0,0.0,0.0
0.0,0.0,0.0,0.0
28.093,-1.086,-0.645,0.0
24.448,-0.939,-0.692,0.0
21.833,-0.833,-0.732,0.0
19.567,-0.742,-0.759,0.0
0.0,0.0,0.0,0.0
0.0,0.0,0.0,0.0
0.0,0.0,0.0,0.0
25.065,-0.926,-0.673,0.0
22.383,-0.821,-0.719,0.0
20.035,-0.73,-0.749,0.0
0.0,0.0,0.0,0.0
0.0,0.0,0.0,0.0
30.325,-1.083,-0.61,0.0
0.0,0.0,0.0,0.0
23.268,-0.819,-0.715,0.0
20.683,-0.723,-0.744,0.0
46.881,-1.628,-0.385,1.0
37.954,-1.308,-0.511,0.0
0.0,0.0,0.0,0.0
27.141,-0.921,-0.653,0.0
23.728,-0.799,-0.696,0.0
21.061,-0.704,-0.729,0.0
0.0,0.0,0.0,0.0
41.361,-1.361,-0.5,0.0
0.0,0.0,0.0,0.0
28.324,-0.917,-0.643,0.0
24.402,-0.783,-0.682,0.0
21.909,-0.697,-0.728,10.0
0.0,0.0,0.0,0.0
41.471,-1.3,-0.445,0.0
34.957,-1.086,-0.559,0.0
29.82,-0.918,-0.637,0.0
21.891,-0.668,-0.583,7.0
21.88,-0.661,-0.698,11.0
0.0,0.0,0.0,0.0
44.59,-1.326,-0.419,1.0
37.957,-1.118,-0.557,0.0
30.913,-0.902,-0.62,0.0
21.856,-0.631,-0.553,161.0
21.875,-0.625,-0.669,87.0
0.0,0.0,0.0,0.0
48.089,-1.351,-0.389,1.0
38.093,-1.059,-0.509,0.0
31.322,-0.861,-0.587,0.0
21.868,-0.595,-0.525,184.0
21.882,-0.589,-0.641,150.0
0.0,0.0,0.0,0.0
0.0,0.0,0.0,0.0
40.906,-1.069,-0.494,0.0
34.106,-0.881,-0.596,0.0
21.898,-0.559,-0.498,8.0
21.907,-0.553,-0.614,97.0
0.0,0.0,0.0,0.0
0.0,0.0,0.0,0.0
43.359,-1.059,-0.47,1.0
34.464,-0.832,-0.559,0.0
29.031,-0.692,-0.624,0.0
18.159,-0.427,-0.486,4.0
0.0,0.0,0.0,0.0
0.0,0.0,0.0,0.0
0.0,0.0,0.0,0.0
0.0,0.0,0.0,0.0
30.182,-0.667,-0.612,0.0
26.408,-0.576,-0.676,0.0
0.0,0.0,0.0,0.0
0.0,0.0,0.0,0.0
0.0,0.0,0.0,0.0
0.0,0.0,0.0,0.0
0.0,0.0,0.0,0.0
26.814,-0.537,-0.654,0.0
101.543,-2.009,0.338,1.0
0.0,0.0,0.0,0.0
50.473,-0.967,-0.366,0.0
0.0,0.0,0.0,0.0
32.593,-0.605,-0.585,0.0
27.889,-0.509,-0.648,0.0
138.9,-2.5,0.622,2.0
0.0,0.0,0.0,0.0
0.0,0.0,0.0,0.0
0.0,0.0,0.0,0.0
0.0,0.0,0.0,0.0
28.84,-0.474,-0.638,0.0
138.846,-2.243,0.779,7.0
0.0,0.0,0.0,0.0
0.0,0.0,0.0,0.0
0.0,0.0,0.0,0.0
34.865,-0.519,-0.548,0.0
29.527,-0.43,-0.621,0.0
138.809,-1.988,0.929,21.0
0.0,0.0,0.0,0.0
0.0,0.0,0.0,0.0
0.0,0.0,0.0,0.0
36.398,-0.475,-0.533,0.0
30.74,-0.391,-0.614,0.0
139.227,-1.733,1.08,23.0
0.0,0.0,0.0,0.0
0.0,0.0,0.0,0.0
47.111,-0.542,-0.391,0.0
37.476,-0.419,-0.511,0.0
31.104,-0.337,-0.589,0.0
119.757,-1.265,1.051,150.0
0.0,0.0,0.0,0.0
0.0,0.0,0.0,0.0
0.0,0.0,0.0,0.0
0.0,0.0,0.0,0.0
0.0,0.0,0.0,0.0
119.678,-1.037,1.169,19.0
0.0,0.0,0.0,0.0
0.0,0.0,0.0,0.0
0.0,0.0,0.0,0.0
0.0,0.0,0.0,0.0
33.067,-0.233,-0.562,0.0
119.712,-0.809,1.284,17.0
111.035,-0.712,0.599,6.0
0.0,0.0,0.0,0.0
0.0,0.0,0.0,0.0
0.0,0.0,0.0,0.0
34.951,-0.178,-0.561,0.0
119.694,-0.576,1.395,16.0
111.075,-0.499,0.701,4.0
0.0,0.0,0.0,0.0
0.0,0.0,0.0,0.0
45.043,-0.158,-0.442,1.0
35.813,-0.114,-0.543,0.0
119.732,-0.344,1.502,7.0
114.467,-0.29,0.824,58.0
0.0,0.0,0.0,0.0
0.0,0.0,0.0,0.0
45.482,-0.07,-0.408,1.0
36.589,-0.045,-0.524,0.0
111.318,-0.1,1.493,18.0
111.194,-0.063,0.895,8.0
95.473,-0.024,0.256,1.0
0.0,0.0,0.0,0.0
45.808,0.019,-0.372,0.0
38.125,0.028,-0.514,0.0
111.04,0.121,1.581,18.0
111.18,0.157,0.986,9.0
93.728,0.164,0.328,2.0
0.0,0.0,0.0,0.0
49.576,0.119,-0.363,0.0
0.0,0.0,0.0,0.0
119.87,0.371,1.802,150.0
111.165,0.381,1.073,13.0
94.703,0.358,0.406,3.0
70.848,0.29,-0.084,0.0
0.0,0.0,0.0,0.0
42.932,0.204,-0.512,0.0
111.061,0.567,1.753,16.0
111.074,0.605,1.156,4.0
97.785,0.566,0.492,6.0
0.0,0.0,0.0,0.0
0.0,0.0,0.0,0.0
42.768,0.29,-0.479,1.0
100.544,0.718,1.66,1.0
100.492,0.751,1.117,5.0
98.15,0.767,0.563,12.0
0.0,0.0,0.0,0.0
52.951,0.449,-0.272,0.0
42.865,0.377,-0.451,0.0
104.743,0.962,1.801,22.0
98.683,0.939,1.164,30.0
98.324,0.969,0.63,15.0
81.005,0.825,0.073,7.0
0.0,0.0,0.0,0.0
43.05,0.468,-0.425,0.0
98.545,1.107,1.758,31.0
98.52,1.141,1.226,34.0
98.342,1.17,0.692,12.0
79.058,0.967,0.121,5.0
0.0,0.0,0.0,0.0
43.982,0.567,-0.407,0.0
98.586,1.31,1.819,30.0
98.575,1.342,1.286,28.0
98.579,1.375,0.752,15.0
80.942,1.156,0.172,2.0
0.0,0.0,0.0,0.0
46.965,0.702,-0.408,1.0
91.997,1.412,1.75,16.0
91.949,1.441,1.251,40.0
91.85,1.471,0.753,29.0
78.221,1.278,0.209,10.0
0.0,0.0,0.0,0.0
0.0,0.0,0.0,0.0
91.851,1.598,1.796,37.0
90.562,1.606,1.28,5.0
91.884,1.658,0.8,21.0
84.356,1.551,0.269,4.0
70.83,1.326,-0.158,0.0
47.921,0.913,-0.367,0.0
87.266,1.698,1.75,15.0
87.389,1.73,1.278,17.0
85.364,1.719,0.785,30.0
77.894,1.594,0.285,5.0
69.581,1.447,-0.122,0.0
0.0,0.0,0.0,0.0
85.267,1.837,1.75,36.0
85.25,1.866,1.286,38.0
85.243,1.894,0.822,34.0
78.597,1.772,0.323,5.0
67.608,1.546,-0.089,11.0
0.0,0.0,0.0,0.0
85.262,2.015,1.786,31.0
85.287,2.044,1.322,33.0
85.284,2.071,0.858,29.0
78.761,1.94,0.355,9.0
66.137,1.65,-0.061,7.0
0.0,0.0,0.0,0.0
78.935,2.031,1.684,28.0
78.893,2.055,1.253,31.0
78.896,2.081,0.823,32.0
78.7,2.102,0.384,7.0
65.114,1.761,-0.037,6.0
57.214,1.565,-0.344,2.0
77.427,2.153,1.679,0.0
76.726,2.158,1.245,5.0
76.228,2.168,0.82,7.0
72.154,2.077,0.375,6.0
64.649,1.882,-0.016,7.0
55.39,1.63,-0.316,0.0
74.774,2.233,1.644,4.0
74.187,2.239,1.226,3.0
119.961,3.661,1.327,10.0
72.337,2.231,0.397,20.0
0.0,0.0,0.0,0.0
55.104,1.736,-0.299,0.0
72.503,2.317,1.614,29.0
72.407,2.337,1.216,32.0
72.38,2.36,0.819,38.0
72.246,2.379,0.415,27.0
64.932,2.16,0.017,12.0
54.244,1.822,-0.281,1.0
72.373,2.464,1.628,33.0
72.358,2.487,1.231,36.0
72.349,2.51,0.835,36.0
72.213,2.528,0.43,16.0
65.194,2.303,0.031,11.0
54.308,1.937,-0.271,1.0
72.455,2.617,1.644,22.0
72.458,2.641,1.247,22.0
72.486,2.665,0.85,15.0
72.221,2.678,0.443,14.0
65.198,2.439,0.042,12.0
56.775,2.142,-0.274,3.0
120.104,4.587,2.745,22.0
120.069,4.624,2.084,8.0
119.94,4.657,1.423,16.0
72.333,2.83,0.453,7.0
65.166,2.571,0.05,11.0
55.624,2.212,-0.262,2.0
120.093,4.833,2.759,12.0
120.114,4.871,2.099,12.0
66.137,2.703,0.792,30.0
66.053,2.721,0.42,29.0
65.18,2.705,0.056,9.0
54.571,2.282,-0.252,3.0
66.045,2.794,1.522,7.0
63.17,2.692,1.108,9.0
61.613,2.645,0.742,8.0
66.045,2.856,0.425,22.0
65.043,2.833,0.06,9.0
53.379,2.342,-0.244,4.0
61.915,2.747,1.43,4.0
66.086,2.952,1.162,15.0
66.083,2.972,0.798,24.0
66.114,2.995,0.427,14.0
65.148,2.97,0.061,7.0
52.321,2.402,-0.239,17.0
120.102,5.576,2.775,7.0
0.0,0.0,0.0,0.0
120.074,5.648,1.448,12.0
120.023,5.682,0.773,16.0
65.304,3.112,0.06,7.0
51.698,2.48,-0.237,4.0
120.162,5.824,2.773,12.0
125.142,6.104,2.196,4.0
120.046,5.893,1.443,12.0
120.066,5.931,0.767,12.0
59.189,2.941,0.051,19.0
50.4,2.52,-0.234,5.0
124.811,6.304,2.872,101.0
124.8,6.342,2.181,33.0
59.45,3.038,0.709,26.0
59.383,3.053,0.374,28.0
59.037,3.053,0.045,17.0
51.204,2.664,-0.243,1.0
59.403,3.12,1.36,41.0
59.366,3.136,1.03,33.0
59.347,3.153,0.701,32.0
59.319,3.169,0.366,26.0
59.068,3.173,0.037,7.0
48.518,2.622,-0.238,3.0
59.403,3.24,1.352,25.0
59.366,3.255,1.021,29.0
59.376,3.273,0.692,26.0
59.338,3.289,0.356,20.0
52.353,2.917,0.024,24.0
47.799,2.677,-0.243,5.0
116.865,6.607,2.638,6.0
116.506,6.621,1.983,7.0
50.657,2.892,0.58,4.0
59.176,3.397,0.344,6.0
52.116,3.007,0.013,21.0
47.173,2.736,-0.249,9.0
114.951,6.726,2.57,3.0
50.666,2.979,0.851,7.0
50.082,2.959,0.562,4.0
106.181,6.304,0.591,6.0
51.851,3.094,0.0,19.0
45.874,2.75,-0.254,19.0
50.693,3.066,1.12,5.0
50.268,3.054,0.831,11.0
49.348,3.012,0.541,5.0
111.114,6.815,0.589,14.0
51.722,3.186,-0.013,20.0
45.44,2.812,-0.265,17.0
50.042,3.124,1.091,5.0
49.143,3.082,0.797,6.0
48.76,3.071,0.52,11.0
52.352,3.311,0.261,11.0
51.561,3.276,-0.029,20.0
45.082,2.877,-0.277,19.0
49.165,3.164,1.056,12.0
48.522,3.135,0.771,3.0
48.391,3.14,0.499,8.0
52.19,3.401,0.242,13.0
51.494,3.37,-0.048,19.0
44.525,2.927,-0.29,18.0
48.388,3.206,1.022,6.0
48.107,3.201,0.747,14.0
48.043,3.209,0.478,14.0
52.135,3.496,0.222,14.0
51.438,3.464,-0.067,15.0
43.946,2.971,-0.303,10.0
47.905,3.264,0.992,11.0
47.818,3.271,0.723,19.0
47.711,3.276,0.455,16.0
52.126,3.593,0.2,19.0
46.017,3.185,-0.08,26.0
43.067,2.992,-0.315,5.0
47.585,3.332,0.965,15.0
47.573,3.343,0.698,49.0
52.204,3.682,0.474,24.0
52.125,3.69,0.177,15.0
45.779,3.253,-0.1,19.0
42.35,3.021,-0.33,6.0
102.121,7.339,2.024,44.0
102.222,7.372,1.453,16.0
52.338,3.787,0.45,9.0
52.11,3.784,0.151,14.0
45.456,3.313,-0.122,19.0
41.491,3.035,-0.344,4.0
101.509,7.481,1.961,5.0
101.239,7.486,1.387,5.0
100.993,7.493,0.818,9.0
52.17,3.883,0.125,15.0
45.236,3.378,-0.145,19.0
40.884,3.064,-0.36,5.0
100.382,7.575,1.886,9.0
100.161,7.583,1.319,8.0
100.009,7.596,0.756,10.0
46.125,3.515,0.085,4.0
44.975,3.438,-0.169,19.0
40.626,3.116,-0.381,3.0
99.31,7.671,1.81,8.0
99.109,7.679,1.249,9.0
98.918,7.687,0.69,9.0
45.764,3.567,0.058,24.0
44.56,3.485,-0.193,19.0
40.474,3.175,-0.403,4.0
45.953,3.629,0.809,5.0
45.917,3.637,0.55,36.0
45.857,3.643,0.292,38.0
45.611,3.635,0.029,33.0
44.397,3.549,-0.22,19.0
40.3,3.231,-0.427,4.0
45.828,3.698,0.778,45.0
45.799,3.706,0.52,44.0
45.775,3.715,0.262,31.0
45.53,3.705,0.0,21.0
43.592,3.557,-0.244,18.0
40.145,3.285,-0.451,8.0
45.782,3.77,0.748,41.0
45.758,3.778,0.49,36.0
45.737,3.787,0.232,23.0
45.371,3.767,-0.03,24.0
0.0,0.0,0.0,0.0
40.003,3.341,-0.477,8.0
45.78,3.846,0.716,38.0
45.766,3.855,0.458,28.0
45.721,3.861,0.199,19.0
45.273,3.834,-0.061,20.0
40.894,3.472,-0.286,16.0
39.917,3.399,-0.505,5.0
45.807,3.923,0.683,25.0
45.797,3.932,0.425,20.0
45.742,3.938,0.166,16.0
45.167,3.898,-0.095,19.0
40.517,3.506,-0.314,20.0
39.765,3.45,-0.532,1.0
93.157,8.127,1.321,65.0
93.22,8.153,0.795,27.0
45.876,4.022,0.132,10.0
45.055,3.96,-0.128,19.0
40.345,3.554,-0.343,15.0
36.418,3.217,-0.515,1.0
92.919,8.252,1.245,9.0
92.756,8.258,0.719,11.0
45.72,4.079,0.095,15.0
44.652,3.993,-0.163,19.0
39.923,3.579,-0.371,14.0
36.062,3.241,-0.54,1.0
92.129,8.324,1.16,11.0
91.954,8.327,0.637,11.0
45.704,4.148,0.058,18.0
43.852,3.988,-0.196,18.0
39.625,3.613,-0.402,8.0
35.336,3.229,-0.558,1.0
91.355,8.391,1.074,10.0
91.223,8.397,0.555,10.0
45.548,4.202,0.019,2.0
43.111,3.986,-0.23,18.0
39.5,3.66,-0.434,6.0
32.65,3.032,-0.543,0.0
90.595,8.454,0.987,11.0
90.452,8.458,0.473,12.0
45.574,4.271,-0.019,5.0
0.0,0.0,0.0,0.0
39.429,3.71,-0.468,8.0
31.899,3.008,-0.559,1.0
89.882,8.516,0.9,11.0
89.766,8.521,0.39,10.0
45.518,4.329,-0.059,15.0
40.516,3.861,-0.287,16.0
39.364,3.759,-0.502,8.0
31.306,2.996,-0.577,1.0
89.231,8.579,0.813,12.0
89.061,8.578,0.305,10.0
45.328,4.374,-0.101,19.0
39.891,3.857,-0.319,22.0
39.282,3.805,-0.537,2.0
30.641,2.974,-0.593,0.0
88.583,8.637,0.724,12.0
88.42,8.636,0.221,11.0
0.0,0.0,0.0,0.0
39.688,3.89,-0.355,15.0
39.272,3.857,-0.574,0.0
29.706,2.923,-0.603,0.0
87.965,8.692,0.636,11.0
86.369,8.548,0.134,11.0
43.623,4.325,-0.18,18.0
39.348,3.908,-0.389,14.0
34.019,3.384,-0.53,1.0
28.874,2.878,-0.614,0.0
87.37,8.744,0.548,11.0
87.147,8.735,0.05,3.0
42.888,4.306,-0.218,18.0
39.148,3.937,-0.426,8.0
33.593,3.384,-0.556,1.0
27.922,2.818,-0.622,0.0
86.819,8.797,0.457,10.0
86.47,8.775,-0.035,3.0
40.864,4.153,-0.249,16.0
39.113,3.982,-0.465,9.0
33.325,3.398,-0.586,0.0
27.303,2.789,-0.635,0.0
86.246,8.843,0.366,11.0
52.197,5.359,-0.075,2.0
40.253,4.139,-0.286,16.0
39.06,4.023,-0.504,8.0
30.958,3.194,-0.576,0.0
26.573,2.746,-0.646,0.0
85.751,8.892,0.276,11.0
45.583,4.733,-0.112,4.0
39.709,4.129,-0.324,28.0
39.019,4.063,-0.544,4.0
30.374,3.168,-0.597,1.0
26.016,2.718,-0.66,0.0
84.211,8.827,0.182,20.0
45.556,4.781,-0.16,5.0
39.438,4.145,-0.364,15.0
38.958,4.1,-0.585,0.0
29.251,3.083,-0.606,0.0
25.333,2.674,-0.67,0.0
84.15,8.911,0.092,23.0
43.125,4.573,-0.198,17.0
39.118,4.153,-0.403,13.0
0.0,0.0,0.0,0.0
28.314,3.014,-0.617,0.0
24.75,2.639,-0.681,0.0
70.745,7.566,0.0,3.0
41.485,4.442,-0.236,17.0
38.936,4.174,-0.444,7.0
32.249,3.462,-0.555,1.0
27.424,2.948,-0.628,0.0
24.093,2.593,-0.689,0.0
70.149,7.572,-0.076,5.0
40.328,4.358,-0.274,19.0
38.89,4.208,-0.486,9.0
31.599,3.423,-0.579,1.0
26.744,2.901,-0.643,0.0
23.343,2.536,-0.694,0.0
52.101,5.674,-0.115,2.0
39.806,4.34,-0.315,24.0
38.845,4.239,-0.529,9.0
30.197,3.299,-0.587,1.0
26.11,2.856,-0.656,0.0
22.721,2.489,-0.701,0.0
45.454,4.991,-0.151,7.0
39.396,4.331,-0.356,17.0
38.823,4.272,-0.573,2.0
29.264,3.224,-0.602,0.0
25.285,2.789,-0.665,0.0
22.104,2.441,-0.707,0.0
42.778,4.735,-0.191,18.0
38.992,4.32,-0.397,14.0
0.0,0.0,0.0,0.0
28.274,3.139,-0.614,1.0
24.634,2.738,-0.676,0.0
21.729,2.418,-0.721,0.0
0.0,0.0,0.0,0.0
38.784,4.329,-0.439,10.0
32.049,3.58,-0.546,0.0
27.398,3.064,-0.626,0.0
23.915,2.677,-0.684,0.0
21.096,2.364,-0.724,0.0
40.288,4.524,-0.274,16.0
38.739,4.354,-0.485,9.0
31.264,3.517,-0.57,1.0
26.708,3.007,-0.642,0.0
23.256,2.621,-0.692,0.0
20.495,2.312,-0.728,0.0
39.658,4.483,-0.315,28.0
38.715,4.38,-0.53,6.0
30.316,3.432,-0.588,1.0
25.957,2.941,-0.655,0.0
22.747,2.58,-0.704,0.0
20.148,2.288,-0.739,0.0
39.347,4.475,-0.359,15.0
38.752,4.411,-0.576,1.0
29.046,3.308,-0.598,0.0
25.151,2.867,-0.664,0.0
22.198,2.533,-0.713,0.0
19.632,2.242,-0.743,0.0
38.897,4.449,-0.401,14.0
32.926,3.769,-0.528,0.0
28.202,3.23,-0.614,0.0
24.549,2.814,-0.678,0.0
21.555,2.473,-0.718,0.0
19.221,2.207,-0.751,0.0
38.679,4.447,-0.445,9.0
32.245,3.71,-0.556,0.0
27.274,3.14,-0.626,0.0
23.79,2.741,-0.685,0.0
20.924,2.413,-0.722,0.0
18.709,2.159,-0.753,0.0
38.664,4.467,-0.491,9.0
30.729,3.553,-0.566,0.0
26.418,3.056,-0.638,0.0
23.1,2.674,-0.693,0.0
20.551,2.381,-0.734,0.0
18.317,2.124,-0.76,0.0
38.651,4.486,-0.538,6.0
30.223,3.509,-0.594,1.0
25.776,2.995,-0.654,0.0
22.511,2.617,-0.703,0.0
19.976,2.324,-0.738,0.0
17.917,2.086,-0.765,0.0
38.659,4.505,-0.585,1.0
28.724,3.349,-0.599,1.0
25.048,2.922,-0.666,0.0
21.921,2.559,-0.711,0.0
19.542,2.283,-0.746,0.0
17.638,2.061,-0.774,0.0
32.73,3.828,-0.535,0.0
27.891,3.263,-0.616,1.0
24.32,2.847,-0.676,0.0
21.333,2.499,-0.718,0.0
19.08,2.236,-0.751,0.0
17.293,2.028,-0.78,0.0
31.663,3.715,-0.556,0.0
27.039,3.174,-0.63,1.0
23.634,2.775,-0.686,0.0
20.834,2.448,-0.726,0.0
18.675,2.195,-0.758,0.0
16.973,1.997,-0.786,0.0
30.421,3.579,-0.571,1.0
26.248,3.089,-0.643,0.0
22.973,2.705,-0.694,0.0
20.312,2.393,-0.732,0.0
18.229,2.149,-0.762,0.0
16.614,1.959,-0.79,0.0
29.979,3.536,-0.599,1.0
25.573,3.017,-0.658,0.0
22.379,2.641,-0.704,0.0
19.829,2.341,-0.739,0.0
17.858,2.11,-0.768,0.0
16.264,1.922,-0.793,0.0
28.413,3.358,-0.602,0.0
24.841,2.937,-0.669,0.0
21.659,2.561,-0.707,0.0
19.408,2.296,-0.747,0.0
17.545,2.076,-0.776,0.0
16.0,1.894,-0.8,0.0
27.446,3.249,-0.615,0.0
24.047,2.847,-0.676,0.0
21.227,2.514,-0.719,0.0
18.919,2.242,-0.751,0.0
17.111,2.028,-0.778,0.0
15.796,1.873,-0.809,0.0
26.781,3.174,-0.632,0.0
23.41,2.775,-0.686,0.0
20.663,2.45,-0.724,0.0
18.444,2.188,-0.754,0.0
16.886,2.004,-0.788,0.0
15.404,1.828,-0.807,0.0
26.002,3.085,-0.644,0.0
22.921,2.719,-0.7,0.0
20.191,2.396,-0.732,0.0
18.05,2.142,-0.76,0.0
16.6,1.971,-0.794,0.0
15.192,1.804,-0.814,0.0
25.339,3.007,-0.658,0.0
22.251,2.641,-0.706,0.0
19.718,2.341,-0.738,0.0
17.725,2.105,-0.767,0.0
16.289,1.935,-0.799,0.0
14.92,1.773,-0.817,0.0
24.599,2.92,-0.668,0.0
21.551,2.558,-0.709,0.0
19.314,2.293,-0.746,0.0
17.389,2.065,-0.773,0.0
15.907,1.889,-0.799,0.0
14.613,1.736,-0.818,0.0
23.878,2.833,-0.677,0.0
21.108,2.505,-0.719,0.0
18.885,2.241,-0.752,0.0
17.005,2.018,-0.776,0.0
15.672,1.86,-0.806,0.0
14.395,1.709,-0.823,0.0
23.227,2.754,-0.685,0.0
20.545,2.436,-0.724,0.0
18.431,2.185,-0.755,0.0
16.773,1.989,-0.785,0.0
15.389,1.825,-0.809,0.0
14.19,1.683,-0.827,0.0
22.785,2.699,-0.699,0.0
20.072,2.377,-0.73,0.0
18.063,2.139,-0.761,0.0
16.488,1.953,-0.791,0.0
15.144,1.794,-0.813,0.0
14.01,1.66,-0.833,0.0
22.028,2.606,-0.7,0.0
19.687,2.328,-0.739,0.0
17.687,2.092,-0.765,0.0
16.198,1.915,-0.796,0.0
14.888,1.761,-0.817,0.0
13.785,1.63,-0.836,0.0
21.557,2.545,-0.71,0.0
19.254,2.273,-0.744,0.0
17.415,2.056,-0.773,0.0
15.914,1.878,-0.8,0.0
14.678,1.732,-0.822,0.0
13.617,1.607,-0.841,0.0
21.075,2.483,-0.718,0.0
18.829,2.218,-0.749,0.0
17.101,2.014,-0.778,0.0
15.673,1.845,-0.805,0.0
14.332,1.687,-0.818,0.0
13.458,1.585,-0.846,0.0
20.528,2.412,-0.722,0.0
18.432,2.165,-0.753,0.0
16.744,1.966,-0.78,0.0
15.398,1.808,-0.808,0.0
14.209,1.668,-0.827,0.0
13.201,1.55,-0.844,0.0
20.13,2.358,-0.729,0.0
18.01,2.109,-0.755,0.0
16.501,1.932,-0.787,0.0
15.133,1.772,-0.81,0.0
13.988,1.637,-0.829,0.0
13.055,1.528,-0.849,0.0
19.761,2.307,-0.737,0.0
17.737,2.07,-0.763,0.0
16.197,1.89,-0.79,0.0
14.924,1.741,-0.815,0.0
13.844,1.615,-0.835,0.0
12.913,1.506,-0.853,0.0
19.307,2.246,-0.74,0.0
17.483,2.033,-0.771,0.0
16.023,1.862,-0.798,0.0
14.638,1.701,-0.815,0.0
13.713,1.593,-0.842,0.0
12.661,1.47,-0.85,0.0
18.945,2.195,-0.746,0.0
17.172,1.988,-0.775,0.0
15.808,1.83,-0.804,0.0
14.469,1.674,-0.82,0.0
13.556,1.568,-0.846,0.0
12.553,1.452,-0.856,0.0
18.547,2.139,-0.749,0.0
16.901,1.948,-0.779,0.0
15.572,1.794,-0.807,0.0
14.295,1.646,-0.825,0.0
13.372,1.539,-0.848,0.0
12.468,1.435,-0.862,0.0
18.253,2.095,-0.755,0.0
16.621,1.906,-0.783,0.0
15.292,1.753,-0.808,0.0
14.131,1.619,-0.829,0.0
13.144,1.505,-0.847,0.0
12.28,1.406,-0.861,0.0
17.975,2.052,-0.762,0.0
16.399,1.871,-0.788,0.0
15.073,1.719,-0.811,0.0
13.929,1.587,-0.831,0.0
12.952,1.475,-0.846,0.0
12.014,1.368,-0.854,0.0
17.654,2.004,-0.765,0.0
16.175,1.835,-0.793,0.0
14.82,1.68,-0.811,0.0
13.8,1.564,-0.836,0.0
12.887,1.459,-0.854,0.0
11.824,1.338,-0.852,0.0
17.487,1.973,-0.773,0.0
15.969,1.8,-0.797,0.0
14.642,1.65,-0.815,0.0
13.616,1.533,-0.837,0.0
12.662,1.425,-0.851,0.0
11.76,1.323,-0.858,0.0
17.187,1.927,-0.775,0.0
15.756,1.765,-0.801,0.0
14.545,1.628,-0.822,0.0
13.525,1.513,-0.843,0.0
12.497,1.397,-0.851,0.0
11.704,1.308,-0.864,0.0
16.901,1.882,-0.777,0.0
15.446,1.718,-0.799,0.0
14.344,1.595,-0.823,0.0
13.267,1.474,-0.839,0.0
12.364,1.373,-0.852,0.0
11.601,1.287,-0.866,0.0
16.761,1.852,-0.785,0.0
15.31,1.691,-0.804,0.0
14.165,1.563,-0.825,0.0
13.203,1.456,-0.846,0.0
12.303,1.356,-0.859,0.0
11.434,1.259,-0.863,0.0
16.541,1.814,-0.788,0.0
15.163,1.662,-0.809,0.0
14.071,1.541,-0.831,0.0
13.103,1.434,-0.85,0.0
12.21,1.335,-0.862,0.0
11.3,1.235,-0.862,0.0
16.241,1.767,-0.787,0.0
14.976,1.628,-0.811,0.0
13.858,1.505,-0.829,0.0
12.962,1.407,-0.851,0.0
11.931,1.294,-0.851,0.0
11.197,1.213,-0.863,0.0
16.013,1.728,-0.788,0.0
14.816,1.597,-0.813,0.0
13.796,1.486,-0.836,0.0
12.847,1.382,-0.853,0.0
11.816,1.27,-0.852,0.0
11.141,1.197,-0.867,0.0
15.883,1.699,-0.793,0.0
14.702,1.571,-0.818,0.0
13.644,1.456,-0.837,0.0
12.701,1.354,-0.852,0.0
11.741,1.251,-0.855,0.0
11.046,1.176,-0.868,0.0
15.761,1.67,-0.798,0.0
14.492,1.534,-0.816,0.0
13.533,1.431,-0.839,0.0
12.594,1.33,-0.854,0.0
11.679,1.232,-0.859,0.0
10.935,1.153,-0.866,0.0
15.644,1.642,-0.803,0.0
14.371,1.506,-0.819,0.0
13.447,1.408,-0.843,0.0
12.398,1.297,-0.849,0.0
11.602,1.212,-0.861,0.0
10.856,1.133,-0.867,0.0
15.435,1.604,-0.802,0.0
14.317,1.485,-0.825,0.0
13.235,1.372,-0.838,0.0
12.397,1.283,-0.857,0.0
11.511,1.19,-0.861,0.0
10.813,1.117,-0.87,0.0
15.354,1.578,-0.807,0.0
14.136,1.451,-0.823,0.0
13.252,1.359,-0.847,0.0
12.266,1.256,-0.855,0.0
11.359,1.162,-0.856,0.0
10.721,1.096,-0.869,0.0
15.257,1.552,-0.81,0.0
14.047,1.427,-0.826,0.0
13.142,1.333,-0.847,0.0
12.178,1.234,-0.855,0.0
11.297,1.143,-0.858,0.0
10.69,1.08,-0.873,0.0
15.092,1.518,-0.81,0.0
13.945,1.4,-0.827,0.0
13.023,1.306,-0.846,0.0
12.026,1.204,-0.851,0.0
11.229,1.123,-0.858,0.0
10.635,1.062,-0.873,0.0
14.965,1.487,-0.81,0.0
13.905,1.38,-0.832,0.0
12.98,1.286,-0.85,0.0
11.916,1.179,-0.849,0.0
