X,Y,Z,Reflectivity
117.305,-0.131,0.96,7.0
97.347,-0.075,0.265,2.0
0.0,0.0,0.0,0.0
45.81,-0.003,-0.38,1.0
37.985,0.01,-0.523,0.0
111.117,0.072,1.538,18.0
111.104,0.112,0.93,8.0
93.11,0.125,0.269,2.0
0.0,0.0,0.0,0.0
0.0,0.0,0.0,0.0
38.381,0.093,-0.523,0.0
119.833,0.333,1.677,16.0
111.05,0.349,0.945,13.0
94.565,0.332,0.287,2.0
0.0,0.0,0.0,0.0
48.643,0.205,-0.39,0.0
0.0,0.0,0.0,0.0
111.08,0.548,1.567,30.0
110.987,0.588,0.957,14.0
87.053,0.492,0.273,1.0
0.0,0.0,0.0,0.0
0.0,0.0,0.0,0.0
0.0,0.0,0.0,0.0
0.0,0.0,0.0,0.0
104.785,0.78,0.91,21.0
85.533,0.666,0.273,4.0
0.0,0.0,0.0,0.0
46.834,0.397,-0.369,0.0
37.761,0.334,-0.505,0.0
98.746,0.913,1.404,16.0
98.508,0.945,0.859,17.0
85.541,0.85,0.275,4.0
48.397,0.498,-0.114,0.0
46.717,0.497,-0.367,0.0
0.0,0.0,0.0,0.0
98.531,1.122,1.401,29.0
98.505,1.157,0.858,19.0
84.946,1.027,0.273,6.0
0.0,0.0,0.0,0.0
0.0,0.0,0.0,0.0
0.0,0.0,0.0,0.0
98.543,1.336,1.398,25.0
98.646,1.37,0.855,16.0
81.025,1.154,0.256,4.0
0.0,0.0,0.0,0.0
46.957,0.702,-0.373,1.0
38.833,0.594,-0.523,0.0
91.925,1.444,1.297,37.0
91.859,1.474,0.789,31.0
78.214,1.283,0.24,10.0
0.0,0.0,0.0,0.0
46.13,0.788,-0.371,0.0
0.0,0.0,0.0,0.0
87.424,1.561,1.223,31.0
91.885,1.671,0.778,20.0
78.011,1.446,0.23,4.0
0.0,0.0,0.0,0.0
0.0,0.0,0.0,0.0
37.126,0.725,-0.509,0.0
85.431,1.705,1.183,19.0
85.32,1.732,0.709,23.0
72.325,1.493,0.201,4.0
0.0,0.0,0.0,0.0
45.654,0.973,-0.382,0.0
36.947,0.8,-0.513,0.0
85.245,1.884,1.164,34.0
85.199,1.91,0.692,22.0
71.979,1.638,0.186,12.0
67.244,1.553,-0.204,1.0
0.0,0.0,0.0,0.0
36.524,0.868,-0.515,0.0
85.314,2.065,1.146,27.0
79.017,1.939,0.624,12.0
71.627,1.781,0.168,11.0
65.766,1.657,-0.216,0.0
45.272,1.156,-0.399,0.0
35.936,0.929,-0.516,0.0
78.564,2.067,1.035,10.0
78.825,2.1,0.601,17.0
71.317,1.924,0.148,9.0
57.134,1.56,-0.203,6.0
45.152,1.248,-0.411,0.0
36.162,1.012,-0.53,0.0
74.455,2.115,0.959,5.0
78.865,2.267,0.577,13.0
0.0,0.0,0.0,0.0
62.533,1.839,-0.242,1.0
45.471,1.352,-0.429,0.0
35.663,1.072,-0.535,0.0
119.987,3.661,1.505,9.0
72.459,2.234,0.506,26.0
65.504,2.04,0.093,4.0
55.219,1.738,-0.233,0.0
45.534,1.447,-0.446,0.0
35.487,1.14,-0.545,0.0
72.388,2.358,0.881,32.0
72.291,2.379,0.477,28.0
65.173,2.166,0.067,10.0
59.465,1.996,-0.275,1.0
0.0,0.0,0.0,0.0
0.0,0.0,0.0,0.0
72.359,2.507,0.851,32.0
72.196,2.523,0.447,14.0
65.163,2.299,0.04,9.0
54.01,1.923,-0.272,1.0
0.0,0.0,0.0,0.0
0.0,0.0,0.0,0.0
72.489,2.66,0.821,15.0
72.102,2.668,0.414,10.0
64.925,2.423,0.011,7.0
52.558,1.978,-0.289,0.0
40.638,1.542,-0.45,0.0
33.892,1.297,-0.565,0.0
61.277,2.373,0.664,7.0
66.091,2.579,0.348,7.0
58.808,2.314,-0.018,4.0
52.236,2.071,-0.313,0.0
0.0,0.0,0.0,0.0
33.228,1.338,-0.57,0.0
66.125,2.694,0.683,29.0
66.025,2.71,0.313,19.0
58.798,2.431,-0.049,17.0
49.158,2.048,-0.32,0.0
0.0,0.0,0.0,0.0
32.058,1.355,-0.567,0.0
66.047,2.823,0.646,26.0
65.968,2.84,0.276,16.0
58.546,2.537,-0.082,7.0
52.952,2.311,-0.375,0.0
38.012,1.671,-0.482,0.0
31.702,1.403,-0.58,0.0
66.113,2.956,0.608,20.0
65.843,2.964,0.237,12.0
53.115,2.407,-0.105,9.0
47.803,2.18,-0.367,2.0
0.0,0.0,0.0,0.0
31.617,1.461,-0.597,0.0
120.037,5.605,1.031,15.0
65.72,3.087,0.196,10.0
52.457,2.479,-0.137,22.0
0.0,0.0,0.0,0.0
36.483,1.745,-0.508,0.0
30.364,1.462,-0.593,0.0
120.033,5.836,0.954,16.0
59.499,2.909,0.138,7.0
51.819,2.549,-0.169,22.0
43.695,2.162,-0.392,1.0
36.528,1.818,-0.533,0.0
30.108,1.507,-0.608,0.0
59.492,3.005,0.432,12.0
59.244,3.01,0.097,21.0
51.046,2.608,-0.202,6.0
42.558,2.186,-0.411,1.0
34.826,1.799,-0.532,0.0
29.343,1.524,-0.613,0.0
59.329,3.11,0.388,28.0
58.952,3.106,0.055,9.0
49.048,2.598,-0.229,2.0
42.373,2.256,-0.44,2.0
33.887,1.813,-0.543,0.0
28.963,1.558,-0.627,0.0
59.318,3.219,0.345,20.0
52.27,2.851,0.01,25.0
48.16,2.641,-0.261,3.0
42.305,2.331,-0.472,1.0
33.671,1.865,-0.565,0.0
28.271,1.573,-0.634,0.0
59.376,3.333,0.299,15.0
51.76,2.919,-0.03,21.0
47.227,2.676,-0.293,12.0
0.0,0.0,0.0,0.0
32.42,1.855,-0.57,0.0
27.456,1.578,-0.637,0.0
59.218,3.431,0.25,4.0
51.469,2.996,-0.072,21.0
46.355,2.711,-0.326,15.0
37.94,2.229,-0.484,1.0
31.572,1.863,-0.581,0.0
26.694,1.583,-0.642,0.0
52.414,3.133,0.177,11.0
51.212,3.074,-0.115,23.0
45.725,2.756,-0.36,10.0
37.844,2.291,-0.516,1.0
30.926,1.881,-0.596,0.0
26.385,1.611,-0.657,0.0
52.229,3.213,0.131,20.0
50.958,3.148,-0.158,11.0
45.012,2.792,-0.394,5.0
36.072,2.247,-0.523,0.0
29.784,1.863,-0.6,0.0
25.499,1.602,-0.658,0.0
51.945,3.287,0.084,12.0
45.609,2.897,-0.183,20.0
44.283,2.824,-0.428,3.0
0.0,0.0,0.0,0.0
29.082,1.869,-0.613,0.0
25.189,1.625,-0.673,0.0
51.707,3.36,0.036,17.0
45.119,2.943,-0.223,19.0
41.056,2.688,-0.435,1.0
33.444,2.198,-0.547,0.0
28.297,1.867,-0.623,0.0
24.559,1.626,-0.68,0.0
51.531,3.435,-0.012,15.0
44.522,2.979,-0.263,18.0
39.145,2.628,-0.452,0.0
32.423,2.185,-0.561,0.0
27.372,1.851,-0.629,0.0
23.971,1.627,-0.687,0.0
46.095,3.149,-0.056,13.0
43.395,2.974,-0.298,5.0
38.038,2.616,-0.477,0.0
31.668,2.185,-0.58,0.0
26.8,1.856,-0.642,0.0
23.466,1.631,-0.695,0.0
45.79,3.201,-0.101,20.0
42.244,2.963,-0.333,4.0
36.847,2.593,-0.499,1.0
30.462,2.151,-0.588,0.0
26.044,1.845,-0.651,0.0
22.886,1.627,-0.702,0.0
45.365,3.244,-0.147,20.0
41.686,2.99,-0.371,2.0
35.633,2.564,-0.519,0.0
29.48,2.128,-0.6,0.0
25.597,1.853,-0.666,0.0
22.465,1.632,-0.712,0.0
44.918,3.281,-0.192,19.0
41.133,3.013,-0.41,2.0
34.579,2.541,-0.54,1.0
28.781,2.121,-0.616,0.0
25.035,1.85,-0.678,0.0
22.046,1.635,-0.722,0.0
44.533,3.319,-0.238,12.0
40.737,3.045,-0.449,3.0
33.086,2.481,-0.553,0.0
27.978,2.104,-0.629,0.0
24.184,1.824,-0.681,0.0
21.396,1.618,-0.725,0.0
41.105,3.125,-0.265,16.0
40.311,3.073,-0.489,2.0
31.799,2.431,-0.566,0.0
27.136,2.08,-0.64,0.0
23.65,1.818,-0.693,0.0
20.782,1.602,-0.727,0.0
40.78,3.16,-0.309,12.0
36.463,2.832,-0.483,0.0
30.805,2.399,-0.583,0.0
26.15,2.042,-0.647,0.0
23.068,1.806,-0.702,0.0
20.342,1.597,-0.734,0.0
40.518,3.196,-0.352,7.0
35.539,2.81,-0.511,1.0
0.0,0.0,0.0,0.0
25.43,2.021,-0.658,0.0
22.373,1.783,-0.706,0.0
19.944,1.593,-0.743,0.0
40.301,3.234,-0.397,4.0
34.185,2.75,-0.531,1.0
0.0,0.0,0.0,0.0
24.83,2.007,-0.671,0.0
21.832,1.769,-0.715,0.0
19.531,1.587,-0.751,0.0
40.134,3.274,-0.443,8.0
32.767,2.679,-0.548,1.0
27.96,2.292,-0.627,0.0
24.134,1.983,-0.681,0.0
21.337,1.757,-0.724,0.0
19.027,1.571,-0.754,0.0
40.004,3.316,-0.49,2.0
31.736,2.636,-0.569,0.0
27.078,2.254,-0.64,0.0
23.468,1.958,-0.691,0.0
20.787,1.738,-0.731,0.0
18.569,1.556,-0.759,0.0
36.931,3.107,-0.497,1.0
30.533,2.574,-0.585,0.0
26.111,2.206,-0.649,0.0
22.652,1.918,-0.694,0.0
20.255,1.719,-0.736,0.0
18.191,1.547,-0.766,0.0
36.467,3.113,-0.535,0.0
29.366,2.511,-0.598,0.0
25.376,2.174,-0.662,0.0
22.096,1.897,-0.705,1.0
19.855,1.709,-0.747,0.0
17.91,1.545,-0.776,0.0
33.333,2.884,-0.53,0.0
28.29,2.452,-0.611,0.0
24.678,2.144,-0.674,0.0
21.959,1.911,-0.728,0.0
19.389,1.691,-0.753,0.0
17.504,1.53,-0.78,0.0
32.304,2.832,-0.555,1.0
27.445,2.41,-0.628,0.0
23.704,2.086,-0.678,0.0
21.046,1.855,-0.724,0.0
18.866,1.666,-0.757,0.0
17.11,1.514,-0.785,0.0
31.164,2.766,-0.575,0.0
26.504,2.357,-0.64,0.0
23.162,2.063,-0.692,0.0
20.471,1.827,-0.731,0.0
18.404,1.645,-0.762,0.0
16.79,1.504,-0.792,0.0
29.902,2.686,-0.59,0.0
25.773,2.319,-0.656,0.0
22.566,2.034,-0.703,0.0
19.944,1.8,-0.738,0.0
17.999,1.628,-0.769,0.0
16.373,1.483,-0.793,0.0
28.747,2.611,-0.604,0.0
24.92,2.267,-0.666,0.0
21.769,1.984,-0.707,0.0
19.471,1.777,-0.746,0.0
17.693,1.618,-0.779,0.0
16.099,1.474,-0.801,0.0
27.63,2.537,-0.617,0.0
24.282,2.233,-0.681,0.0
21.318,1.963,-0.72,0.0
18.966,1.749,-0.751,0.0
17.294,1.598,-0.784,0.0
15.722,1.455,-0.803,0.0
26.866,2.491,-0.635,0.0
23.356,2.169,-0.686,0.0
20.661,1.922,-0.725,0.0
18.547,1.728,-0.759,0.0
16.892,1.576,-0.789,0.0
15.462,1.445,-0.81,0.0
25.894,2.424,-0.647,0.0
22.679,2.126,-0.696,0.0
20.126,1.889,-0.733,0.0
18.153,1.707,-0.767,0.0
16.453,1.549,-0.79,0.0
15.168,1.43,-0.815,0.0
25.201,2.381,-0.663,0.0
22.142,2.094,-0.709,0.0
19.66,1.862,-0.743,0.0
17.66,1.675,-0.77,0.0
16.152,1.534,-0.797,0.0
14.913,1.418,-0.822,0.0
24.357,2.32,-0.673,0.0
21.411,2.042,-0.715,0.0
19.241,1.837,-0.752,0.0
17.302,1.654,-0.778,0.0
15.882,1.521,-0.805,0.0
14.597,1.4,-0.824,0.0
23.49,2.255,-0.681,0.0
20.731,1.993,-0.72,0.0
18.659,1.796,-0.755,0.0
16.951,1.633,-0.785,0.0
15.443,1.49,-0.804,0.0
14.367,1.388,-0.83,0.0
22.989,2.224,-0.697,0.0
20.319,1.968,-0.733,0.0
18.121,1.757,-0.758,0.0
16.502,1.602,-0.786,0.0
15.199,1.477,-0.811,0.0
13.989,1.361,-0.827,0.0
22.037,2.146,-0.698,0.0
19.74,1.924,-0.739,0.0
17.78,1.735,-0.767,0.0
16.218,1.585,-0.795,0.0
14.971,1.464,-0.82,0.0
13.798,1.351,-0.835,0.0
21.579,2.115,-0.713,0.0
19.239,1.887,-0.746,0.0
17.428,1.712,-0.776,0.0
15.826,1.556,-0.797,0.0
14.653,1.442,-0.822,0.0
13.648,1.345,-0.844,0.0
20.966,2.067,-0.72,0.0
18.693,1.845,-0.75,0.0
17.0,1.679,-0.78,0.0
15.536,1.536,-0.803,0.0
14.4,1.425,-0.827,0.0
13.408,1.328,-0.848,0.0
20.325,2.015,-0.726,0.0
18.242,1.81,-0.756,0.0
16.699,1.658,-0.788,0.0
15.268,1.517,-0.81,0.0
14.093,1.402,-0.829,0.0
13.145,1.309,-0.849,0.0
19.886,1.981,-0.737,0.0
17.917,1.786,-0.767,0.0
16.355,1.632,-0.794,0.0
15.01,1.499,-0.817,0.0
13.899,1.389,-0.836,0.0
12.979,1.299,-0.856,0.0
19.43,1.944,-0.746,0.0
17.439,1.746,-0.77,0.0
15.957,1.599,-0.796,0.0
14.696,1.474,-0.819,0.0
13.651,1.37,-0.84,0.0
12.677,1.274,-0.853,0.0
18.756,1.884,-0.746,0.0
17.225,1.731,-0.784,0.0
15.64,1.573,-0.802,0.0
14.413,1.451,-0.823,0.0
13.526,1.363,-0.851,0.0
12.407,1.251,-0.852,0.0
18.333,1.848,-0.754,0.0
16.651,1.68,-0.78,0.0
15.369,1.551,-0.809,0.0
14.214,1.436,-0.831,0.0
13.238,1.338,-0.85,0.0
12.263,1.241,-0.859,0.0
17.913,1.811,-0.761,0.0
16.37,1.656,-0.789,0.0
15.079,1.527,-0.814,0.0
13.904,1.409,-0.832,0.0
12.947,1.313,-0.849,0.0
11.987,1.216,-0.855,0.0
17.595,1.784,-0.771,0.0
16.07,1.63,-0.796,0.0
14.814,1.504,-0.819,0.0
13.725,1.394,-0.84,0.0
12.757,1.296,-0.854,0.0
11.779,1.198,-0.856,0.0
17.188,1.746,-0.776,0.0
15.733,1.599,-0.8,0.0
14.492,1.474,-0.821,0.0
13.434,1.367,-0.839,0.0
12.375,1.26,-0.844,0.0
11.64,1.186,-0.862,0.0
16.865,1.717,-0.783,0.0
15.414,1.57,-0.804,0.0
14.246,1.451,-0.825,0.0
13.22,1.347,-0.843,0.0
12.246,1.249,-0.852,0.0
11.457,1.169,-0.863,0.0
16.435,1.675,-0.785,0.0
15.166,1.546,-0.811,0.0
13.969,1.425,-0.828,0.0
13.005,1.327,-0.847,0.0
12.168,1.242,-0.862,0.0
11.286,1.153,-0.865,0.0
16.176,1.65,-0.793,0.0
14.898,1.52,-0.816,0.0
13.769,1.405,-0.833,0.0
12.785,1.305,-0.849,0.0
11.864,1.212,-0.856,0.0
11.102,1.135,-0.865,0.0
15.842,1.617,-0.797,0.0
14.569,1.487,-0.817,0.0
13.532,1.382,-0.837,0.0
12.574,1.284,-0.851,0.0
11.719,1.197,-0.861,0.0
10.93,1.117,-0.866,0.0
15.533,1.585,-0.801,0.0
14.367,1.466,-0.824,0.0
13.415,1.369,-0.846,0.0
12.29,1.255,-0.848,0.0
11.517,1.176,-0.861,0.0
10.851,1.109,-0.873,0.0
15.271,1.558,-0.807,0.0
14.085,1.437,-0.825,0.0
13.037,1.33,-0.839,0.0
12.175,1.242,-0.855,0.0
11.366,1.16,-0.864,0.0
10.683,1.091,-0.873,0.0
15.034,1.532,-0.813,0.0
13.872,1.414,-0.83,0.0
12.932,1.318,-0.848,0.0
11.976,1.221,-0.856,0.0
11.239,1.146,-0.868,0.0
10.584,1.08,-0.878,0.0
14.719,1.498,-0.814,0.0
13.678,1.392,-0.835,0.0
12.723,1.295,-0.85,0.0
11.78,1.199,-0.856,0.0
11.009,1.121,-0.864,0.0
10.392,1.058,-0.875,0.0
14.493,1.472,-0.819,0.0
13.485,1.37,-0.84,0.0
12.439,1.264,-0.846,0.0
11.614,1.18,-0.858,0.0
10.855,1.103,-0.865,0.0
10.324,1.049,-0.882,0.0
14.266,1.446,-0.823,0.0
13.231,1.341,-0.839,0.0
12.297,1.247,-0.851,0.0
11.446,1.16,-0.859,0.0
10.759,1.091,-0.87,0.0
10.236,1.038,-0.886,0.0
13.998,1.416,-0.824,0.0
13.191,1.334,-0.852,0.0
12.05,1.218,-0.848,0.0
11.254,1.138,-0.858,0.0
10.649,1.077,-0.873,0.0
10.108,1.022,-0.887,0.0
13.836,1.395,-0.831,0.0
12.911,1.301,-0.849,0.0
11.945,1.204,-0.854,0.0
11.104,1.119,-0.859,0.0
10.554,1.064,-0.878,0.0
10.019,1.01,-0.891,0.0
13.687,1.375,-0.837,0.0
12.731,1.279,-0.852,0.0
11.772,1.182,-0.855,0.0
11.011,1.106,-0.864,0.0
10.391,1.043,-0.876,0.0
9.922,0.996,-0.893,0.0
13.465,1.348,-0.838,0.0
12.474,1.248,-0.848,0.0
11.61,1.162,-0.856,0.0
10.855,1.086,-0.864,0.0
10.349,1.035,-0.883,0.0
9.809,0.981,-0.894,0.0
13.272,1.323,-0.841,0.0
12.314,1.227,-0.851,0.0
11.458,1.141,-0.857,0.0
10.795,1.075,-0.871,0.0
10.184,1.014,-0.88,0.0
9.689,0.965,-0.894,0.0
13.106,1.3,-0.844,0.0
12.168,1.207,-0.854,0.0
11.301,1.12,-0.858,0.0
10.642,1.055,-0.87,0.0
10.132,1.004,-0.887,0.0
9.59,0.95,-0.895,0.0
12.892,1.272,-0.844,0.0
11.935,1.178,-0.85,0.0
11.172,1.102,-0.859,0.0
10.524,1.038,-0.871,0.0
10.081,0.994,-0.893,0.0
9.549,0.941,-0.901,0.0
12.829,1.259,-0.853,0.0
11.807,1.158,-0.853,0.0
11.05,1.084,-0.861,0.0
10.443,1.024,-0.875,0.0
9.967,0.977,-0.893,0.0
9.473,0.928,-0.903,0.0
12.637,1.233,-0.852,0.0
11.704,1.141,-0.857,0.0
10.942,1.067,-0.864,0.0
10.329,1.007,-0.876,0.0
9.876,0.962,-0.894,0.0
9.392,0.914,-0.904,0.0
12.403,1.203,-0.849,0.0
11.579,1.122,-0.859,0.0
10.868,1.053,-0.868,0.0
10.245,0.992,-0.878,0.0
9.692,0.938,-0.887,0.0
9.308,0.9,-0.905,0.0
12.285,1.183,-0.852,0.0
11.366,1.094,-0.853,0.0
10.745,1.034,-0.868,0.0
10.195,0.98,-0.883,0.0
9.691,0.931,-0.896,0.0
9.175,0.881,-0.901,0.0
12.091,1.156,-0.849,0.0
11.278,1.078,-0.857,0.0
10.628,1.015,-0.868,0.0
10.115,0.965,-0.886,0.0
9.61,0.916,-0.897,0.0
9.13,0.87,-0.904,0.0
11.947,1.134,-0.85,0.0
11.181,1.06,-0.859,0.0
10.519,0.997,-0.869,0.0
9.957,0.943,-0.88,0.0
9.503,0.899,-0.895,0.0
9.147,0.865,-0.914,0.0
11.852,1.116,-0.853,0.0
11.074,1.041,-0.86,0.0
10.436,0.981,-0.87,0.0
10.017,0.941,-0.894,0.0
9.524,0.894,-0.905,0.0
9.09,0.852,-0.916,0.0
11.737,1.096,-0.854,0.0
10.99,1.025,-0.863,0.0
10.382,0.967,-0.874,0.0
9.901,0.922,-0.892,0.0
9.456,0.88,-0.906,0.0
9.048,0.841,-0.919,0.0
11.615,1.074,-0.854,0.0
10.885,1.006,-0.863,0.0
10.351,0.956,-0.88,0.0
9.86,0.91,-0.895,0.0
9.34,0.861,-0.902,0.0
8.93,0.822,-0.914,0.0
11.496,1.054,-0.854,0.0
10.836,0.992,-0.867,0.0
10.248,0.937,-0.878,0.0
9.804,0.896,-0.897,0.0
9.351,0.854,-0.91,0.0
8.883,0.81,-0.915,0.0
11.376,1.032,-0.853,0.0
10.712,0.971,-0.865,0.0
10.143,0.918,-0.877,0.0
9.716,0.879,-0.896,0.0
9.289,0.839,-0.91,0.0
8.857,0.8,-0.919,0.0
11.307,1.016,-0.856,0.0
10.691,0.959,-0.87,0.0
10.137,0.909,-0.883,0.0
9.611,0.86,-0.893,0.0
9.223,0.825,-0.91,0.0
8.762,0.783,-0.915,0.0
11.218,0.997,-0.856,0.0
10.613,0.942,-0.87,0.0
10.102,0.896,-0.886,0.0
9.671,0.856,-0.905,0.0
9.138,0.808,-0.907,0.0
8.725,0.771,-0.916,0.0
11.111,0.976,-0.855,0.0
10.524,0.924,-0.869,0.0
10.066,0.882,-0.889,0.0
0.0,0.0,0.0,0.0
9.07,0.793,-0.906,0.0
8.695,0.759,-0.918,0.0
11.087,0.963,-0.859,0.0
10.489,0.91,-0.872,0.0
10.033,0.869,-0.892,0.0
0.0,0.0,0.0,0.0
9.035,0.781,-0.907,0.0
8.66,0.747,-0.919,0.0
11.008,0.945,-0.859,0.0
10.433,0.894,-0.873,0.0
9.972,0.853,-0.892,0.0
9.491,0.811,-0.904,0.0
9.064,0.774,-0.915,0.0
8.587,0.732,-0.916,0.0
11.007,0.933,-0.864,0.0
10.395,0.88,-0.875,0.0
9.914,0.838,-0.891,0.0
9.443,0.797,-0.903,0.0
9.01,0.759,-0.913,0.0
8.607,0.724,-0.922,0.0
10.913,0.913,-0.862,0.0
10.322,0.862,-0.874,0.0
9.936,0.829,-0.897,0.0
9.463,0.788,-0.91,0.0
8.965,0.746,-0.913,0.0
8.576,0.712,-0.922,0.0
10.834,0.895,-0.86,0.0
10.329,0.852,-0.878,0.0
9.857,0.811,-0.894,0.0
9.366,0.77,-0.904,0.0
8.985,0.737,-0.918,0.0
8.591,0.704,-0.927,0.0
10.821,0.881,-0.863,0.0
10.29,0.837,-0.879,0.0
9.828,0.798,-0.895,0.0
9.287,0.753,-0.9,0.0
8.889,0.719,-0.912,0.0
8.497,0.686,-0.92,0.0
10.795,0.867,-0.865,0.0
10.244,0.821,-0.878,0.0
9.797,0.784,-0.896,0.0
0.0,0.0,0.0,0.0
8.927,0.712,-0.918,0.0
8.506,0.677,-0.923,0.0
10.773,0.852,-0.866,0.0
10.244,0.809,-0.881,0.0
9.796,0.772,-0.898,0.0
0.0,0.0,0.0,0.0
8.919,0.7,-0.92,0.0
8.458,0.663,-0.92,0.0
10.757,0.838,-0.867,0.0
10.201,0.793,-0.88,0.0
9.759,0.757,-0.897,0.0
0.0,0.0,0.0,0.0
8.834,0.683,-0.913,0.0
8.482,0.654,-0.925,0.0
10.725,0.823,-0.867,0.0
10.225,0.783,-0.884,0.0
9.704,0.741,-0.894,0.0
9.204,0.702,-0.901,0.0
8.84,0.672,-0.916,0.0
8.493,0.645,-0.928,0.0
10.713,0.808,-0.868,0.0
10.176,0.766,-0.882,0.0
9.63,0.723,-0.889,0.0
9.279,0.696,-0.91,0.0
8.843,0.661,-0.917,0.0
8.463,0.632,-0.926,0.0
10.697,0.794,-0.868,0.0
10.184,0.754,-0.884,0.0
9.701,0.716,-0.897,0.0
9.256,0.682,-0.909,0.0
8.814,0.648,-0.915,0.0
8.461,0.621,-0.926,0.0
10.663,0.778,-0.866,0.0
10.167,0.74,-0.883,0.0
9.695,0.704,-0.897,0.0
9.209,0.667,-0.905,0.0
8.785,0.635,-0.913,0.0
8.403,0.606,-0.921,0.0
10.676,0.765,-0.868,0.0
10.157,0.726,-0.883,0.0
9.668,0.689,-0.895,0.0
9.253,0.658,-0.909,0.0
8.791,0.624,-0.913,0.0
8.408,0.595,-0.921,0.0
10.691,0.752,-0.869,0.0
10.128,0.71,-0.88,0.0
9.681,0.677,-0.896,0.0
9.237,0.644,-0.908,0.0
8.837,0.615,-0.918,0.0
8.436,0.586,-0.924,0.0
10.68,0.737,-0.868,0.0
10.167,0.699,-0.883,0.0
9.727,0.667,-0.9,0.0
9.241,0.632,-0.907,0.0
8.808,0.601,-0.914,0.0
8.431,0.574,-0.923,0.0
10.688,0.723,-0.868,0.0
10.155,0.685,-0.881,0.0
9.704,0.653,-0.897,0.0
9.254,0.621,-0.908,0.0
8.833,0.591,-0.916,0.0
8.447,0.564,-0.924,0.0
10.695,0.709,-0.867,0.0
10.194,0.674,-0.883,0.0
9.713,0.64,-0.896,0.0
9.281,0.61,-0.909,0.0
8.852,0.58,-0.917,0.0
8.478,0.554,-0.926,0.0
10.716,0.696,-0.867,0.0
10.203,0.66,-0.882,0.0
9.768,0.63,-0.899,0.0
9.364,0.603,-0.915,0.0
8.874,0.569,-0.917,0.0
8.475,0.542,-0.923,0.0
10.751,0.683,-0.867,0.0
10.245,0.649,-0.884,0.0
9.745,0.615,-0.895,0.0
0.0,0.0,0.0,0.0
8.891,0.558,-0.917,0.0
8.474,0.53,-0.921,0.0
10.751,0.668,-0.865,0.0
10.235,0.634,-0.88,0.0
9.765,0.603,-0.894,0.0
9.337,0.575,-0.908,0.0
8.873,0.545,-0.912,0.0
8.499,0.52,-0.921,0.0
10.81,0.657,-0.866,0.0
10.27,0.622,-0.88,0.0
9.806,0.592,-0.895,0.0
9.388,0.565,-0.91,0.0
8.934,0.536,-0.916,0.0
8.56,0.512,-0.925,0.0
10.815,0.642,-0.863,0.0
10.325,0.611,-0.881,0.0
9.857,0.581,-0.896,0.0
9.419,0.553,-0.909,0.0
8.953,0.524,-0.914,0.0
8.567,0.5,-0.923,0.0
10.84,0.628,-0.861,0.0
10.319,0.596,-0.876,0.0
9.852,0.567,-0.891,0.0
9.359,0.537,-0.9,0.0
8.999,0.514,-0.915,0.0
8.614,0.491,-0.924,0.0
10.924,0.618,-0.863,0.0
10.397,0.586,-0.878,0.0
9.941,0.558,-0.895,0.0
9.449,0.529,-0.904,0.0
9.012,0.502,-0.912,0.0
8.649,0.48,-0.924,0.0
11.048,0.609,-0.867,0.0
10.442,0.574,-0.877,0.0
9.94,0.544,-0.89,0.0
9.488,0.517,-0.903,0.0
9.111,0.495,-0.918,0.0
8.69,0.47,-0.923,0.0
11.087,0.596,-0.864,0.0
10.521,0.563,-0.878,0.0
9.982,0.532,-0.888,0.0
9.565,0.508,-0.905,0.0
9.159,0.484,-0.917,0.0
8.688,0.458,-0.918,0.0
11.156,0.584,-0.863,0.0
10.559,0.55,-0.875,0.0
10.086,0.524,-0.892,0.0
9.59,0.496,-0.902,0.0
9.164,0.472,-0.912,0.0
8.737,0.448,-0.918,0.0
11.198,0.57,-0.86,0.0
10.596,0.537,-0.872,0.0
10.119,0.511,-0.888,0.0
9.677,0.486,-0.904,0.0
9.262,0.464,-0.916,0.0
8.816,0.439,-0.921,0.0
11.238,0.556,-0.856,0.0
10.66,0.525,-0.87,0.0
10.162,0.499,-0.885,0.0
9.721,0.475,-0.901,0.0
9.251,0.45,-0.909,0.0
8.882,0.43,-0.921,0.0
11.283,0.543,-0.851,0.0
10.746,0.514,-0.869,0.0
10.212,0.487,-0.882,0.0
9.806,0.465,-0.902,0.0
9.328,0.441,-0.909,0.0
8.912,0.419,-0.918,0.0
11.409,0.533,-0.852,0.0
10.845,0.504,-0.869,0.0
10.283,0.476,-0.881,0.0
9.828,0.453,-0.897,0.0
9.397,0.431,-0.909,0.0
8.928,0.407,-0.913,0.0
11.56,0.524,-0.855,0.0
10.932,0.493,-0.868,0.0
10.356,0.465,-0.879,0.0
9.871,0.441,-0.893,0.0
9.442,0.42,-0.905,0.0
9.019,0.399,-0.915,0.0
11.636,0.511,-0.851,0.0
11.057,0.483,-0.868,0.0
10.453,0.454,-0.878,0.0
9.965,0.431,-0.893,0.0
9.481,0.408,-0.901,0.0
9.146,0.392,-0.919,0.0
11.747,0.5,-0.849,0.0
11.153,0.472,-0.866,1.0
10.532,0.443,-0.875,0.0
10.022,0.42,-0.889,0.0
9.59,0.399,-0.903,0.0
9.17,0.38,-0.913,0.0
11.883,0.489,-0.847,0.0
11.255,0.461,-0.864,0.0
10.642,0.433,-0.875,0.0
10.118,0.41,-0.888,0.0
9.765,0.393,-0.91,0.0
9.262,0.371,-0.914,0.0
12.046,0.479,-0.848,0.0
11.339,0.448,-0.859,0.0
10.769,0.424,-0.875,0.0
10.182,0.398,-0.883,0.0
9.801,0.381,-0.904,0.0
9.35,0.362,-0.913,0.0
12.215,0.469,-0.847,0.0
11.425,0.436,-0.854,0.0
10.911,0.414,-0.875,0.0
10.302,0.389,-0.883,0.0
9.851,0.37,-0.898,0.0
9.417,0.351,-0.91,0.0
12.399,0.459,-0.847,0.0
11.566,0.426,-0.853,0.0
11.011,0.403,-0.872,0.0
10.389,0.378,-0.88,0.0
9.954,0.36,-0.897,0.0
9.495,0.341,-0.907,0.0
12.541,0.448,-0.843,0.0
11.723,0.416,-0.852,0.0
11.119,0.392,-0.868,1.0
10.468,0.367,-0.875,0.0
10.046,0.35,-0.894,0.0
9.579,0.332,-0.904,0.0
12.89,0.444,-0.853,0.0
11.858,0.405,-0.848,0.0
11.241,0.382,-0.865,1.0
10.677,0.36,-0.88,0.0
10.13,0.34,-0.89,0.0
9.684,0.323,-0.903,0.0
13.032,0.431,-0.847,0.0
12.037,0.396,-0.847,0.0
11.363,0.371,-0.861,0.0
10.826,0.351,-0.88,0.0
10.228,0.33,-0.886,0.0
9.775,0.313,-0.9,0.0
13.164,0.419,-0.84,0.0
12.257,0.387,-0.848,0.0
11.455,0.359,-0.854,0.0
10.915,0.34,-0.874,0.0
10.354,0.32,-0.885,0.0
9.889,0.304,-0.898,0.0
13.471,0.411,-0.843,0.0
12.45,0.377,-0.846,0.0
11.642,0.35,-0.853,0.0
11.059,0.33,-0.871,1.0
10.433,0.309,-0.878,0.0
10.006,0.294,-0.896,0.0
13.659,0.399,-0.837,0.0
12.66,0.367,-0.844,0.0
11.811,0.34,-0.85,0.0
11.197,0.32,-0.868,1.0
10.618,0.301,-0.88,0.0
10.116,0.285,-0.892,0.0
13.839,0.387,-0.83,0.0
12.962,0.36,-0.847,0.0
12.021,0.331,-0.85,0.0
11.374,0.311,-0.866,0.0
10.763,0.292,-0.877,0.0
10.229,0.275,-0.889,0.0
14.187,0.379,-0.832,0.0
13.208,0.35,-0.845,0.0
12.289,0.323,-0.852,0.0
11.437,0.299,-0.855,0.0
10.933,0.283,-0.876,0.0
10.342,0.266,-0.884,0.0
14.434,0.369,-0.827,0.0
13.489,0.342,-0.844,0.0
12.458,0.313,-0.846,0.0
11.633,0.29,-0.853,0.0
11.082,0.274,-0.872,1.0
10.461,0.256,-0.879,0.0
14.638,0.356,-0.818,0.0
13.725,0.331,-0.84,0.0
12.838,0.307,-0.854,0.0
11.818,0.28,-0.85,0.0
11.255,0.264,-0.869,1.0
10.667,0.248,-0.881,0.0
15.0,0.347,-0.816,0.0
13.925,0.319,-0.831,0.0
13.086,0.298,-0.851,0.0
12.11,0.273,-0.853,0.0
11.395,0.254,-0.863,1.0
10.833,0.24,-0.878,0.0
15.285,0.336,-0.809,0.0
14.244,0.31,-0.829,0.0
13.369,0.288,-0.849,0.0
12.333,0.264,-0.85,0.0
11.522,0.244,-0.855,0.0
11.043,0.232,-0.878,0.0
15.65,0.326,-0.804,0.0
14.568,0.301,-0.826,0.0
13.611,0.278,-0.843,0.0
12.609,0.255,-0.849,0.0
11.727,0.235,-0.852,0.0
11.196,0.222,-0.873,0.0
15.989,0.316,-0.797,0.0
14.866,0.29,-0.819,0.0
13.879,0.268,-0.838,0.0
13.014,0.249,-0.856,0.0
11.984,0.227,-0.852,0.0
11.353,0.213,-0.867,0.0
16.53,0.308,-0.797,0.0
15.277,0.282,-0.817,0.0
14.128,0.258,-0.831,0.0
13.226,0.239,-0.849,0.0
12.283,0.22,-0.853,0.0
11.476,0.203,-0.858,0.0
16.86,0.297,-0.786,0.0
15.643,0.272,-0.812,0.0
14.485,0.249,-0.828,0.0
13.555,0.231,-0.848,0.0
12.557,0.211,-0.852,0.0
11.692,0.195,-0.855,0.0
17.543,0.29,-0.789,1.0
15.972,0.261,-0.802,0.0
14.804,0.24,-0.822,0.0
13.795,0.221,-0.84,0.0
12.974,0.205,-0.858,0.0
11.956,0.187,-0.854,0.0
17.669,0.275,-0.765,2.0
16.467,0.253,-0.799,0.0
15.142,0.23,-0.815,0.0
14.109,0.212,-0.835,0.0
13.184,0.195,-0.85,0.0
12.263,0.18,-0.855,0.0
18.291,0.266,-0.761,1.0
16.799,0.242,-0.787,0.0
15.562,0.221,-0.811,0.0
14.452,0.203,-0.83,0.0
13.544,0.188,-0.849,0.0
12.519,0.171,-0.851,0.0
18.899,0.257,-0.753,0.0
17.357,0.233,-0.783,0.0
15.986,0.212,-0.805,0.0
14.799,0.194,-0.824,0.0
13.796,0.178,-0.841,0.0
13.002,0.166,-0.861,0.0
19.54,0.248,-0.744,0.0
17.882,0.224,-0.775,0.0
16.489,0.204,-0.801,0.0
15.154,0.184,-0.817,0.0
14.163,0.17,-0.838,0.0
13.216,0.157,-0.851,0.0
20.22,0.238,-0.734,0.0
18.43,0.214,-0.766,0.0
16.902,0.194,-0.79,0.0
15.528,0.175,-0.809,0.0
14.526,0.162,-0.833,0.0
13.537,0.148,-0.847,0.0
21.02,0.229,-0.725,0.0
19.014,0.204,-0.755,0.0
17.432,0.185,-0.784,0.0
15.985,0.167,-0.804,0.0
14.9,0.153,-0.827,0.0
13.803,0.14,-0.838,0.0
21.93,0.221,-0.716,0.0
19.75,0.196,-0.748,0.0
17.926,0.175,-0.772,0.0
16.59,0.159,-0.803,0.0
15.263,0.144,-0.818,0.0
14.214,0.132,-0.837,0.0
22.623,0.209,-0.697,0.0
20.466,0.186,-0.737,0.0
18.599,0.167,-0.766,0.0
16.908,0.149,-0.786,0.0
15.733,0.136,-0.814,0.0
14.535,0.124,-0.828,0.0
23.427,0.199,-0.677,0.0
21.406,0.178,-0.73,0.0
19.239,0.157,-0.756,0.0
17.638,0.142,-0.787,0.0
16.085,0.127,-0.801,0.0
15.04,0.117,-0.828,0.0
24.782,0.191,-0.669,0.0
22.318,0.169,-0.718,0.0
19.971,0.149,-0.746,0.0
18.029,0.132,-0.769,0.0
16.693,0.12,-0.799,0.0
15.403,0.108,-0.818,0.0
0.0,0.0,0.0,0.0
23.252,0.16,-0.703,0.0
20.605,0.139,-0.73,0.0
18.748,0.124,-0.763,0.0
17.157,0.111,-0.788,0.0
15.853,0.101,-0.81,0.0
27.774,0.176,-0.642,0.0
24.268,0.15,-0.686,0.0
21.555,0.131,-0.721,0.0
19.395,0.115,-0.752,0.0
17.792,0.104,-0.782,0.0
16.469,0.094,-0.809,0.0
29.249,0.166,-0.618,0.0
25.93,0.144,-0.682,0.0
22.519,0.122,-0.709,0.0
20.291,0.108,-0.746,0.0
18.338,0.095,-0.769,0.0
16.884,0.086,-0.796,0.0
30.996,0.157,-0.593,0.0
26.644,0.131,-0.647,0.0
23.376,0.113,-0.689,0.0
21.006,0.099,-0.73,0.0
19.027,0.087,-0.76,0.0
17.486,0.079,-0.789,0.0
33.189,0.148,-0.568,0.0
28.987,0.126,-0.646,0.0
24.811,0.105,-0.681,0.0
22.058,0.091,-0.722,0.0
19.81,0.08,-0.751,0.0
18.07,0.071,-0.778,0.0
0.0,0.0,0.0,0.0
30.18,0.115,-0.611,0.0
26.344,0.098,-0.669,0.0
22.851,0.082,-0.701,0.0
20.608,0.072,-0.739,0.0
18.695,0.064,-0.767,0.0
0.0,0.0,0.0,0.0
31.933,0.105,-0.581,0.0
0.0,0.0,0.0,0.0
23.834,0.074,-0.682,0.0
21.358,0.064,-0.721,0.0
19.474,0.057,-0.758,0.0
42.832,0.125,-0.469,1.0
34.154,0.096,-0.55,0.0
29.223,0.08,-0.622,0.0
25.685,0.068,-0.682,0.0
22.567,0.058,-0.716,0.0
20.182,0.05,-0.744,0.0
45.022,0.111,-0.4,0.0
36.756,0.088,-0.516,0.0
0.0,0.0,0.0,0.0
26.54,0.059,-0.649,0.0
23.397,0.05,-0.693,0.0
21.102,0.044,-0.734,0.0
49.612,0.103,-0.339,0.0
0.0,0.0,0.0,0.0
0.0,0.0,0.0,0.0
28.243,0.052,-0.632,0.0
24.881,0.044,-0.685,0.0
22.141,0.038,-0.724,0.0
0.0,0.0,0.0,0.0
42.807,0.07,-0.423,1.0
0.0,0.0,0.0,0.0
30.57,0.046,-0.62,0.0
0.0,0.0,0.0,0.0
23.074,0.031,-0.706,0.0
0.0,0.0,0.0,0.0
45.936,0.06,-0.358,0.0
0.0,0.0,0.0,0.0
0.0,0.0,0.0,0.0
0.0,0.0,0.0,0.0
24.288,0.026,-0.692,0.0
0.0,0.0,0.0,0.0
52.913,0.053,-0.301,0.0
44.752,0.043,-0.485,0.0
35.211,0.032,-0.567,0.0
29.321,0.025,-0.623,0.0
25.338,0.02,-0.669,0.0
0.0,0.0,0.0,0.0
0.0,0.0,0.0,0.0
45.468,0.032,-0.397,2.0
37.536,0.025,-0.525,0.0
31.037,0.019,-0.594,0.0
26.654,0.015,-0.647,0.0
95.623,0.055,0.352,5.0
0.0,0.0,0.0,0.0
49.638,0.025,-0.328,0.0
41.374,0.019,-0.49,0.0
0.0,0.0,0.0,0.0
28.892,0.011,-0.64,0.0
110.592,0.043,0.642,7.0
0.0,0.0,0.0,0.0
0.0,0.0,0.0,0.0
45.01,0.013,-0.437,2.0
37.402,0.01,-0.555,0.0
0.0,0.0,0.0,0.0
111.165,0.026,0.885,8.0
97.022,0.02,0.273,1.0
0.0,0.0,0.0,0.0
0.0,0.0,0.0,0.0
40.33,0.005,-0.512,0.0
0.0,0.0,0.0,0.0
117.328,0.014,1.184,9.0
110.425,0.011,0.546,3.0
0.0,0.0,0.0,0.0
0.0,0.0,0.0,0.0
44.763,0.002,-0.473,1.0
35.761,0.001,-0.561,0.0
111.08,0.004,1.358,13.0
111.034,0.003,0.787,13.0
95.459,0.002,0.186,2.0
0.0,0.0,0.0,0.0
45.595,0.0,-0.385,1.0
37.502,0.0,-0.509,0.0
111.093,0.0,1.596,11.0
117.277,0.0,1.081,9.0
97.708,0.0,0.4,1.0
0.0,0.0,0.0,0.0
0.0,0.0,0.0,0.0
40.784,0.0,-0.466,0.0
112.483,0.0,1.861,10.0
117.276,0.0,1.335,10.0
110.769,0.0,0.691,12.0
0.0,0.0,0.0,0.0
0.0,0.0,0.0,0.0
45.279,0.001,-0.42,2.0
112.737,0.003,2.106,6.0
117.29,0.004,1.588,10.0
117.231,0.006,0.984,7.0
97.237,0.006,0.306,1.0
0.0,0.0,0.0,0.0
0.0,0.0,0.0,0.0
114.046,0.011,2.375,9.0
117.24,0.014,1.838,4.0
111.103,0.015,1.169,12.0
110.454,0.017,0.584,5.0
0.0,0.0,0.0,0.0
0.0,0.0,0.0,0.0
114.709,0.024,2.633,9.0
112.639,0.026,2.007,8.0
111.03,0.029,1.407,12.0
111.113,0.032,0.823,9.0
95.497,0.03,0.217,2.0
0.0,0.0,0.0,0.0
117.423,0.041,2.948,25.0
112.993,0.044,2.256,3.0
111.043,0.047,1.645,11.0
111.176,0.051,1.064,12.0
104.329,0.051,0.461,2.0
0.0,0.0,0.0,0.0
117.4,0.063,3.199,20.0
114.048,0.066,2.522,11.0
117.328,0.073,1.989,12.0
111.129,0.073,1.3,18.0
110.811,0.078,0.727,8.0
0.0,0.0,0.0,0.0
70.062,0.053,2.058,25.0
117.425,0.094,2.846,14.0
112.651,0.096,2.152,8.0
111.094,0.1,1.539,15.0
111.216,0.106,0.967,12.0
95.552,0.096,0.339,3.0
69.99,0.071,2.207,20.0
117.46,0.126,3.097,15.0
112.74,0.127,2.391,6.0
117.327,0.139,1.873,14.0
111.163,0.138,1.2,20.0
110.615,0.144,0.624,6.0
69.911,0.091,2.351,29.0
70.064,0.096,1.994,31.0
113.521,0.162,2.645,5.0
117.414,0.176,2.118,18.0
111.084,0.174,1.432,20.0
111.055,0.181,0.859,8.0
69.939,0.114,2.498,27.0
69.919,0.119,2.136,21.0
117.548,0.209,2.986,13.0
117.431,0.217,2.365,7.0
111.216,0.213,1.665,9.0
111.145,0.221,1.092,18.0
70.185,0.14,2.653,23.0
69.824,0.145,2.278,29.0
70.21,0.151,1.929,18.0
112.593,0.251,2.502,6.0
119.859,0.277,2.043,16.0
111.196,0.266,1.323,19.0
70.348,0.169,2.806,9.0
70.16,0.174,2.435,18.0
69.987,0.179,2.067,26.0
119.826,0.318,2.909,21.0
119.845,0.328,2.289,12.0
119.852,0.339,1.672,15.0
70.189,0.199,2.943,9.0
70.074,0.205,2.576,32.0
69.779,0.21,2.204,32.0
119.826,0.372,3.154,13.0
195.016,0.625,4.125,8.0
119.901,0.395,1.918,16.0
70.148,0.232,3.086,4.0
70.165,0.239,2.723,27.0
69.819,0.245,2.349,23.0
70.079,0.252,1.988,13.0
119.844,0.444,2.779,48.0
119.894,0.456,2.161,74.0
102.988,0.394,4.741,11.0
70.295,0.276,2.871,4.0
70.086,0.282,2.5,23.0
70.111,0.289,2.131,28.0
119.885,0.508,3.025,20.0
193.832,0.842,3.886,15.0
97.206,0.424,4.672,3.0
70.114,0.313,3.006,9.0
70.177,0.321,2.644,6.0
69.896,0.328,2.265,12.0
111.189,0.534,3.027,8.0
111.153,0.546,2.451,16.0
78.689,0.389,3.94,6.0
70.3,0.356,3.156,2.0
70.265,0.363,2.789,5.0
69.786,0.369,2.4,13.0
111.086,0.601,3.246,20.0
111.09,0.614,2.67,23.0
81.051,0.451,4.22,3.0
80.46,0.457,3.771,11.0
70.296,0.408,2.93,3.0
69.846,0.414,2.542,12.0
69.926,0.423,2.181,8.0
111.069,0.685,2.889,31.0
80.893,0.502,4.372,5.0
80.805,0.512,3.946,7.0
104.783,0.677,4.573,10.0
70.045,0.462,2.686,17.0
69.86,0.469,2.316,14.0
111.072,0.761,3.107,25.0
80.665,0.556,4.518,10.0
78.659,0.552,3.996,10.0
70.352,0.503,3.208,8.0
70.057,0.51,2.822,10.0
69.726,0.518,2.447,13.0
104.776,0.792,3.132,21.0
78.448,0.596,4.547,10.0
81.376,0.63,4.291,22.0
80.71,0.636,3.835,6.0
70.041,0.561,2.956,27.0
69.859,0.57,2.585,9.0
104.659,0.868,3.328,22.0
78.361,0.654,4.69,10.0
81.161,0.688,4.433,13.0
78.66,0.679,3.886,8.0
70.0,0.614,3.086,5.0
69.879,0.623,2.716,9.0
69.696,0.632,2.347,13.0
60.006,0.547,3.706,6.0
78.352,0.726,4.428,11.0
103.29,0.973,5.298,3.0
80.606,0.772,3.706,12.0
97.839,0.952,3.988,16.0
104.537,1.032,3.715,23.0
60.01,0.596,3.818,12.0
80.769,0.815,4.716,5.0
81.372,0.833,4.326,11.0
70.413,0.732,3.367,9.0
70.086,0.739,2.985,7.0
98.105,1.051,3.665,24.0
60.101,0.647,3.934,16.0
80.832,0.883,4.868,4.0
73.001,0.809,4.012,1.0
70.482,0.793,3.498,7.0
98.585,1.125,4.378,19.0
98.648,1.142,3.866,22.0
67.515,0.786,4.544,8.0
60.044,0.709,3.725,2.0
80.014,0.958,4.544,6.0
70.519,0.855,3.628,9.0
98.602,1.213,4.555,20.0
98.67,1.23,4.042,19.0
67.635,0.848,4.672,9.0
60.218,0.765,3.844,10.0
78.333,1.009,4.587,6.0
70.52,0.92,3.752,6.0
78.733,1.041,3.776,10.0
98.241,1.315,4.196,25.0
41.454,0.558,2.937,12.0
67.086,0.915,4.398,5.0
80.354,1.11,4.846,14.0
81.216,1.136,4.462,6.0
98.034,1.387,4.871,18.0
98.152,1.407,4.361,16.0
41.545,0.599,3.015,32.0
41.438,0.604,2.788,15.0
74.366,1.099,4.612,9.0
78.418,1.172,4.443,5.0
85.68,1.296,4.404,8.0
78.747,1.206,3.634,10.0
41.429,0.638,3.077,31.0
41.421,0.645,2.858,33.0
74.38,1.172,4.739,12.0
78.565,1.253,4.583,6.0
91.569,1.477,4.86,13.0
85.592,1.397,4.093,5.0
41.154,0.676,3.127,44.0
41.615,0.691,2.942,16.0
77.923,1.309,5.097,3.0
74.34,1.262,4.461,10.0
82.533,1.417,4.518,5.0
85.601,1.485,4.235,8.0
40.954,0.715,3.179,43.0
41.285,0.728,2.986,34.0
70.528,1.258,4.727,4.0
74.291,1.339,4.578,6.0
80.78,1.471,4.551,11.0
91.461,1.683,4.67,14.0
40.813,0.756,3.233,39.0
40.935,0.765,3.026,39.0
41.371,0.782,2.839,15.0
81.384,1.554,5.145,4.0
70.526,1.361,4.085,4.0
82.029,1.599,4.318,7.0
40.804,0.8,3.298,45.0
40.937,0.811,3.091,45.0
41.282,0.825,2.897,7.0
78.907,1.593,5.112,4.0
74.615,1.522,4.439,6.0
81.535,1.679,4.418,10.0
40.809,0.845,3.361,39.0
40.958,0.856,3.156,42.0
40.835,0.862,2.928,42.0
70.556,1.504,4.678,7.0
74.717,1.607,4.557,6.0
81.213,1.763,4.522,4.0
40.546,0.886,3.401,45.0
40.842,0.9,3.208,39.0
40.904,0.91,2.995,24.0
72.104,1.619,4.888,7.0
85.001,1.926,5.311,11.0
72.913,1.666,4.168,0.0
40.589,0.934,3.465,37.0
40.849,0.948,3.269,30.0
40.889,0.957,3.054,13.0
41.169,0.972,2.851,14.0
72.08,1.717,4.607,26.0
78.759,1.892,4.616,6.0
40.601,0.981,3.525,31.0
40.666,0.991,3.312,37.0
40.705,1.0,3.098,43.0
41.159,1.02,2.908,12.0
70.623,1.765,4.613,10.0
72.731,1.833,4.363,9.0
40.636,1.031,3.585,35.0
40.57,1.038,3.362,47.0
40.771,1.051,3.16,38.0
40.894,1.063,2.946,38.0
65.274,1.71,4.353,7.0
0.0,0.0,0.0,0.0
40.599,1.079,3.637,51.0
40.691,1.09,3.427,41.0
40.732,1.099,3.211,40.0
40.815,1.11,2.995,46.0
65.291,1.79,4.441,16.0
70.841,1.957,4.44,10.0
40.552,1.128,3.687,37.0
40.642,1.139,3.477,35.0
40.683,1.149,3.261,46.0
40.887,1.163,3.054,13.0
79.457,2.278,5.51,13.0
78.355,2.263,5.014,11.0
40.591,1.18,3.743,26.0
40.539,1.187,3.52,35.0
40.697,1.2,3.314,44.0
51.771,1.537,3.932,12.0
65.449,1.958,4.62,4.0
65.461,1.972,4.269,20.0
40.7,1.234,3.804,28.0
40.51,1.237,3.568,39.0
40.557,1.247,3.353,42.0
45.176,1.399,3.487,11.0
66.622,2.077,4.784,21.0
79.831,2.507,5.304,17.0
40.898,1.292,3.873,37.0
40.434,1.287,3.61,41.0
40.445,1.295,3.392,45.0
40.725,1.313,3.192,43.0
62.906,2.043,4.592,9.0
66.609,2.177,4.503,20.0
45.48,1.496,4.36,6.0
40.363,1.337,3.651,36.0
40.389,1.346,3.435,44.0
40.729,1.366,3.239,40.0
40.823,1.378,3.026,19.0
66.564,2.262,4.576,9.0
40.538,1.387,3.933,40.0
40.323,1.389,3.693,37.0
40.425,1.401,3.483,38.0
40.651,1.417,3.279,38.0
44.826,1.573,3.372,5.0
45.022,1.589,3.144,12.0
40.558,1.441,3.98,37.0
40.396,1.444,3.744,38.0
40.518,1.457,3.535,43.0
40.585,1.468,3.316,43.0
40.526,1.475,3.092,40.0
40.713,1.491,2.886,42.0
40.741,1.502,4.041,28.0
40.323,1.496,3.779,40.0
40.304,1.503,3.558,42.0
44.621,1.674,3.692,5.0
40.462,1.527,3.129,45.0
40.692,1.545,2.926,41.0
40.577,1.551,4.066,24.0
40.53,1.558,3.839,34.0
40.407,1.562,3.607,44.0
40.454,1.572,3.387,35.0
40.391,1.579,3.162,49.0
40.649,1.597,2.962,42.0
40.618,1.607,4.109,35.0
40.379,1.606,3.864,42.0
40.49,1.62,3.654,34.0
40.469,1.627,3.427,32.0
40.399,1.634,3.201,41.0
40.731,1.656,3.006,38.0
40.587,1.662,4.144,35.0
40.402,1.662,3.903,41.0
40.596,1.679,3.7,37.0
40.636,1.69,3.478,32.0
40.392,1.688,3.237,37.0
40.5,1.702,3.025,43.0
40.463,1.712,4.167,46.0
40.833,1.736,3.982,18.0
40.418,1.727,3.72,37.0
40.498,1.74,3.501,29.0
40.315,1.74,3.265,41.0
40.468,1.756,3.057,36.0
40.979,1.791,4.255,33.0
41.049,1.802,4.037,31.0
40.453,1.785,3.756,41.0
40.477,1.795,3.532,40.0
40.525,1.805,3.315,32.0
40.482,1.812,3.09,39.0
41.265,1.86,4.318,28.0
40.749,1.845,4.04,35.0
40.542,1.845,3.797,46.0
40.275,1.841,3.546,38.0
40.439,1.857,3.339,37.0
40.422,1.866,3.116,38.0
40.896,1.901,4.311,31.0
40.899,1.91,4.086,45.0
40.794,1.913,3.851,38.0
40.206,1.894,3.57,47.0
40.443,1.914,3.369,36.0
40.328,1.918,3.138,36.0
40.874,1.957,4.338,31.0
41.066,1.974,4.132,32.0
41.151,1.987,3.913,28.0
40.292,1.954,3.605,36.0
40.394,1.968,3.392,42.0
40.295,1.972,3.163,42.0
40.752,2.008,4.353,45.0
41.338,2.045,4.187,24.0
40.836,2.029,3.91,41.0
40.399,2.016,3.641,40.0
40.55,2.032,3.431,39.0
40.328,2.029,3.19,36.0
40.785,2.066,4.382,37.0
53.359,2.714,5.437,6.0
40.841,2.086,3.936,37.0
40.331,2.069,3.659,41.0
40.973,2.111,3.491,16.0
40.528,2.096,3.23,37.0
40.742,2.122,4.401,40.0
40.893,2.138,4.19,25.0
40.839,2.144,3.959,37.0
40.626,2.14,3.709,43.0
40.568,2.146,3.479,38.0
40.509,2.151,3.251,33.0
40.694,2.176,4.418,47.0
46.024,2.47,4.741,6.0
40.846,2.2,3.981,40.0
41.224,2.229,3.785,39.0
40.434,2.195,3.488,44.0
44.451,2.422,3.589,5.0
40.818,2.239,4.452,14.0
40.789,2.246,4.221,28.0
40.807,2.255,3.996,24.0
41.274,2.29,3.809,42.0
40.705,2.267,3.531,46.0
40.811,2.281,3.314,28.0
40.944,2.305,4.485,10.0
40.753,2.302,4.236,36.0
45.85,2.599,4.511,20.0
41.33,2.351,3.832,43.0
41.125,2.348,3.584,27.0
40.697,2.331,3.322,17.0
40.926,2.361,4.499,14.0
40.873,2.365,4.265,16.0
44.89,2.607,4.434,19.0
41.359,2.41,3.85,35.0
41.342,2.417,3.619,27.0
40.877,2.398,3.351,16.0
63.158,3.732,6.966,21.0
40.851,2.421,4.277,36.0
44.707,2.658,4.431,28.0
41.357,2.467,3.864,36.0
41.522,2.485,3.648,42.0
41.534,2.494,3.419,30.0
41.771,2.526,4.621,8.0
40.792,2.474,4.284,15.0
44.93,2.733,4.467,19.0
45.278,2.763,4.244,20.0
41.538,2.543,3.662,42.0
41.594,2.555,3.435,38.0
52.256,3.232,5.795,18.0
52.272,3.242,5.503,37.0
52.303,3.253,5.213,5.0
45.151,2.817,4.243,40.0
41.836,2.618,3.698,22.0
41.902,2.63,3.47,23.0
52.19,3.298,5.799,13.0
52.26,3.312,5.514,39.0
52.306,3.325,5.225,15.0
45.23,2.883,4.26,27.0
41.989,2.684,3.72,32.0
42.872,2.749,3.559,19.0
46.759,3.018,5.204,4.0
52.315,3.386,5.529,10.0
52.993,3.44,5.302,9.0
45.566,2.966,4.299,10.0
41.901,2.735,3.719,27.0
42.181,2.762,3.508,17.0
41.902,2.762,4.67,19.0
46.592,3.079,4.93,6.0
42.211,2.797,4.229,40.0
45.194,3.002,4.269,14.0
41.802,2.785,3.714,45.0
41.847,2.796,3.484,32.0
62.445,4.2,6.965,10.0
46.532,3.137,4.928,9.0
42.134,2.848,4.224,35.0
41.997,2.846,3.97,25.0
41.806,2.841,3.717,39.0
41.725,2.843,3.476,34.0
53.242,3.651,5.941,9.0
53.073,3.649,5.622,5.0
41.931,2.889,4.206,38.0
41.94,2.898,3.966,39.0
41.799,2.895,3.718,39.0
41.688,2.895,3.474,35.0
41.885,2.927,4.674,34.0
53.025,3.714,5.617,12.0
41.97,2.947,4.209,16.0
45.103,3.174,4.265,9.0
41.346,2.917,3.676,38.0
41.635,2.945,3.468,38.0
41.986,2.989,4.684,28.0
53.08,3.787,5.621,6.0
41.879,2.995,4.198,28.0
41.56,2.978,3.927,15.0
41.357,2.971,3.675,34.0
41.493,2.987,3.453,36.0
41.645,3.017,4.643,36.0
46.042,3.343,4.872,14.0
41.847,3.045,4.191,32.0
41.329,3.014,3.901,15.0
41.255,3.015,3.662,35.0
41.441,3.036,3.444,34.0
41.652,3.071,4.638,22.0
46.015,3.399,4.863,18.0
45.982,3.404,4.598,19.0
41.297,3.063,3.892,40.0
41.443,3.08,3.672,37.0
41.416,3.085,3.436,39.0
45.235,3.391,5.029,36.0
46.037,3.458,4.857,3.0
41.092,3.092,4.102,28.0
41.243,3.11,3.879,46.0
41.211,3.114,3.644,42.0
41.474,3.14,3.433,25.0
45.247,3.447,5.021,7.0
52.787,4.029,5.558,6.0
41.161,3.148,4.1,30.0
41.252,3.161,3.871,22.0
41.175,3.161,3.63,43.0
41.572,3.198,3.43,17.0
45.234,3.501,5.009,13.0
45.177,3.503,4.745,3.0
41.122,3.194,4.085,14.0
41.13,3.201,3.848,13.0
41.262,3.217,3.627,41.0
41.489,3.241,3.412,36.0
45.223,3.554,4.994,21.0
45.299,3.566,4.744,4.0
41.177,3.247,4.078,31.0
41.483,3.277,3.868,16.0
41.381,3.274,3.624,38.0
41.513,3.291,3.401,33.0
45.233,3.607,4.98,29.0
45.292,3.618,4.728,9.0
41.203,3.297,4.066,27.0
41.271,3.307,3.834,36.0
41.231,3.31,3.597,40.0
41.542,3.34,3.388,36.0
45.284,3.663,4.969,9.0
41.191,3.337,4.284,40.0
41.152,3.339,4.046,25.0
41.452,3.368,3.835,34.0
41.319,3.363,3.588,38.0
45.532,3.712,3.695,10.0
50.691,4.157,5.541,8.0
41.168,3.381,4.264,37.0
41.785,3.437,4.09,6.0
41.601,3.426,3.831,24.0
41.453,3.419,3.581,28.0
45.551,3.763,3.677,9.0
47.966,3.986,5.221,18.0
41.172,3.426,4.246,2.0
42.34,3.528,4.125,14.0
41.431,3.457,3.795,34.0
41.567,3.473,3.572,16.0
45.623,3.818,3.661,4.0
47.996,4.04,5.201,27.0
41.338,3.484,4.243,1.0
41.233,3.479,3.996,24.0
41.369,3.495,3.769,29.0
41.289,3.494,3.526,39.0
41.556,3.521,3.313,26.0
47.929,4.084,5.168,10.0
41.371,3.529,4.224,3.0
41.281,3.526,3.978,41.0
41.381,3.539,3.747,23.0
41.295,3.536,3.504,35.0
41.452,3.554,3.282,37.0
47.972,4.136,5.145,7.0
44.904,3.876,4.559,1.0
41.435,3.58,3.969,37.0
47.788,4.134,4.3,7.0
41.312,3.578,3.481,31.0
41.451,3.595,3.257,25.0
47.775,4.166,5.095,31.0
41.293,3.604,4.167,38.0
41.587,3.634,3.958,35.0
45.892,4.014,4.101,6.0
41.517,3.636,3.473,20.0
41.439,3.633,3.23,30.0
45.934,4.049,4.87,13.0
41.364,3.65,4.147,26.0
41.572,3.672,3.93,34.0
41.273,3.649,3.661,35.0
41.52,3.675,3.446,16.0
41.466,3.674,3.205,31.0
45.896,4.088,4.834,26.0
41.289,3.681,4.112,41.0
41.463,3.7,3.891,17.0
41.21,3.681,3.627,30.0
41.678,3.727,3.43,22.0
41.467,3.712,3.176,36.0
45.885,4.129,4.8,15.0
41.319,3.72,4.085,33.0
41.348,3.726,3.85,24.0
43.895,3.96,3.831,3.0
41.539,3.751,3.388,30.0
41.547,3.755,3.151,36.0
45.912,4.17,4.769,9.0
41.37,3.76,4.059,31.0
41.287,3.755,3.814,32.0
41.295,3.76,3.573,31.0
41.521,3.783,3.355,31.0
41.487,3.784,3.115,44.0
48.148,4.413,4.963,13.0
41.327,3.79,4.022,45.0
41.272,3.789,3.779,36.0
41.646,3.826,3.57,22.0
41.463,3.812,3.317,40.0
41.565,3.825,3.088,39.0
48.068,4.444,4.915,6.0
41.601,3.849,4.014,16.0
41.257,3.819,3.744,32.0
41.694,3.863,3.54,33.0
41.482,3.846,3.284,36.0
41.593,3.859,3.055,35.0
48.156,4.489,4.884,5.0
41.429,3.864,3.963,24.0
41.226,3.848,3.706,31.0
41.531,3.879,3.49,31.0
41.506,3.879,3.25,39.0
41.646,3.895,3.023,37.0
44.863,4.215,4.51,20.0
41.373,3.889,3.92,37.0
41.341,3.888,3.679,13.0
41.697,3.924,3.467,23.0
41.479,3.906,3.211,42.0
55.078,5.19,3.948,10.0
44.646,4.225,4.447,20.0
41.428,3.922,3.888,40.0
41.621,3.943,3.666,16.0
41.813,3.963,3.438,38.0
41.508,3.936,3.175,35.0
43.943,4.17,3.109,21.0
44.172,4.21,4.358,4.0
41.332,3.94,3.839,37.0
41.916,3.998,3.652,19.0
44.027,4.201,3.578,3.0
41.507,3.963,3.135,39.0
43.787,4.183,3.057,20.0
44.264,4.246,4.324,3.0
41.553,3.987,3.82,26.0
41.971,4.028,3.616,28.0
41.532,3.988,3.335,32.0
41.765,4.012,3.114,36.0
0.0,0.0,0.0,0.0
41.781,4.031,4.04,13.0
43.774,4.225,3.98,3.0
42.017,4.057,3.578,30.0
41.545,4.012,3.294,32.0
41.908,4.049,3.083,16.0
43.213,4.177,2.931,17.0
41.805,4.057,3.999,32.0
41.998,4.076,3.775,17.0
41.898,4.067,3.525,38.0
41.483,4.028,3.247,29.0
42.019,4.082,3.047,28.0
43.252,4.203,2.888,17.0
41.74,4.071,3.949,22.0
43.867,4.279,3.897,4.0
41.974,4.095,3.487,27.0
41.6,4.06,3.211,38.0
41.986,4.099,3.0,25.0
43.245,4.223,2.842,18.0
41.773,4.094,3.907,28.0
43.9,4.303,3.853,11.0
41.997,4.117,3.443,33.0
42.022,4.12,3.199,32.0
42.286,4.147,2.976,16.0
73.033,7.164,4.721,12.0
43.858,4.316,4.054,3.0
41.886,4.123,3.629,29.0
41.9,4.124,3.389,29.0
42.043,4.139,3.154,32.0
43.102,4.244,2.986,9.0
73.064,7.196,4.641,14.0
43.878,4.335,4.007,18.0
41.894,4.14,3.583,24.0
41.986,4.149,3.349,32.0
42.132,4.164,3.113,25.0
43.557,4.305,2.968,17.0
73.062,7.222,4.559,11.0
43.862,4.349,3.954,22.0
43.969,4.359,3.71,3.0
42.053,4.169,3.306,16.0
42.11,4.175,3.063,10.0
43.06,4.269,2.884,17.0
73.111,7.25,4.478,25.0
43.829,4.359,3.9,10.0
42.008,4.177,3.496,33.0
52.068,5.177,4.032,6.0
42.471,4.223,3.04,17.0
42.886,4.264,2.823,31.0
73.143,7.273,4.394,28.0
43.807,4.368,3.847,5.0
42.046,4.192,3.449,23.0
42.471,4.233,3.238,19.0
42.746,4.261,3.009,17.0
42.857,4.272,2.77,16.0
73.13,7.289,4.306,22.0
41.933,4.19,3.631,27.0
42.082,4.204,3.401,22.0
42.368,4.232,3.18,30.0
0.0,0.0,0.0,0.0
73.165,7.307,4.641,20.0
88.517,8.839,5.105,18.0
41.948,4.199,3.581,34.0
42.05,4.208,3.347,15.0
42.53,4.255,3.139,27.0
43.144,4.316,2.932,13.0
73.241,7.326,4.556,30.0
88.519,8.853,4.997,28.0
41.971,4.207,3.531,22.0
42.064,4.215,3.295,4.0
42.98,4.305,3.119,19.0
42.971,4.303,2.866,17.0
73.267,7.336,4.465,31.0
88.54,8.864,4.887,29.0
42.03,4.216,3.482,11.0
43.042,4.316,3.317,17.0
42.776,4.288,3.05,23.0
42.863,4.295,2.805,26.0
73.221,7.337,4.37,25.0
88.539,8.869,4.776,26.0
48.97,4.915,3.995,7.0
42.433,4.257,3.216,28.0
0.0,0.0,0.0,0.0
42.854,4.296,2.75,13.0
88.541,8.874,5.172,19.0
88.527,8.87,4.662,24.0
42.03,4.218,3.375,29.0
42.379,4.252,3.158,35.0
43.233,4.335,2.972,18.0
73.323,7.349,4.611,28.0
88.506,8.869,5.056,30.0
88.549,8.87,4.55,18.0
42.029,4.217,3.32,11.0
42.791,4.291,3.133,20.0
43.091,4.319,2.907,15.0
73.24,7.337,4.511,33.0
88.517,8.864,4.942,32.0
88.531,8.862,4.433,28.0
0.0,0.0,0.0,0.0
42.856,4.293,3.082,20.0
42.876,4.293,2.836,23.0
73.222,7.328,4.414,33.0
88.542,8.857,4.827,23.0
88.513,8.85,4.317,31.0
42.52,4.257,3.248,22.0
42.726,4.275,3.016,17.0
42.852,4.285,2.777,18.0
73.136,7.308,4.312,21.0
88.524,8.842,4.709,15.0
88.539,8.839,4.2,34.0
42.355,4.233,3.178,32.0
43.618,4.356,3.021,20.0
73.167,7.302,4.646,22.0
88.506,8.828,5.1,14.0
73.16,7.293,3.795,14.0
88.537,8.821,4.083,32.0
44.257,4.413,3.262,3.0
43.162,4.301,2.932,17.0
73.205,7.289,4.55,25.0
73.133,7.277,4.116,9.0
88.512,8.802,4.472,24.0
88.552,8.801,3.965,27.0
42.323,4.209,3.061,17.0
42.946,4.268,2.859,26.0
73.115,7.26,4.445,29.0
73.155,7.259,4.018,23.0
88.509,8.777,4.352,26.0
88.525,8.772,3.845,26.0
42.261,4.19,2.999,11.0
42.884,4.248,2.796,14.0
72.926,7.218,4.334,34.0
73.182,7.238,3.921,27.0
88.538,8.75,4.234,15.0
88.52,8.742,3.725,19.0
0.0,0.0,0.0,0.0
73.032,7.208,4.663,11.0
73.031,7.202,4.241,26.0
73.169,7.209,3.821,15.0
88.591,8.722,4.116,15.0
88.585,8.715,3.606,14.0
43.262,4.257,2.951,20.0
72.907,7.167,4.553,23.0
73.152,7.184,4.148,26.0
88.693,8.702,4.509,11.0
88.727,8.698,4.0,12.0
88.691,8.688,3.489,11.0
43.201,4.231,2.888,33.0
72.805,7.124,4.447,28.0
73.012,7.137,4.04,32.0
90.58,8.846,4.482,15.0
90.575,8.838,3.96,12.0
90.447,8.817,3.435,4.0
43.269,4.217,2.833,3.0
72.745,7.083,4.344,31.0
73.062,7.106,3.943,36.0
90.832,8.825,4.37,14.0
90.761,8.81,3.844,13.0
89.156,8.646,3.265,5.0
72.838,7.06,4.67,21.0
72.964,7.064,4.257,26.0
73.23,7.082,3.85,24.0
91.103,8.801,4.257,14.0
91.016,8.784,3.731,14.0
89.435,8.623,3.152,9.0
72.89,7.024,4.573,21.0
72.989,7.024,4.159,32.0
91.406,8.787,4.681,14.0
91.352,8.772,4.144,15.0
91.3,8.758,3.618,13.0
89.715,8.596,3.041,6.0
72.794,6.97,4.467,29.0
73.289,7.008,4.076,35.0
91.698,8.758,4.571,15.0
91.621,8.739,4.031,17.0
91.588,8.726,3.503,14.0
89.991,8.564,2.927,10.0
73.136,6.954,4.388,18.0
84.56,8.029,4.586,9.0
92.034,8.727,4.462,14.0
91.948,8.708,3.92,12.0
91.944,8.697,3.393,6.0
90.348,8.536,2.815,12.0
73.6,6.946,4.314,18.0
85.066,8.016,4.496,20.0
92.392,8.695,4.353,14.0
92.34,8.679,3.811,15.0
90.69,8.512,3.222,1.0
90.701,8.503,2.703,12.0
84.638,7.923,4.846,14.0
85.528,7.995,4.404,20.0
92.76,8.659,4.244,15.0
92.701,8.641,3.699,18.0
91.231,8.493,3.117,1.0
91.125,8.472,2.592,8.0
84.482,7.842,4.722,34.0
85.647,7.937,4.294,26.0
93.013,8.607,4.129,18.0
92.991,8.592,3.584,17.0
91.514,8.444,3.003,11.0
91.519,8.432,2.478,11.0
84.682,7.789,4.617,28.0
85.618,7.862,4.176,32.0
93.03,8.529,4.003,30.0
93.038,8.518,3.46,25.0
91.889,8.399,2.89,7.0
91.931,8.391,2.365,7.0
84.895,7.733,4.514,30.0
85.608,7.786,4.059,19.0
93.028,8.446,3.878,24.0
93.001,8.43,3.335,12.0
92.416,8.365,2.784,5.0
92.451,8.355,2.256,6.0
85.063,7.671,4.41,23.0
92.921,8.365,4.283,16.0
93.008,8.358,3.753,13.0
92.978,8.341,3.21,5.0
92.889,8.319,2.674,7.0
93.042,8.32,2.146,5.0
85.532,7.63,4.319,28.0
92.201,8.21,4.127,17.0
93.19,8.282,3.636,16.0
93.215,8.271,3.094,16.0
93.216,8.256,2.56,17.0
93.227,8.243,2.027,19.0
85.817,7.568,4.22,26.0
92.951,8.182,4.037,67.0
93.103,8.18,3.509,57.0
93.119,8.166,2.967,83.0
93.123,8.151,2.435,68.0
93.137,8.138,1.902,60.0
86.135,7.506,4.122,10.0
96.179,8.364,4.051,10.0
96.144,8.345,3.499,10.0
45.903,3.976,1.403,9.0
45.849,3.964,1.139,16.0
45.816,3.954,0.877,22.0
79.241,6.819,3.69,14.0
45.925,3.943,1.875,9.0
45.866,3.931,1.61,17.0
45.817,3.918,1.342,22.0
45.795,3.909,1.079,32.0
45.777,3.9,0.817,32.0
45.863,3.895,2.076,28.0
45.836,3.884,1.813,27.0
45.802,3.873,1.549,30.0
45.779,3.863,1.282,34.0
45.768,3.854,1.021,36.0
45.756,3.845,0.759,40.0
45.821,3.838,2.016,38.0
45.813,3.828,1.753,34.0
45.795,3.818,1.491,40.0
45.78,3.809,1.224,37.0
45.77,3.8,0.963,42.0
45.769,3.791,0.701,37.0
45.801,3.78,1.957,41.0
45.806,3.772,1.696,42.0
45.797,3.762,1.433,43.0
45.798,3.754,1.168,42.0
45.801,3.746,0.906,42.0
45.801,3.737,0.645,43.0
45.828,3.725,1.902,43.0
45.827,3.716,1.64,42.0
45.845,3.709,1.379,38.0
45.841,3.699,1.112,37.0
45.858,3.692,0.851,40.0
45.865,3.684,0.59,38.0
45.879,3.671,1.848,31.0
45.894,3.663,1.587,32.0
45.941,3.657,1.326,23.0
98.48,7.82,2.27,9.0
98.496,7.802,1.71,8.0
98.561,7.787,1.149,9.0
91.461,7.197,3.574,13.0
100.838,7.914,3.365,15.0
99.086,7.755,2.742,7.0
99.171,7.742,2.168,9.0
99.269,7.729,1.604,8.0
99.326,7.714,1.039,10.0
101.607,7.856,3.849,13.0
101.684,7.841,3.273,13.0
99.86,7.678,2.644,6.0
100.014,7.669,2.069,9.0
100.081,7.655,1.5,9.0
100.137,7.639,0.932,8.0
101.997,7.743,3.745,38.0
102.003,7.721,3.164,14.0
100.705,7.6,2.55,6.0
100.846,7.59,1.969,10.0
100.851,7.569,1.395,8.0
100.928,7.555,0.823,8.0
101.994,7.597,3.628,34.0
101.848,7.563,3.043,6.0
101.837,7.539,2.463,5.0
101.848,7.519,1.874,6.0
101.828,7.495,1.295,7.0
52.309,3.839,0.367,4.0
102.102,7.455,3.517,29.0
102.103,7.432,2.936,38.0
102.09,7.407,2.355,49.0
102.081,7.385,1.764,47.0
52.277,3.77,0.606,23.0
52.214,3.754,0.309,16.0
102.082,7.3,3.404,13.0
52.303,3.728,1.447,21.0
52.253,3.712,1.148,23.0
52.218,3.698,0.846,23.0
52.194,3.684,0.548,24.0
52.162,3.67,0.252,17.0
52.219,3.654,1.685,28.0
52.205,3.64,1.387,30.0
52.191,3.627,1.091,35.0
52.184,3.614,0.789,35.0
52.187,3.602,0.493,25.0
52.099,3.584,0.196,18.0
52.214,3.571,1.629,39.0
52.204,3.557,1.332,38.0
52.195,3.544,1.036,39.0
52.2,3.531,0.734,40.0
52.2,3.519,0.438,25.0
51.987,3.493,0.142,14.0
52.24,3.488,1.575,16.0
52.248,3.475,1.279,41.0
52.254,3.463,0.983,39.0
52.259,3.451,0.682,40.0
52.258,3.438,0.385,28.0
51.87,3.401,0.089,13.0
47.37,3.086,1.381,61.0
52.388,3.399,1.23,1.0
109.479,7.075,1.951,7.0
109.685,7.062,1.322,8.0
52.392,3.36,0.335,14.0
51.713,3.304,0.038,13.0
47.451,3.012,1.336,35.0
111.087,7.022,2.5,6.0
111.07,6.993,1.871,9.0
111.15,6.971,1.233,11.0
52.386,3.272,0.284,1.0
51.641,3.213,-0.01,19.0
47.638,2.943,1.296,24.0
111.104,6.835,2.395,32.0
111.09,6.805,1.767,42.0
111.116,6.778,1.129,23.0
52.464,3.187,0.236,3.0
51.452,3.112,-0.058,21.0
47.774,2.869,1.256,15.0
47.579,2.845,0.982,46.0
114.435,6.811,1.715,8.0
114.563,6.788,1.058,8.0
59.249,3.495,0.213,5.0
51.28,3.011,-0.105,20.0
47.985,2.797,1.218,9.0
47.757,2.771,0.943,31.0
47.68,2.754,0.672,5.0
