X,Y,Z,Reflectivity
15.276,-1.422,-0.809,0.0
14.1,-1.316,-0.825,0.0
13.141,-1.23,-0.841,0.0
12.284,-1.153,-0.856,0.0
11.561,-1.089,-0.87,0.0
10.956,-1.035,-0.885,0.0
15.322,-1.447,-0.807,0.0
14.14,-1.339,-0.823,0.0
13.21,-1.254,-0.842,0.0
12.399,-1.181,-0.86,0.0
11.634,-1.111,-0.871,0.0
10.989,-1.053,-0.884,0.0
15.376,-1.472,-0.804,1.0
14.186,-1.362,-0.821,0.0
13.333,-1.284,-0.845,0.0
12.461,-1.203,-0.86,0.0
11.651,-1.128,-0.868,0.0
11.025,-1.071,-0.883,0.0
15.417,-1.496,-0.801,1.0
14.327,-1.394,-0.823,0.0
13.31,-1.299,-0.838,0.0
12.481,-1.221,-0.856,0.0
11.733,-1.151,-0.87,0.0
11.087,-1.091,-0.883,0.0
15.595,-1.533,-0.804,1.0
14.309,-1.41,-0.816,0.0
13.378,-1.322,-0.837,0.0
12.516,-1.24,-0.853,0.0
11.739,-1.166,-0.865,0.0
11.152,-1.111,-0.884,0.0
15.694,-1.562,-0.802,0.0
14.49,-1.446,-0.82,0.0
13.504,-1.351,-0.839,0.0
12.583,-1.262,-0.852,0.0
11.829,-1.19,-0.866,0.0
11.235,-1.133,-0.885,0.0
15.434,-1.555,-0.781,0.0
14.904,-1.506,-0.836,0.0
13.667,-1.384,-0.842,0.0
12.68,-1.287,-0.852,0.0
11.879,-1.209,-0.864,0.0
11.286,-1.152,-0.883,0.0
14.916,-1.521,-0.748,0.0
14.74,-1.506,-0.82,0.0
13.772,-1.411,-0.841,0.0
12.72,-1.306,-0.848,0.0
11.942,-1.23,-0.862,0.0
11.337,-1.17,-0.881,0.0
14.557,-1.501,-0.722,1.0
14.506,-1.499,-0.799,0.0
13.92,-1.442,-0.843,0.0
12.852,-1.335,-0.85,0.0
11.989,-1.248,-0.859,0.0
11.395,-1.189,-0.879,0.0
14.269,-1.487,-0.699,1.0
14.192,-1.483,-0.773,1.0
13.969,-1.463,-0.837,0.0
12.98,-1.362,-0.851,0.0
12.099,-1.273,-0.859,0.0
11.442,-1.207,-0.875,0.0
14.169,-1.492,-0.686,1.0
13.92,-1.469,-0.749,0.0
13.794,-1.459,-0.818,0.0
13.27,-1.407,-0.861,0.0
12.208,-1.297,-0.859,0.0
11.531,-1.228,-0.875,0.0
14.19,-1.51,-0.677,1.0
13.634,-1.454,-0.725,0.0
13.556,-1.448,-0.795,0.0
13.238,-1.418,-0.85,0.0
12.249,-1.314,-0.854,0.0
11.65,-1.253,-0.876,0.0
14.321,-1.538,-0.674,2.0
13.416,-1.444,-0.704,1.0
13.311,-1.436,-0.772,0.0
13.238,-1.431,-0.841,0.0
12.442,-1.348,-0.859,0.0
11.699,-1.27,-0.871,0.0
14.384,-1.559,-0.667,6.0
13.36,-1.451,-0.692,1.0
13.072,-1.423,-0.748,0.0
13.138,-1.433,-0.825,0.0
12.638,-1.381,-0.863,0.0
11.761,-1.288,-0.867,0.0
14.44,-1.579,-0.659,10.0
13.417,-1.47,-0.685,1.0
12.825,-1.408,-0.724,0.0
12.789,-1.407,-0.794,0.0
12.668,-1.396,-0.855,0.0
11.84,-1.307,-0.864,0.0
14.511,-1.6,-0.651,14.0
13.575,-1.5,-0.683,1.0
12.708,-1.407,-0.708,1.0
12.579,-1.395,-0.771,0.0
12.548,-1.394,-0.837,0.0
12.077,-1.344,-0.872,0.0
14.525,-1.615,-0.64,14.0
13.81,-1.538,-0.683,1.0
12.711,-1.418,-0.698,1.0
12.398,-1.385,-0.749,0.0
12.336,-1.381,-0.813,0.0
12.188,-1.367,-0.87,0.0
14.668,-1.643,-0.634,14.0
13.952,-1.566,-0.679,5.0
12.812,-1.44,-0.693,0.0
12.241,-1.378,-0.73,0.0
12.18,-1.374,-0.792,0.0
12.145,-1.372,-0.856,0.0
14.69,-1.657,-0.623,13.0
13.925,-1.573,-0.666,10.0
12.977,-1.469,-0.691,1.0
12.183,-1.381,-0.716,1.0
12.042,-1.367,-0.773,0.0
12.057,-1.371,-0.84,0.0
15.202,-1.727,-0.631,17.0
13.897,-1.581,-0.652,13.0
13.173,-1.501,-0.69,1.0
12.226,-1.395,-0.707,1.0
11.892,-1.359,-0.753,0.0
11.859,-1.357,-0.815,0.0
15.313,-1.751,-0.622,20.0
13.937,-1.596,-0.641,12.0
13.4,-1.536,-0.689,2.0
12.299,-1.412,-0.7,2.0
11.771,-1.353,-0.734,0.0
11.721,-1.35,-0.795,0.0
15.475,-1.78,-0.614,18.0
14.077,-1.621,-0.635,12.0
13.444,-1.55,-0.679,7.0
12.38,-1.43,-0.693,1.0
11.736,-1.357,-0.721,0.0
11.607,-1.344,-0.776,0.0
15.648,-1.81,-0.606,17.0
14.162,-1.64,-0.625,10.0
13.464,-1.561,-0.667,11.0
12.572,-1.46,-0.692,1.0
11.801,-1.372,-0.713,0.0
11.479,-1.336,-0.756,0.0
15.891,-1.848,-0.6,16.0
14.531,-1.692,-0.627,12.0
13.531,-1.577,-0.657,12.0
12.857,-1.5,-0.695,1.0
11.915,-1.392,-0.709,0.0
11.38,-1.331,-0.738,0.0
16.116,-1.883,-0.593,16.0
14.759,-1.726,-0.622,12.0
13.607,-1.593,-0.647,9.0
13.016,-1.526,-0.691,4.0
12.094,-1.419,-0.707,0.0
11.383,-1.338,-0.727,0.0
16.29,-1.912,-0.583,17.0
15.149,-1.78,-0.623,14.0
13.978,-1.644,-0.651,11.0
13.061,-1.538,-0.68,10.0
12.285,-1.448,-0.705,1.0
11.464,-1.353,-0.72,0.0
16.49,-1.944,-0.573,15.0
15.251,-1.799,-0.612,16.0
14.175,-1.674,-0.645,11.0
13.115,-1.55,-0.669,12.0
12.382,-1.465,-0.698,3.0
11.584,-1.372,-0.716,0.0
16.825,-1.991,-0.567,15.0
15.359,-1.819,-0.6,17.0
14.321,-1.697,-0.636,12.0
13.213,-1.567,-0.66,10.0
12.479,-1.481,-0.69,5.0
11.732,-1.394,-0.712,0.0
17.22,-2.044,-0.562,15.0
15.617,-1.855,-0.593,15.0
14.491,-1.723,-0.628,13.0
13.222,-1.573,-0.646,9.0
12.601,-1.501,-0.683,7.0
11.896,-1.418,-0.709,0.0
17.65,-2.101,-0.557,16.0
15.944,-1.9,-0.588,14.0
14.795,-1.764,-0.626,15.0
13.465,-1.606,-0.643,10.0
12.839,-1.533,-0.682,10.0
12.107,-1.447,-0.708,0.0
18.091,-2.16,-0.551,19.0
16.134,-1.927,-0.578,14.0
15.007,-1.793,-0.618,19.0
13.577,-1.624,-0.633,10.0
12.924,-1.547,-0.672,11.0
12.246,-1.466,-0.703,3.0
18.342,-2.194,-0.538,20.0
16.475,-1.972,-0.572,15.0
15.181,-1.818,-0.608,20.0
13.808,-1.655,-0.629,10.0
13.01,-1.56,-0.662,11.0
12.314,-1.477,-0.693,6.0
18.511,-2.219,-0.522,18.0
16.887,-2.025,-0.567,15.0
15.356,-1.842,-0.598,16.0
14.291,-1.715,-0.634,11.0
13.189,-1.584,-0.656,11.0
12.464,-1.497,-0.687,9.0
18.821,-2.259,-0.51,19.0
17.33,-2.081,-0.562,15.0
15.604,-1.874,-0.59,14.0
14.492,-1.741,-0.627,14.0
13.303,-1.599,-0.647,9.0
12.608,-1.516,-0.681,10.0
19.316,-2.321,-0.501,29.0
17.688,-2.126,-0.554,15.0
15.878,-1.909,-0.582,13.0
14.795,-1.779,-0.623,16.0
13.79,-1.659,-0.654,11.0
12.813,-1.542,-0.677,11.0
19.516,-2.347,-0.484,29.0
18.041,-2.17,-0.544,16.0
16.242,-1.954,-0.576,13.0
15.016,-1.807,-0.615,17.0
13.941,-1.678,-0.645,12.0
12.951,-1.559,-0.669,11.0
20.106,-2.419,-0.475,21.0
18.33,-2.205,-0.531,17.0
16.668,-2.005,-0.572,14.0
15.242,-1.834,-0.606,17.0
14.178,-1.706,-0.639,11.0
13.079,-1.574,-0.66,11.0
20.842,-2.507,-0.468,22.0
18.617,-2.239,-0.517,18.0
17.114,-2.059,-0.567,14.0
15.442,-1.858,-0.596,15.0
14.401,-1.732,-0.633,13.0
13.349,-1.606,-0.658,10.0
21.369,-2.569,-0.455,22.0
19.214,-2.31,-0.511,22.0
17.547,-2.109,-0.561,15.0
15.777,-1.896,-0.59,14.0
14.687,-1.766,-0.628,15.0
13.683,-1.645,-0.658,10.0
21.877,-2.628,-0.439,21.0
19.425,-2.333,-0.494,30.0
17.902,-2.15,-0.551,16.0
16.021,-1.924,-0.58,14.0
14.927,-1.792,-0.62,20.0
13.906,-1.67,-0.652,12.0
22.565,-2.708,-0.427,22.0
19.912,-2.389,-0.482,22.0
18.256,-2.19,-0.54,17.0
16.425,-1.969,-0.575,14.0
15.159,-1.817,-0.612,22.0
14.08,-1.688,-0.643,12.0
23.144,-2.773,-0.41,23.0
20.685,-2.477,-0.477,20.0
18.548,-2.221,-0.526,17.0
16.851,-2.017,-0.57,14.0
15.358,-1.838,-0.601,17.0
14.329,-1.714,-0.638,13.0
23.902,-2.858,-0.395,23.0
21.228,-2.537,-0.464,20.0
18.946,-2.263,-0.515,18.0
17.382,-2.076,-0.567,14.0
15.698,-1.874,-0.596,15.0
14.578,-1.74,-0.631,14.0
24.728,-2.95,-0.379,22.0
21.715,-2.589,-0.448,19.0
19.336,-2.304,-0.502,19.0
17.802,-2.12,-0.559,16.0
16.086,-1.915,-0.591,15.0
14.94,-1.778,-0.629,17.0
25.371,-3.018,-0.358,17.0
22.392,-2.662,-0.436,20.0
19.941,-2.369,-0.494,17.0
18.148,-2.155,-0.548,17.0
16.399,-1.946,-0.583,16.0
15.178,-1.801,-0.621,18.0
28.279,-3.354,-0.366,18.0
22.967,-2.722,-0.419,20.0
20.399,-2.416,-0.481,18.0
18.47,-2.186,-0.536,16.0
16.731,-1.979,-0.575,15.0
15.333,-1.813,-0.609,17.0
29.247,-3.456,-0.343,23.0
23.732,-2.802,-0.405,22.0
20.972,-2.474,-0.47,19.0
18.883,-2.226,-0.525,16.0
17.205,-2.027,-0.57,14.0
15.685,-1.847,-0.604,15.0
30.491,-3.589,-0.321,22.0
24.51,-2.882,-0.389,19.0
21.677,-2.547,-0.459,18.0
19.323,-2.268,-0.515,17.0
17.655,-2.071,-0.564,15.0
16.073,-1.884,-0.6,14.0
35.378,-4.146,-0.331,4.0
25.102,-2.939,-0.368,17.0
22.272,-2.605,-0.446,18.0
19.765,-2.31,-0.503,17.0
18.024,-2.104,-0.555,22.0
16.395,-1.913,-0.592,16.0
35.672,-4.16,-0.292,24.0
27.97,-3.259,-0.378,9.0
22.92,-2.668,-0.431,21.0
20.459,-2.379,-0.496,17.0
18.341,-2.131,-0.543,18.0
16.704,-1.939,-0.583,15.0
36.763,-4.265,-0.257,14.0
29.167,-3.38,-0.359,19.0
23.488,-2.719,-0.414,21.0
21.021,-2.431,-0.485,18.0
18.915,-2.185,-0.537,25.0
17.136,-1.977,-0.578,15.0
37.941,-4.377,-0.221,20.0
30.551,-3.52,-0.34,23.0
24.32,-2.799,-0.401,18.0
21.543,-2.477,-0.472,19.0
19.277,-2.214,-0.525,27.0
17.667,-2.027,-0.576,16.0
38.802,-4.45,-0.18,15.0
35.326,-4.046,-0.353,2.0
25.283,-2.892,-0.387,16.0
22.044,-2.518,-0.457,21.0
19.373,-2.211,-0.506,21.0
18.055,-2.058,-0.567,17.0
0.0,0.0,0.0,0.0
35.557,-4.046,-0.314,24.0
0.0,0.0,0.0,0.0
22.667,-2.572,-0.444,19.0
19.993,-2.266,-0.499,20.0
18.38,-2.08,-0.557,17.0
42.628,-4.824,-0.1,18.0
36.225,-4.093,-0.279,13.0
28.88,-3.259,-0.377,28.0
23.484,-2.646,-0.434,22.0
21.077,-2.371,-0.502,17.0
18.828,-2.115,-0.549,27.0
45.582,-5.121,-0.056,21.0
37.525,-4.209,-0.247,18.0
30.049,-3.366,-0.358,26.0
24.538,-2.744,-0.426,20.0
21.673,-2.42,-0.492,19.0
19.136,-2.134,-0.536,21.0
46.012,-5.13,-0.005,20.0
38.587,-4.295,-0.211,16.0
0.0,0.0,0.0,0.0
25.267,-2.803,-0.41,17.0
22.301,-2.47,-0.481,22.0
19.754,-2.184,-0.532,22.0
48.288,-5.34,0.047,23.0
0.0,0.0,0.0,0.0
35.427,-3.904,-0.343,5.0
0.0,0.0,0.0,0.0
22.791,-2.503,-0.466,23.0
20.232,-2.218,-0.522,17.0
0.0,0.0,0.0,0.0
42.272,-4.625,-0.137,17.0
35.956,-3.927,-0.309,12.0
28.444,-3.101,-0.4,20.0
23.61,-2.57,-0.458,35.0
20.695,-2.248,-0.512,16.0
33.131,-3.599,0.104,38.0
33.124,-3.591,-0.072,22.0
37.267,-4.033,-0.281,14.0
29.756,-3.214,-0.386,26.0
24.06,-2.593,-0.441,30.0
21.38,-2.3,-0.506,18.0
33.111,-3.562,0.139,84.0
33.101,-3.554,-0.037,75.0
33.109,-3.548,-0.214,55.0
30.767,-3.29,-0.367,14.0
0.0,0.0,0.0,0.0
22.193,-2.364,-0.502,25.0
33.11,-3.526,0.174,83.0
33.1,-3.517,-0.002,82.0
33.086,-3.509,-0.179,78.0
32.128,-3.4,-0.35,36.0
27.225,-2.875,-0.442,7.0
22.709,-2.393,-0.49,19.0
33.124,-3.491,0.208,72.0
33.113,-3.482,0.03,71.0
33.103,-3.473,-0.146,74.0
32.954,-3.45,-0.325,55.0
28.638,-2.992,-0.436,8.0
23.292,-2.428,-0.48,13.0
33.146,-3.455,0.241,1.0
33.129,-3.445,0.064,9.0
33.105,-3.435,-0.113,39.0
33.113,-3.428,-0.294,62.0
29.717,-3.069,-0.423,21.0
23.553,-2.427,-0.461,21.0
87.553,-9.021,0.724,6.0
54.973,-5.65,0.16,0.0
45.398,-4.655,-0.11,20.0
37.657,-3.852,-0.297,15.0
30.267,-3.089,-0.401,26.0
23.558,-2.398,-0.438,12.0
87.927,-8.951,0.813,4.0
81.293,-8.255,0.315,5.0
46.995,-4.76,-0.069,21.0
38.68,-3.908,-0.268,14.0
30.893,-3.113,-0.38,11.0
23.56,-2.369,-0.416,1.0
111.609,-11.22,1.138,3.0
79.899,-8.01,0.386,6.0
48.15,-4.814,-0.026,22.0
0.0,0.0,0.0,0.0
35.232,-3.505,-0.401,8.0
23.643,-2.346,-0.396,0.0
111.414,-11.053,1.239,12.0
84.64,-8.374,0.487,9.0
0.0,0.0,0.0,0.0
42.213,-4.153,-0.215,17.0
35.655,-3.499,-0.373,19.0
23.718,-2.321,-0.375,3.0
114.907,-11.245,1.381,6.0
85.204,-8.315,0.566,14.0
51.256,-4.988,0.064,5.0
43.843,-4.255,-0.184,19.0
35.978,-3.482,-0.345,12.0
29.443,-2.841,-0.441,8.0
119.046,-11.488,1.535,6.0
85.948,-8.269,0.645,10.0
55.251,-5.3,0.117,4.0
0.0,0.0,0.0,0.0
37.446,-3.571,-0.327,15.0
29.711,-2.825,-0.419,7.0
119.128,-11.325,1.637,16.0
89.08,-8.442,0.745,3.0
71.931,-6.796,0.214,1.0
47.028,-4.429,-0.117,21.0
38.453,-3.611,-0.303,14.0
29.854,-2.795,-0.396,15.0
119.113,-11.151,1.736,16.0
110.979,-10.357,1.019,8.0
78.19,-7.274,0.296,2.0
48.306,-4.479,-0.082,21.0
0.0,0.0,0.0,0.0
29.856,-2.751,-0.372,17.0
126.431,-11.647,1.944,20.0
111.466,-10.233,1.113,13.0
71.981,-6.587,0.33,3.0
50.782,-4.631,-0.046,25.0
41.521,-3.774,-0.261,16.0
29.89,-2.708,-0.349,1.0
135.619,-12.284,2.191,96.0
114.576,-10.342,1.232,7.0
84.163,-7.571,0.451,11.0
51.614,-4.627,-0.006,9.0
0.0,0.0,0.0,0.0
29.98,-2.669,-0.327,1.0
135.642,-12.076,2.293,81.0
114.652,-10.171,1.318,7.0
86.148,-7.616,0.524,9.0
55.841,-4.919,0.032,4.0
0.0,0.0,0.0,0.0
35.669,-3.12,-0.364,0.0
135.666,-11.864,2.389,41.0
119.144,-10.38,1.454,11.0
89.323,-7.753,0.607,3.0
0.0,0.0,0.0,0.0
0.0,0.0,0.0,0.0
35.699,-3.065,-0.34,4.0
126.466,-10.855,2.315,61.0
119.172,-10.19,1.536,17.0
89.431,-7.617,0.668,3.0
67.528,-5.729,0.132,8.0
47.885,-4.048,-0.165,21.0
35.727,-3.009,-0.316,2.0
119.317,-10.044,2.262,150.0
119.179,-9.992,1.613,17.0
87.5,-7.307,0.711,1.0
67.671,-5.629,0.176,8.0
49.857,-4.131,-0.14,23.0
35.756,-2.951,-0.294,0.0
126.499,-10.437,2.477,81.0
119.227,-9.798,1.688,12.0
108.729,-8.898,0.95,2.0
72.267,-5.89,0.231,8.0
50.377,-4.09,-0.111,23.0
40.66,-3.287,-0.31,5.0
119.333,-9.643,2.408,88.0
119.282,-9.6,1.759,19.0
114.388,-9.167,1.065,11.0
81.809,-6.528,0.309,10.0
51.052,-4.056,-0.083,9.0
40.625,-3.215,-0.287,15.0
67.914,-5.37,1.409,23.0
67.877,-5.344,1.039,53.0
67.859,-5.319,0.669,83.0
67.849,-5.296,0.294,90.0
56.808,-4.415,-0.062,2.0
40.64,-3.145,-0.265,10.0
67.905,-5.25,1.444,71.0
67.906,-5.226,1.075,33.0
119.166,-9.13,1.239,12.0
83.009,-6.331,0.403,11.0
62.832,-4.77,-0.036,1.0
40.628,-3.071,-0.244,2.0
72.489,-5.475,1.578,15.0
119.378,-8.974,1.949,54.0
20.063,-1.501,0.218,1.0
20.033,-1.492,0.107,4.0
48.852,-3.621,-0.004,0.0
45.097,-3.328,-0.25,16.0
20.039,-1.477,0.445,3.0
20.02,-1.468,0.336,8.0
20.027,-1.461,0.227,35.0
19.998,-1.452,0.115,18.0
59.066,-4.269,0.02,0.0
45.305,-3.259,-0.231,0.0
20.018,-1.438,0.453,10.0
20.011,-1.431,0.344,11.0
20.043,-1.426,0.235,23.0
20.023,-1.417,0.124,3.0
63.407,-4.467,0.047,1.0
20.087,-1.408,-0.094,0.0
20.017,-1.401,0.461,9.0
20.041,-1.396,0.352,8.0
119.325,-8.27,1.45,15.0
95.676,-6.596,0.63,4.0
20.018,-1.373,0.022,7.0
19.999,-1.364,-0.086,21.0
20.088,-1.368,0.47,5.0
20.052,-1.359,0.36,0.0
19.958,-1.345,0.249,13.0
19.978,-1.339,0.138,20.0
19.975,-1.332,0.029,18.0
19.986,-1.326,-0.079,29.0
19.955,-1.322,0.474,11.0
19.934,-1.313,0.364,16.0
19.97,-1.308,0.255,28.0
19.974,-1.301,0.144,25.0
19.984,-1.295,0.035,28.0
19.982,-1.287,-0.073,31.0
19.933,-1.282,0.479,19.0
19.923,-1.274,0.37,19.0
19.962,-1.269,0.261,27.0
19.983,-1.263,0.15,27.0
19.993,-1.256,0.04,24.0
20.009,-1.25,-0.068,24.0
19.94,-1.244,0.484,23.0
19.94,-1.236,0.375,25.0
19.95,-1.23,0.266,26.0
19.976,-1.224,0.154,150.0
19.98,-1.217,0.045,150.0
19.982,-1.21,-0.064,150.0
19.943,-1.205,0.489,25.0
19.937,-1.197,0.379,20.0
19.939,-1.19,0.27,25.0
20.022,-1.188,0.159,31.0
19.992,-1.179,0.049,17.0
20.001,-1.172,-0.06,6.0
19.96,-1.167,0.493,25.0
19.936,-1.158,0.383,19.0
19.958,-1.152,0.273,26.0
19.999,-1.147,0.162,12.0
20.016,-1.14,0.052,13.0
20.021,-1.134,-0.057,0.0
19.956,-1.127,0.496,25.0
19.951,-1.119,0.386,22.0
19.966,-1.113,0.276,24.0
19.992,-1.107,0.164,23.0
19.986,-1.099,0.054,24.0
20.008,-1.093,-0.055,21.0
19.969,-1.088,0.498,23.0
19.963,-1.08,0.388,19.0
19.971,-1.073,0.278,21.0
19.949,-1.064,0.166,18.0
19.973,-1.058,0.056,31.0
19.974,-1.051,-0.053,23.0
19.968,-1.048,0.499,17.0
19.974,-1.04,0.389,12.0
19.985,-1.034,0.279,14.0
20.016,-1.028,0.167,16.0
19.995,-1.019,0.057,17.0
19.971,-1.011,-0.052,24.0
20.121,-1.015,0.504,19.0
20.137,-1.008,0.393,25.0
20.163,-1.002,0.282,22.0
20.158,-0.995,0.169,1.0
20.024,-0.98,0.057,1.0
20.0,-0.972,-0.052,22.0
20.135,-0.975,0.504,24.0
20.141,-0.968,0.393,19.0
20.203,-0.963,0.282,0.0
138.212,-6.542,1.157,23.0
0.0,0.0,0.0,0.0
20.035,-0.933,-0.053,0.0
20.136,-0.934,0.503,10.0
193.298,-8.901,3.765,14.0
138.035,-6.303,1.924,35.0
138.25,-6.261,1.149,21.0
0.0,0.0,0.0,0.0
0.0,0.0,0.0,0.0
193.483,-8.585,4.822,19.0
192.957,-8.491,3.741,23.0
138.108,-6.025,1.913,39.0
138.023,-5.969,1.133,21.0
0.0,0.0,0.0,0.0
0.0,0.0,0.0,0.0
192.794,-8.157,4.782,21.0
193.008,-8.096,3.718,20.0
138.229,-5.747,1.896,23.0
138.408,-5.704,1.117,20.0
0.0,0.0,0.0,0.0
0.0,0.0,0.0,0.0
192.789,-7.763,4.751,24.0
193.438,-7.715,3.694,18.0
138.386,-5.467,1.874,3.0
138.431,-5.417,1.093,18.0
0.0,0.0,0.0,0.0
0.0,0.0,0.0,0.0
192.72,-7.355,4.711,25.0
193.503,-7.314,3.655,9.0
0.0,0.0,0.0,0.0
138.529,-5.134,1.064,22.0
0.0,0.0,0.0,0.0
0.0,0.0,0.0,0.0
193.516,-6.987,4.685,18.0
0.0,0.0,0.0,0.0
0.0,0.0,0.0,0.0
138.503,-4.846,1.029,15.0
0.0,0.0,0.0,0.0
0.0,0.0,0.0,0.0
187.481,-6.377,4.487,34.0
193.437,-6.511,3.553,7.0
0.0,0.0,0.0,0.0
138.622,-4.563,0.989,14.0
0.0,0.0,0.0,0.0
0.0,0.0,0.0,0.0
194.016,-6.198,4.582,23.0
193.827,-6.121,3.499,11.0
0.0,0.0,0.0,0.0
138.635,-4.276,0.943,9.0
0.0,0.0,0.0,0.0
0.0,0.0,0.0,0.0
194.667,-5.817,4.53,12.0
194.214,-5.734,3.437,7.0
138.553,-4.04,1.679,8.0
138.387,-3.984,0.891,12.0
0.0,0.0,0.0,0.0
52.294,-1.467,-0.246,0.0
0.0,0.0,0.0,0.0
0.0,0.0,0.0,0.0
0.0,0.0,0.0,0.0
138.713,-3.706,0.837,9.0
0.0,0.0,0.0,0.0
51.666,-1.342,-0.265,0.0
0.0,0.0,0.0,0.0
193.205,-4.902,3.258,11.0
0.0,0.0,0.0,0.0
138.821,-3.419,0.775,4.0
0.0,0.0,0.0,0.0
54.569,-1.305,-0.304,0.0
0.0,0.0,0.0,0.0
193.031,-4.497,3.164,18.0
138.912,-3.185,1.5,8.0
138.823,-3.134,0.708,3.0
0.0,0.0,0.0,0.0
51.891,-1.134,-0.315,0.0
193.995,-4.188,4.167,21.0
138.84,-2.946,2.204,4.0
138.994,-2.901,1.429,13.0
0.0,0.0,0.0,0.0
0.0,0.0,0.0,0.0
50.625,-1.003,-0.334,0.0
193.611,-3.782,4.054,20.0
139.039,-2.665,2.132,7.0
139.032,-2.617,1.353,17.0
0.0,0.0,0.0,0.0
0.0,0.0,0.0,0.0
50.41,-0.896,-0.361,0.0
204.891,-3.582,4.172,9.0
139.061,-2.38,2.051,7.0
139.136,-2.333,1.272,15.0
113.441,-1.861,0.389,4.0
0.0,0.0,0.0,0.0
46.585,-0.732,-0.362,0.0
0.0,0.0,0.0,0.0
138.889,-2.094,1.963,12.0
138.831,-2.044,1.182,17.0
0.0,0.0,0.0,0.0
57.096,-0.8,-0.16,3.0
47.119,-0.644,-0.397,0.0
0.0,0.0,0.0,0.0
139.13,-1.812,1.874,4.0
139.202,-1.764,1.092,22.0
0.0,0.0,0.0,0.0
0.0,0.0,0.0,0.0
45.29,-0.526,-0.412,0.0
119.74,-1.355,2.202,16.0
119.73,-1.315,1.529,150.0
119.756,-1.274,0.855,136.0
0.0,0.0,0.0,0.0
55.248,-0.549,-0.232,0.0
0.0,0.0,0.0,0.0
119.737,-1.113,2.115,77.0
119.663,-1.072,1.44,17.0
114.344,-0.984,0.732,9.0
0.0,0.0,0.0,0.0
0.0,0.0,0.0,0.0
0.0,0.0,0.0,0.0
119.823,-0.874,2.025,51.0
119.72,-0.833,1.349,17.0
110.967,-0.736,0.626,5.0
0.0,0.0,0.0,0.0
51.452,-0.306,-0.295,0.0
0.0,0.0,0.0,0.0
119.765,-0.635,1.929,6.0
119.707,-0.593,1.253,15.0
110.99,-0.512,0.535,1.0
58.818,-0.252,-0.053,0.0
51.472,-0.203,-0.337,0.0
0.0,0.0,0.0,0.0
112.527,-0.371,1.718,6.0
114.475,-0.341,1.102,150.0
0.0,0.0,0.0,0.0
0.0,0.0,0.0,0.0
45.424,-0.091,-0.336,0.0
0.0,0.0,0.0,0.0
117.341,-0.157,1.69,16.0
117.249,-0.12,1.027,8.0
95.644,-0.066,0.297,1.0
0.0,0.0,0.0,0.0
45.789,-0.002,-0.379,2.0
37.554,0.01,-0.523,0.0
111.112,0.066,1.501,17.0
110.938,0.101,0.872,12.0
93.01,0.115,0.205,2.0
0.0,0.0,0.0,0.0
42.907,0.081,-0.395,0.0
35.48,0.078,-0.527,0.0
119.772,0.303,1.506,10.0
110.784,0.317,0.766,6.0
0.0,0.0,0.0,0.0
0.0,0.0,0.0,0.0
42.845,0.162,-0.434,1.0
0.0,0.0,0.0,0.0
111.069,0.493,1.29,26.0
104.417,0.497,0.621,6.0
0.0,0.0,0.0,0.0
51.922,0.279,-0.284,0.0
42.82,0.244,-0.476,0.0
34.179,0.205,-0.574,0.0
104.942,0.665,1.113,8.0
97.462,0.648,0.482,5.0
0.0,0.0,0.0,0.0
48.426,0.352,-0.314,0.0
39.896,0.302,-0.484,0.0
0.0,0.0,0.0,0.0
104.764,0.861,1.004,6.0
91.204,0.778,0.356,3.0
0.0,0.0,0.0,0.0
46.702,0.426,-0.351,0.0
37.767,0.357,-0.498,0.0
0.0,0.0,0.0,0.0
98.47,0.995,0.837,16.0
82.182,0.855,0.232,4.0
0.0,0.0,0.0,0.0
46.271,0.509,-0.398,1.0
36.197,0.408,-0.517,0.0
30.01,0.348,-0.599,0.0
98.275,1.173,0.728,12.0
78.807,0.963,0.136,3.0
0.0,0.0,0.0,0.0
43.931,0.563,-0.427,1.0
0.0,0.0,0.0,0.0
29.219,0.392,-0.616,0.0
92.079,1.268,0.578,11.0
0.0,0.0,0.0,0.0
53.162,0.763,-0.27,0.0
41.655,0.61,-0.452,1.0
0.0,0.0,0.0,0.0
28.44,0.433,-0.632,0.0
84.848,1.319,0.435,7.0
0.0,0.0,0.0,0.0
0.0,0.0,0.0,0.0
41.678,0.684,-0.501,0.0
32.272,0.539,-0.572,0.0
27.52,0.468,-0.644,0.0
84.414,1.462,0.333,5.0
0.0,0.0,0.0,0.0
0.0,0.0,0.0,0.0
0.0,0.0,0.0,0.0
31.057,0.573,-0.587,0.0
26.504,0.497,-0.652,0.0
73.684,1.406,0.2,5.0
0.0,0.0,0.0,0.0
0.0,0.0,0.0,0.0
35.751,0.712,-0.517,0.0
29.817,0.602,-0.601,0.0
25.933,0.531,-0.67,0.0
71.66,1.491,0.106,6.0
0.0,0.0,0.0,0.0
0.0,0.0,0.0,0.0
35.008,0.757,-0.55,0.0
29.054,0.636,-0.622,0.0
24.933,0.553,-0.676,0.0
67.976,1.529,0.014,5.0
0.0,0.0,0.0,0.0
0.0,0.0,0.0,0.0
0.0,0.0,0.0,0.0
27.766,0.655,-0.63,0.0
24.374,0.581,-0.692,0.0
66.331,1.604,-0.073,2.0
0.0,0.0,0.0,0.0
39.554,0.977,-0.494,0.0
31.526,0.787,-0.577,0.0
26.683,0.673,-0.641,0.0
23.447,0.598,-0.697,0.0
65.105,1.682,-0.158,3.0
0.0,0.0,0.0,0.0
36.201,0.954,-0.501,0.0
30.393,0.808,-0.597,0.0
25.982,0.698,-0.659,0.0
22.586,0.613,-0.702,0.0
57.221,1.571,-0.216,11.0
0.0,0.0,0.0,0.0
35.302,0.987,-0.536,0.0
28.637,0.808,-0.602,1.0
25.104,0.714,-0.671,0.0
22.016,0.632,-0.714,0.0
55.283,1.605,-0.284,0.0
0.0,0.0,0.0,0.0
0.0,0.0,0.0,0.0
28.509,0.849,-0.638,2.0
24.322,0.73,-0.684,0.0
21.452,0.649,-0.726,0.0
48.754,1.491,-0.319,0.0
39.059,1.204,-0.479,0.0
32.3,1.003,-0.581,0.0
26.967,0.844,-0.642,0.0
23.485,0.741,-0.693,0.0
20.668,0.658,-0.729,0.0
45.517,1.462,-0.363,0.0
37.205,1.203,-0.509,0.0
29.766,0.97,-0.578,0.0
26.314,0.864,-0.664,0.0
22.654,0.749,-0.701,0.0
20.049,0.668,-0.736,0.0
45.404,1.526,-0.427,0.0
34.769,1.176,-0.526,0.0
0.0,0.0,0.0,0.0
24.94,0.855,-0.665,0.0
21.964,0.759,-0.712,0.0
19.625,0.682,-0.749,0.0
0.0,0.0,0.0,0.0
0.0,0.0,0.0,0.0
27.858,0.989,-0.622,0.0
24.151,0.863,-0.68,0.0
21.437,0.771,-0.726,0.0
18.874,0.683,-0.748,0.0
38.523,1.405,-0.476,0.0
32.287,1.185,-0.584,0.0
26.959,0.996,-0.642,0.0
23.344,0.867,-0.692,0.0
20.507,0.766,-0.725,0.0
18.452,0.694,-0.759,0.0
36.037,1.364,-0.499,0.0
30.269,1.153,-0.592,0.0
25.959,0.994,-0.657,0.0
22.512,0.867,-0.701,0.0
20.131,0.78,-0.743,0.0
17.992,0.701,-0.767,0.0
0.0,0.0,0.0,0.0
28.958,1.142,-0.611,0.0
0.0,0.0,0.0,0.0
21.615,0.861,-0.706,0.0
19.367,0.776,-0.744,0.0
17.591,0.709,-0.777,0.0
0.0,0.0,0.0,0.0
27.623,1.125,-0.625,0.0
23.755,0.973,-0.674,0.0
21.11,0.869,-0.722,0.0
18.979,0.785,-0.758,0.0
17.123,0.712,-0.783,0.0
30.977,1.296,-0.571,0.0
26.558,1.116,-0.642,0.0
23.027,0.972,-0.689,0.0
20.4,0.866,-0.73,0.0
18.307,0.78,-0.76,0.0
16.714,0.716,-0.79,0.0
0.0,0.0,0.0,0.0
25.644,1.11,-0.661,0.0
22.346,0.971,-0.704,0.0
19.639,0.858,-0.734,0.0
17.938,0.787,-0.773,0.0
16.217,0.715,-0.793,0.0
28.177,1.248,-0.609,0.0
24.649,1.096,-0.674,0.0
21.502,0.961,-0.712,0.0
19.267,0.864,-0.75,0.0
17.361,0.782,-0.776,0.0
15.838,0.717,-0.799,0.0
27.174,1.235,-0.63,0.0
23.505,1.073,-0.68,0.0
20.829,0.955,-0.723,0.0
18.627,0.857,-0.755,0.0
16.924,0.782,-0.784,0.0
15.423,0.716,-0.803,0.0
26.306,1.226,-0.652,0.0
22.767,1.065,-0.696,0.0
20.263,0.952,-0.736,0.0
18.027,0.85,-0.76,0.0
16.499,0.781,-0.791,0.0
15.149,0.72,-0.814,0.0
24.991,1.192,-0.66,0.0
21.891,1.048,-0.705,0.0
19.6,0.942,-0.744,0.0
17.662,0.852,-0.773,0.0
16.025,0.776,-0.794,0.0
14.768,0.718,-0.817,0.0
23.738,1.157,-0.666,0.0
21.277,1.041,-0.72,0.0
19.007,0.933,-0.752,0.0
17.1,0.842,-0.777,0.0
15.729,0.778,-0.805,0.0
14.47,0.718,-0.824,0.0
23.089,1.149,-0.686,0.0
20.464,1.022,-0.726,0.0
18.395,0.922,-0.758,0.0
16.691,0.839,-0.786,0.0
15.307,0.772,-0.809,0.0
14.147,0.716,-0.829,0.0
22.377,1.136,-0.702,0.0
19.829,1.01,-0.736,0.0
17.883,0.914,-0.767,0.0
16.266,0.834,-0.793,0.0
14.973,0.77,-0.816,0.0
13.838,0.714,-0.834,0.0
21.525,1.113,-0.71,0.0
19.297,1.0,-0.748,0.0
17.416,0.906,-0.775,0.0
15.869,0.828,-0.8,0.0
14.524,0.76,-0.816,0.0
13.536,0.71,-0.839,0.0
20.764,1.092,-0.72,0.0
18.692,0.986,-0.756,0.0
16.852,0.892,-0.779,0.0
15.436,0.819,-0.804,0.0
14.257,0.759,-0.825,0.0
13.259,0.708,-0.844,0.0
20.104,1.075,-0.731,0.0
18.079,0.969,-0.761,0.0
16.476,0.886,-0.789,0.0
15.072,0.813,-0.81,0.0
13.806,0.746,-0.822,0.0
12.941,0.701,-0.846,0.0
19.528,1.06,-0.742,0.0
17.661,0.961,-0.773,0.0
16.056,0.876,-0.796,0.0
14.698,0.804,-0.815,0.0
13.71,0.752,-0.839,0.0
12.62,0.694,-0.846,0.0
18.846,1.038,-0.748,0.0
16.979,0.937,-0.772,0.0
15.593,0.863,-0.799,0.0
14.324,0.795,-0.818,0.0
13.398,0.745,-0.843,0.0
12.301,0.686,-0.845,0.0
18.319,1.022,-0.758,0.0
16.754,0.937,-0.79,0.0
15.193,0.852,-0.804,0.0
14.061,0.79,-0.827,0.0
13.095,0.738,-0.846,0.0
12.081,0.682,-0.85,0.0
17.797,1.006,-0.766,0.0
16.227,0.919,-0.792,0.0
14.901,0.846,-0.813,0.0
13.71,0.78,-0.829,0.0
12.707,0.724,-0.842,0.0
11.817,0.675,-0.852,0.0
17.207,0.983,-0.769,0.0
15.841,0.907,-0.8,0.0
14.521,0.833,-0.817,0.0
13.464,0.774,-0.837,0.0
12.327,0.71,-0.838,0.0
11.602,0.67,-0.856,0.0
16.693,0.964,-0.775,0.0
15.326,0.887,-0.8,0.0
14.202,0.824,-0.823,0.0
13.204,0.767,-0.843,0.0
12.204,0.711,-0.85,0.0
11.383,0.664,-0.859,0.0
16.436,0.959,-0.79,0.0
14.961,0.874,-0.806,0.0
13.835,0.81,-0.825,0.0
12.916,0.758,-0.846,0.0
11.903,0.7,-0.849,0.0
11.125,0.655,-0.858,0.0
16.07,0.946,-0.8,0.0
14.595,0.861,-0.811,0.0
13.629,0.805,-0.836,0.0
12.4,0.734,-0.833,0.0
11.701,0.694,-0.854,0.0
10.972,0.652,-0.865,0.0
15.641,0.929,-0.804,0.0
14.313,0.851,-0.819,0.0
13.343,0.795,-0.84,0.0
12.288,0.733,-0.846,0.0
11.518,0.688,-0.86,0.0
10.772,0.645,-0.867,0.0
15.141,0.906,-0.804,0.0
13.974,0.837,-0.823,0.0
13.077,0.785,-0.845,0.0
12.016,0.722,-0.848,0.0
11.224,0.675,-0.857,0.0
10.595,0.639,-0.871,0.0
14.785,0.89,-0.809,0.0
13.755,0.829,-0.833,0.0
12.791,0.772,-0.848,0.0
11.767,0.712,-0.85,0.0
11.078,0.671,-0.864,0.0
10.478,0.636,-0.878,0.0
14.47,0.877,-0.816,0.0
13.468,0.817,-0.837,0.0
12.364,0.751,-0.84,0.0
11.545,0.702,-0.853,0.0
10.854,0.661,-0.865,0.0
10.301,0.628,-0.881,0.0
14.098,0.859,-0.818,0.0
13.174,0.803,-0.841,0.0
12.15,0.742,-0.846,0.0
11.336,0.693,-0.856,0.0
10.662,0.653,-0.867,0.0
10.172,0.623,-0.886,0.0
13.818,0.845,-0.825,0.0
12.905,0.79,-0.845,0.0
11.911,0.73,-0.849,0.0
11.077,0.68,-0.855,0.0
10.523,0.647,-0.873,0.0
10.039,0.618,-0.891,0.0
13.597,0.835,-0.833,0.0
12.57,0.773,-0.843,0.0
11.667,0.718,-0.85,0.0
10.952,0.675,-0.863,0.0
10.38,0.64,-0.878,0.0
9.876,0.61,-0.893,0.0
13.292,0.819,-0.836,0.0
12.279,0.757,-0.844,0.0
11.475,0.708,-0.855,0.0
10.773,0.666,-0.866,0.0
10.231,0.633,-0.882,0.0
9.752,0.604,-0.897,0.0
13.106,0.81,-0.846,0.0
12.044,0.745,-0.847,0.0
11.256,0.696,-0.856,0.0
10.576,0.655,-0.867,0.0
10.123,0.628,-0.889,0.0
9.608,0.596,-0.9,0.0
12.795,0.792,-0.846,0.0
11.784,0.73,-0.847,0.0
11.057,0.685,-0.859,0.0
10.473,0.65,-0.875,0.0
9.959,0.618,-0.89,0.0
9.485,0.589,-0.903,0.0
12.427,0.77,-0.841,0.0
11.592,0.719,-0.851,0.0
10.901,0.676,-0.864,0.0
10.326,0.641,-0.879,0.0
9.839,0.611,-0.895,0.0
9.316,0.579,-0.902,0.0
12.186,0.755,-0.844,0.0
11.355,0.704,-0.852,0.0
10.684,0.663,-0.863,0.0
10.159,0.631,-0.881,0.0
9.689,0.602,-0.897,0.0
9.235,0.574,-0.908,0.0
11.938,0.74,-0.845,0.0
11.169,0.693,-0.855,0.0
10.569,0.656,-0.87,0.0
10.031,0.623,-0.885,0.0
9.581,0.595,-0.901,0.0
9.11,0.566,-0.91,0.0
11.706,0.725,-0.846,0.0
11.0,0.682,-0.859,0.0
10.435,0.647,-0.875,0.0
9.917,0.615,-0.89,0.0
9.424,0.585,-0.901,0.0
9.023,0.56,-0.915,0.0
11.538,0.714,-0.852,0.0
10.848,0.671,-0.864,0.0
10.25,0.634,-0.875,0.0
9.825,0.608,-0.897,0.0
9.383,0.581,-0.911,0.0
8.917,0.552,-0.918,0.0
11.322,0.699,-0.852,0.0
10.683,0.659,-0.866,0.0
10.149,0.627,-0.882,0.0
9.645,0.596,-0.895,0.0
9.17,0.567,-0.904,0.0
8.801,0.544,-0.919,0.0
11.148,0.686,-0.856,0.0
10.546,0.649,-0.87,0.0
10.008,0.616,-0.884,0.0
9.564,0.589,-0.901,0.0
9.063,0.558,-0.907,0.0
8.682,0.535,-0.919,0.0
10.964,0.673,-0.857,0.0
10.405,0.638,-0.874,0.0
9.927,0.609,-0.891,0.0
0.0,0.0,0.0,0.0
8.997,0.552,-0.913,0.0
8.546,0.525,-0.917,0.0
10.828,0.662,-0.862,0.0
10.291,0.629,-0.879,0.0
9.799,0.599,-0.893,0.0
0.0,0.0,0.0,0.0
8.917,0.545,-0.917,0.0
8.46,0.517,-0.92,0.0
10.718,0.652,-0.868,0.0
10.137,0.616,-0.88,0.0
9.669,0.588,-0.895,0.0
0.0,0.0,0.0,0.0
8.829,0.537,-0.921,0.0
8.429,0.512,-0.928,0.0
10.551,0.638,-0.869,0.0
10.032,0.607,-0.884,0.0
9.54,0.577,-0.896,0.0
9.066,0.548,-0.905,0.0
8.645,0.523,-0.913,0.0
8.236,0.498,-0.918,0.0
10.409,0.626,-0.871,0.0
9.955,0.599,-0.891,0.0
9.487,0.57,-0.904,0.0
9.026,0.542,-0.913,0.0
8.622,0.518,-0.922,0.0
8.198,0.492,-0.925,0.0
10.293,0.615,-0.875,0.0
9.863,0.589,-0.895,0.0
9.317,0.556,-0.9,0.0
8.891,0.531,-0.911,0.0
8.499,0.507,-0.92,0.0
8.143,0.486,-0.929,0.0
10.163,0.603,-0.877,0.0
9.721,0.577,-0.895,0.0
9.25,0.548,-0.905,0.0
8.826,0.523,-0.916,0.0
8.453,0.501,-0.926,0.0
8.077,0.478,-0.932,0.0
10.096,0.594,-0.884,0.0
9.633,0.567,-0.899,0.0
9.123,0.536,-0.904,0.0
8.752,0.514,-0.919,0.0
8.329,0.489,-0.923,0.0
8.036,0.472,-0.937,0.0
9.984,0.583,-0.886,0.0
9.462,0.552,-0.895,0.0
9.039,0.527,-0.907,0.0
0.0,0.0,0.0,0.0
8.262,0.481,-0.926,0.0
7.904,0.46,-0.932,0.0
9.876,0.571,-0.889,0.0
9.437,0.545,-0.904,0.0
8.969,0.518,-0.911,0.0
0.0,0.0,0.0,0.0
8.212,0.474,-0.93,0.0
7.872,0.454,-0.937,0.0
9.828,0.563,-0.896,0.0
9.307,0.533,-0.902,0.0
8.881,0.508,-0.912,0.0
0.0,0.0,0.0,0.0
8.159,0.466,-0.933,0.0
7.784,0.444,-0.936,0.0
9.729,0.552,-0.898,0.0
9.238,0.523,-0.906,0.0
8.816,0.499,-0.915,0.0
0.0,0.0,0.0,0.0
8.087,0.457,-0.934,0.0
7.689,0.434,-0.933,0.0
9.573,0.537,-0.894,0.0
9.155,0.513,-0.908,0.0
8.7,0.487,-0.913,0.0
0.0,0.0,0.0,0.0
7.979,0.445,-0.93,0.0
7.659,0.427,-0.938,0.0
9.497,0.526,-0.897,0.0
9.09,0.503,-0.911,0.0
8.7,0.481,-0.922,0.0
0.0,0.0,0.0,0.0
7.902,0.436,-0.93,0.0
7.605,0.419,-0.939,0.0
9.382,0.513,-0.896,0.0
9.022,0.493,-0.913,0.0
8.565,0.467,-0.916,0.0
0.0,0.0,0.0,0.0
7.895,0.43,-0.937,0.0
7.559,0.411,-0.941,0.0
9.303,0.502,-0.897,0.0
8.928,0.481,-0.913,0.0
8.471,0.456,-0.915,0.0
8.191,0.44,-0.933,0.0
7.804,0.419,-0.934,0.0
7.497,0.402,-0.941,0.0
9.252,0.493,-0.902,0.0
8.838,0.47,-0.912,0.0
8.457,0.449,-0.922,0.0
0.0,0.0,0.0,0.0
7.758,0.411,-0.936,0.0
7.49,0.396,-0.947,0.0
9.214,0.484,-0.907,0.0
8.782,0.46,-0.915,0.0
8.365,0.438,-0.919,0.0
7.999,0.418,-0.926,0.0
7.735,0.403,-0.94,0.0
7.421,0.386,-0.945,0.0
9.131,0.472,-0.907,0.0
8.672,0.447,-0.911,0.0
8.358,0.43,-0.926,0.0
7.923,0.407,-0.924,0.0
7.668,0.393,-0.939,0.0
7.377,0.378,-0.946,0.0
9.049,0.46,-0.906,0.0
8.647,0.439,-0.916,0.0
8.269,0.419,-0.923,0.0
0.0,0.0,0.0,0.0
7.626,0.385,-0.94,0.0
0.0,0.0,0.0,0.0
9.016,0.451,-0.91,0.0
8.66,0.432,-0.924,0.0
8.247,0.411,-0.927,0.0
0.0,0.0,0.0,0.0
7.579,0.376,-0.94,0.0
7.256,0.359,-0.942,0.0
8.92,0.438,-0.907,0.0
8.518,0.417,-0.915,0.0
8.159,0.399,-0.924,0.0
0.0,0.0,0.0,0.0
7.534,0.367,-0.941,0.0
0.0,0.0,0.0,0.0
8.88,0.428,-0.91,0.0
8.485,0.408,-0.918,0.0
8.173,0.392,-0.931,0.0
7.765,0.372,-0.93,0.0
7.483,0.357,-0.94,0.0
0.0,0.0,0.0,0.0
8.792,0.416,-0.907,0.0
8.463,0.399,-0.922,0.0
8.088,0.381,-0.927,0.0
7.77,0.365,-0.936,0.0
7.465,0.35,-0.942,0.0
0.0,0.0,0.0,0.0
8.791,0.407,-0.913,0.0
8.401,0.388,-0.92,0.0
8.032,0.37,-0.926,0.0
7.706,0.354,-0.933,0.0
0.0,0.0,0.0,0.0
0.0,0.0,0.0,0.0
8.757,0.397,-0.915,0.0
8.353,0.378,-0.92,0.0
7.998,0.361,-0.927,0.0
7.673,0.345,-0.934,0.0
0.0,0.0,0.0,0.0
0.0,0.0,0.0,0.0
8.676,0.385,-0.911,0.0
8.327,0.368,-0.922,0.0
7.995,0.353,-0.931,0.0
7.665,0.337,-0.937,0.0
0.0,0.0,0.0,0.0
7.059,0.309,-0.944,0.0
8.635,0.375,-0.911,0.0
8.321,0.36,-0.926,0.0
7.95,0.343,-0.93,0.0
7.621,0.327,-0.936,0.0
7.342,0.315,-0.944,0.0
7.028,0.3,-0.944,0.0
8.637,0.366,-0.916,0.0
8.292,0.35,-0.927,0.0
7.894,0.332,-0.927,0.0
7.611,0.319,-0.938,0.0
7.33,0.306,-0.946,0.0
7.043,0.294,-0.949,0.0
8.593,0.355,-0.915,0.0
8.252,0.34,-0.926,0.0
7.857,0.322,-0.926,0.0
7.596,0.311,-0.94,0.0
7.327,0.298,-0.948,0.0
6.97,0.283,-0.942,0.0
8.595,0.346,-0.919,0.0
8.212,0.329,-0.924,0.0
7.89,0.315,-0.933,0.0
7.549,0.3,-0.937,0.0
7.247,0.287,-0.941,0.0
7.045,0.278,-0.955,0.0
8.567,0.336,-0.919,0.0
8.186,0.319,-0.925,0.0
7.853,0.305,-0.932,0.0
7.517,0.291,-0.935,0.0
0.0,0.0,0.0,0.0
6.965,0.268,-0.947,0.0
8.515,0.324,-0.916,0.0
8.21,0.311,-0.93,0.0
7.824,0.295,-0.93,0.0
7.476,0.281,-0.933,0.0
0.0,0.0,0.0,0.0
0.0,0.0,0.0,0.0
8.531,0.315,-0.92,0.0
8.196,0.302,-0.93,0.0
7.834,0.287,-0.934,0.0
7.487,0.273,-0.936,0.0
0.0,0.0,0.0,0.0
0.0,0.0,0.0,0.0
8.489,0.304,-0.917,0.0
8.187,0.292,-0.931,0.0
7.82,0.278,-0.934,0.0
0.0,0.0,0.0,0.0
0.0,0.0,0.0,0.0
0.0,0.0,0.0,0.0
8.501,0.295,-0.92,0.0
8.193,0.283,-0.933,0.0
7.812,0.269,-0.934,0.0
7.558,0.259,-0.947,0.0
0.0,0.0,0.0,0.0
0.0,0.0,0.0,0.0
8.451,0.284,-0.916,0.0
8.15,0.272,-0.929,0.0
7.817,0.26,-0.936,0.0
0.0,0.0,0.0,0.0
0.0,0.0,0.0,0.0
0.0,0.0,0.0,0.0
8.48,0.275,-0.92,0.0
8.127,0.262,-0.927,0.0
7.834,0.252,-0.938,0.0
0.0,0.0,0.0,0.0
0.0,0.0,0.0,0.0
0.0,0.0,0.0,0.0
8.457,0.265,-0.918,0.0
8.135,0.253,-0.929,0.0
7.827,0.242,-0.938,0.0
0.0,0.0,0.0,0.0
0.0,0.0,0.0,0.0
0.0,0.0,0.0,0.0
8.459,0.255,-0.918,0.0
8.141,0.244,-0.929,0.0
7.787,0.232,-0.933,0.0
0.0,0.0,0.0,0.0
0.0,0.0,0.0,0.0
6.949,0.203,-0.951,0.0
8.462,0.245,-0.918,0.0
8.131,0.234,-0.928,0.0
7.788,0.223,-0.932,0.0
7.501,0.213,-0.941,0.0
0.0,0.0,0.0,0.0
6.952,0.195,-0.951,0.0
8.467,0.235,-0.918,0.0
8.148,0.225,-0.929,0.0
7.776,0.213,-0.93,0.0
7.487,0.204,-0.938,0.0
0.0,0.0,0.0,0.0
6.947,0.187,-0.949,0.0
8.522,0.227,-0.922,0.0
8.145,0.215,-0.927,0.0
7.818,0.205,-0.934,0.0
7.493,0.195,-0.938,0.0
7.269,0.188,-0.951,0.0
0.0,0.0,0.0,0.0
8.497,0.216,-0.918,0.0
0.0,0.0,0.0,0.0
7.849,0.197,-0.936,0.0
0.0,0.0,0.0,0.0
7.218,0.178,-0.943,0.0
6.95,0.17,-0.947,0.0
8.517,0.207,-0.918,0.0
8.203,0.198,-0.93,0.0
7.93,0.19,-0.944,0.0
0.0,0.0,0.0,0.0
7.26,0.171,-0.946,0.0
6.999,0.163,-0.952,0.0
8.548,0.197,-0.919,0.0
8.209,0.188,-0.929,0.0
7.857,0.178,-0.933,0.0
0.0,0.0,0.0,0.0
7.232,0.161,-0.94,0.0
7.007,0.155,-0.951,0.0
8.568,0.188,-0.919,0.0
8.205,0.178,-0.925,0.0
7.874,0.17,-0.932,0.0
0.0,0.0,0.0,0.0
0.0,0.0,0.0,0.0
7.016,0.147,-0.949,0.0
8.58,0.178,-0.917,0.0
8.243,0.169,-0.927,0.0
7.87,0.16,-0.928,0.0
0.0,0.0,0.0,0.0
7.37,0.147,-0.953,0.0
7.053,0.139,-0.951,0.0
8.686,0.17,-0.924,0.0
8.241,0.16,-0.923,0.0
7.923,0.152,-0.931,0.0
0.0,0.0,0.0,0.0
7.334,0.138,-0.945,0.0
7.089,0.132,-0.953,0.0
8.637,0.159,-0.915,0.0
8.368,0.152,-0.933,0.0
7.909,0.142,-0.926,0.0
0.0,0.0,0.0,0.0
0.0,0.0,0.0,0.0
0.0,0.0,0.0,0.0
8.716,0.15,-0.919,0.0
8.337,0.142,-0.925,0.0
7.975,0.134,-0.929,0.0
0.0,0.0,0.0,0.0
7.352,0.121,-0.939,0.0
7.065,0.115,-0.942,0.0
8.667,0.139,-0.909,0.0
8.36,0.133,-0.923,0.0
8.022,0.126,-0.93,0.0
7.697,0.119,-0.936,0.0
7.356,0.113,-0.936,0.0
7.117,0.107,-0.945,0.0
8.8,0.132,-0.918,0.0
8.427,0.124,-0.926,0.0
8.096,0.118,-0.934,0.0
0.0,0.0,0.0,0.0
7.456,0.105,-0.944,0.0
7.176,0.1,-0.948,0.0
8.812,0.122,-0.914,0.0
8.475,0.115,-0.925,0.0
0.0,0.0,0.0,0.0
7.771,0.103,-0.935,0.0
7.444,0.097,-0.937,0.0
0.0,0.0,0.0,0.0
8.882,0.113,-0.915,0.0
8.471,0.106,-0.919,0.0
0.0,0.0,0.0,0.0
7.773,0.094,-0.93,0.0
7.527,0.089,-0.942,0.0
7.222,0.084,-0.944,0.0
8.921,0.103,-0.912,0.0
8.583,0.097,-0.925,0.0
8.207,0.091,-0.929,0.0
7.827,0.086,-0.93,0.0
7.568,0.081,-0.941,0.0
7.27,0.077,-0.944,0.0
8.958,0.093,-0.909,0.0
8.612,0.088,-0.921,0.0
8.256,0.083,-0.928,0.0
7.919,0.078,-0.935,0.0
7.596,0.073,-0.939,0.0
7.308,0.069,-0.943,0.0
9.062,0.085,-0.912,0.0
0.0,0.0,0.0,0.0
8.337,0.074,-0.931,0.0
0.0,0.0,0.0,0.0
7.639,0.065,-0.937,0.0
7.43,0.062,-0.953,0.0
9.167,0.076,-0.915,0.0
8.784,0.071,-0.925,0.0
8.307,0.065,-0.92,0.0
0.0,0.0,0.0,0.0
0.0,0.0,0.0,0.0
7.405,0.054,-0.943,0.0
9.187,0.066,-0.909,0.0
8.76,0.061,-0.914,0.0
8.403,0.057,-0.923,0.0
8.026,0.053,-0.926,0.0
7.799,0.05,-0.943,0.0
7.452,0.046,-0.942,0.0
9.229,0.057,-0.904,0.0
8.865,0.053,-0.917,0.0
8.49,0.049,-0.924,0.0
0.0,0.0,0.0,0.0
7.819,0.042,-0.938,0.0
7.51,0.039,-0.942,0.0
9.336,0.048,-0.905,0.0
8.913,0.044,-0.913,0.0
8.524,0.04,-0.919,0.0
0.0,0.0,0.0,0.0
7.839,0.034,-0.932,0.0
7.574,0.031,-0.942,0.0
9.399,0.038,-0.902,0.0
9.028,0.035,-0.915,0.0
0.0,0.0,0.0,0.0
0.0,0.0,0.0,0.0
7.935,0.026,-0.935,0.0
7.634,0.024,-0.941,0.0
9.499,0.029,-0.901,0.0
9.1,0.026,-0.913,0.0
8.689,0.023,-0.919,0.0
8.374,0.021,-0.932,0.0
7.969,0.018,-0.93,0.0
7.694,0.016,-0.94,0.0
9.61,0.02,-0.901,0.0
9.177,0.017,-0.91,0.0
8.806,0.015,-0.921,0.0
8.334,0.013,-0.918,0.0
8.07,0.011,-0.932,0.0
7.744,0.009,-0.937,0.0
9.685,0.011,-0.897,0.0
9.224,0.009,-0.904,0.0
8.853,0.007,-0.916,0.0
8.482,0.005,-0.924,0.0
8.113,0.003,-0.928,0.0
7.82,0.002,-0.937,0.0
9.801,0.002,-0.896,0.0
9.388,0.0,-0.909,0.0
8.973,-0.001,-0.917,0.0
8.512,-0.002,-0.917,0.0
8.268,-0.004,-0.936,0.0
7.885,-0.005,-0.935,0.0
9.932,-0.006,-0.896,0.0
9.469,-0.008,-0.905,0.0
9.083,-0.009,-0.917,0.0
0.0,0.0,0.0,0.0
8.297,-0.011,-0.928,0.0
7.951,-0.012,-0.933,0.0
10.029,-0.015,-0.892,0.0
9.55,-0.016,-0.901,0.0
9.127,-0.017,-0.91,0.0
8.846,-0.018,-0.931,0.0
8.409,-0.019,-0.93,0.0
8.071,-0.019,-0.936,0.0
10.111,-0.024,-0.887,0.0
9.682,-0.025,-0.901,0.0
9.232,-0.025,-0.908,0.0
8.813,-0.026,-0.916,0.0
8.497,-0.026,-0.928,0.0
8.146,-0.027,-0.934,0.0
10.239,-0.033,-0.884,0.0
9.787,-0.034,-0.898,0.0
9.333,-0.033,-0.906,0.0
0.0,0.0,0.0,0.0
8.566,-0.034,-0.924,0.0
8.196,-0.034,-0.929,0.0
10.354,-0.042,-0.88,0.0
9.92,-0.042,-0.896,0.0
9.436,-0.042,-0.903,0.0
9.063,-0.042,-0.917,0.0
8.657,-0.041,-0.922,0.0
8.273,-0.041,-0.925,0.0
10.455,-0.051,-0.874,0.0
10.063,-0.051,-0.895,0.0
9.578,-0.05,-0.903,0.0
9.15,-0.049,-0.912,0.0
8.756,-0.048,-0.92,0.0
8.427,-0.048,-0.931,0.0
10.613,-0.06,-0.872,0.0
10.153,-0.059,-0.888,0.0
9.702,-0.058,-0.9,0.0
9.292,-0.057,-0.913,0.0
8.895,-0.056,-0.921,0.0
8.472,-0.055,-0.923,0.0
10.806,-0.069,-0.872,0.0
10.277,-0.067,-0.884,0.0
9.828,-0.066,-0.897,0.0
9.364,-0.064,-0.906,0.0
8.98,-0.063,-0.917,0.0
8.6,-0.062,-0.924,0.0
10.963,-0.078,-0.868,0.0
10.382,-0.076,-0.877,0.0
9.964,-0.074,-0.895,0.0
9.522,-0.072,-0.907,0.0
9.119,-0.07,-0.917,0.0
8.695,-0.068,-0.921,0.0
11.117,-0.087,-0.863,0.0
10.565,-0.084,-0.876,0.0
10.107,-0.082,-0.892,0.0
9.646,-0.08,-0.903,0.0
9.185,-0.077,-0.909,0.0
8.84,-0.076,-0.922,0.0
11.319,-0.096,-0.861,0.0
10.746,-0.093,-0.875,0.0
10.243,-0.09,-0.888,0.0
9.784,-0.087,-0.901,0.0
9.366,-0.085,-0.912,0.0
8.968,-0.082,-0.921,0.0
11.495,-0.105,-0.856,0.0
10.915,-0.101,-0.871,0.0
10.371,-0.097,-0.882,0.0
9.934,-0.095,-0.899,0.0
9.502,-0.092,-0.91,0.0
9.07,-0.089,-0.917,0.0
11.701,-0.114,-0.852,0.0
11.067,-0.109,-0.865,0.0
10.534,-0.105,-0.879,0.0
10.092,-0.102,-0.896,0.0
9.634,-0.099,-0.907,0.0
9.197,-0.095,-0.914,0.0
11.943,-0.123,-0.85,0.0
11.272,-0.117,-0.862,0.0
10.674,-0.113,-0.873,0.0
10.235,-0.109,-0.892,0.0
9.763,-0.105,-0.902,0.0
9.319,-0.102,-0.911,0.0
12.263,-0.133,-0.853,0.0
11.487,-0.126,-0.859,0.0
10.918,-0.121,-0.874,0.0
10.354,-0.116,-0.885,0.0
9.924,-0.112,-0.9,0.0
9.442,-0.108,-0.906,0.0
12.573,-0.143,-0.853,0.0
11.666,-0.134,-0.853,0.0
11.101,-0.128,-0.87,0.0
10.532,-0.123,-0.882,0.0
10.082,-0.119,-0.897,0.0
9.636,-0.115,-0.908,0.0
12.917,-0.153,-0.854,0.0
11.961,-0.143,-0.853,0.0
11.264,-0.136,-0.863,0.0
10.71,-0.13,-0.878,0.0
10.229,-0.125,-0.892,0.0
9.775,-0.121,-0.904,0.0
13.174,-0.162,-0.848,0.0
12.301,-0.152,-0.856,0.0
11.487,-0.143,-0.859,0.0
10.916,-0.137,-0.875,0.0
10.381,-0.132,-0.887,0.0
9.902,-0.126,-0.898,0.0
13.517,-0.171,-0.845,0.0
12.535,-0.16,-0.849,0.0
11.693,-0.151,-0.854,0.0
11.082,-0.144,-0.868,0.0
10.558,-0.138,-0.883,0.0
10.081,-0.133,-0.896,0.0
13.779,-0.18,-0.837,0.0
13.006,-0.171,-0.858,0.0
12.0,-0.159,-0.854,0.0
11.31,-0.151,-0.865,0.0
10.764,-0.144,-0.88,0.0
10.282,-0.139,-0.894,0.0
14.111,-0.189,-0.831,0.0
13.238,-0.178,-0.849,0.0
12.343,-0.167,-0.856,0.0
11.521,-0.157,-0.86,0.0
10.958,-0.15,-0.876,0.0
10.412,-0.144,-0.887,0.0
14.551,-0.199,-0.83,0.0
13.542,-0.187,-0.843,0.0
12.582,-0.174,-0.849,0.0
11.746,-0.164,-0.855,0.0
11.137,-0.156,-0.869,0.0
10.607,-0.149,-0.883,0.0
14.851,-0.207,-0.82,0.0
13.903,-0.195,-0.84,0.0
13.023,-0.184,-0.854,0.0
12.052,-0.171,-0.855,0.0
11.357,-0.162,-0.865,0.0
10.814,-0.155,-0.88,0.0
15.288,-0.217,-0.815,0.0
14.206,-0.203,-0.831,0.0
13.301,-0.191,-0.848,0.0
12.405,-0.178,-0.856,0.0
11.591,-0.167,-0.861,0.0
11.005,-0.16,-0.875,0.0
15.779,-0.227,-0.811,0.0
14.575,-0.211,-0.825,0.0
13.637,-0.198,-0.843,0.0
12.815,-0.187,-0.86,0.0
11.859,-0.173,-0.858,0.0
11.21,-0.164,-0.869,0.0
16.233,-0.236,-0.803,0.0
15.052,-0.22,-0.823,0.0
13.975,-0.205,-0.837,0.0
13.101,-0.193,-0.854,0.0
12.211,-0.18,-0.859,0.0
11.451,-0.169,-0.865,0.0
16.692,-0.245,-0.793,0.0
15.446,-0.227,-0.814,0.0
14.367,-0.212,-0.832,0.0
13.446,-0.199,-0.85,0.0
12.473,-0.185,-0.853,0.0
11.679,-0.174,-0.86,0.0
17.089,-0.252,-0.779,0.0
15.893,-0.235,-0.807,0.0
14.635,-0.217,-0.819,0.0
13.772,-0.205,-0.844,0.0
12.92,-0.193,-0.858,0.0
11.986,-0.179,-0.859,0.0
17.769,-0.263,-0.775,0.0
16.449,-0.244,-0.803,0.0
15.204,-0.226,-0.821,0.0
14.095,-0.21,-0.835,0.0
13.238,-0.198,-0.853,0.0
12.324,-0.184,-0.858,0.0
18.397,-0.273,-0.766,0.0
16.814,-0.25,-0.787,0.0
15.69,-0.233,-0.816,0.0
14.456,-0.215,-0.828,0.0
13.553,-0.202,-0.847,0.0
12.588,-0.188,-0.852,0.0
19.084,-0.282,-0.757,0.0
17.409,-0.258,-0.781,0.0
16.118,-0.239,-0.806,0.0
14.884,-0.221,-0.823,0.0
13.953,-0.207,-0.844,0.0
13.105,-0.195,-0.86,0.0
19.926,-0.293,-0.75,0.0
18.004,-0.265,-0.771,0.0
16.632,-0.245,-0.798,0.0
15.328,-0.226,-0.816,0.0
14.274,-0.211,-0.834,0.0
13.366,-0.197,-0.851,0.0
20.368,-0.298,-0.726,0.0
18.657,-0.273,-0.761,0.0
17.105,-0.25,-0.787,0.0
15.804,-0.231,-0.81,0.0
14.677,-0.215,-0.828,0.0
13.709,-0.2,-0.845,0.0
21.501,-0.311,-0.723,0.0
19.474,-0.282,-0.756,0.0
17.722,-0.256,-0.779,0.0
16.327,-0.236,-0.804,0.0
15.105,-0.218,-0.822,0.0
14.074,-0.203,-0.838,0.0
22.336,-0.32,-0.706,0.0
20.044,-0.286,-0.737,0.0
18.37,-0.262,-0.77,0.0
16.915,-0.241,-0.798,0.0
15.599,-0.222,-0.817,0.0
14.46,-0.205,-0.832,0.0
23.457,-0.33,-0.694,0.0
21.099,-0.296,-0.733,0.0
19.003,-0.267,-0.758,0.0
17.319,-0.242,-0.782,0.0
16.009,-0.224,-0.805,0.0
14.942,-0.208,-0.829,0.0
24.651,-0.341,-0.679,0.0
21.737,-0.3,-0.711,0.0
20.013,-0.275,-0.758,0.0
18.02,-0.247,-0.777,0.0
16.626,-0.228,-0.803,0.0
15.33,-0.209,-0.82,0.0
25.99,-0.352,-0.663,0.0
22.91,-0.309,-0.702,0.0
20.49,-0.275,-0.734,0.0
18.612,-0.249,-0.765,0.0
17.102,-0.228,-0.791,0.0
15.787,-0.21,-0.812,0.0
27.519,-0.363,-0.646,0.0
24.188,-0.318,-0.692,0.0
21.469,-0.281,-0.725,0.0
19.394,-0.253,-0.757,0.0
17.704,-0.23,-0.782,0.0
16.389,-0.212,-0.809,0.0
29.003,-0.372,-0.621,0.0
25.735,-0.328,-0.683,0.0
22.661,-0.288,-0.718,0.0
20.224,-0.256,-0.748,0.0
18.328,-0.231,-0.772,0.0
16.862,-0.211,-0.797,0.0
30.654,-0.38,-0.593,0.0
26.626,-0.328,-0.652,0.0
23.463,-0.288,-0.696,0.0
20.915,-0.255,-0.73,0.0
19.033,-0.231,-0.762,0.0
17.398,-0.21,-0.787,0.0
0.0,0.0,0.0,0.0
28.836,-0.342,-0.647,0.0
24.76,-0.292,-0.683,0.0
21.897,-0.257,-0.719,0.0
19.787,-0.231,-0.752,0.0
18.022,-0.209,-0.778,0.0
34.881,-0.399,-0.532,0.0
30.28,-0.344,-0.618,0.0
26.209,-0.296,-0.67,0.0
23.137,-0.259,-0.713,0.0
20.723,-0.231,-0.745,0.0
18.628,-0.206,-0.766,0.0
37.338,-0.408,-0.493,0.0
32.684,-0.354,-0.6,0.0
27.654,-0.297,-0.65,0.0
23.956,-0.255,-0.689,0.0
21.565,-0.228,-0.731,0.0
19.429,-0.204,-0.759,0.0
0.0,0.0,0.0,0.0
0.0,0.0,0.0,0.0
29.296,-0.298,-0.629,0.0
25.326,-0.255,-0.677,0.0
22.47,-0.224,-0.716,0.0
20.221,-0.2,-0.749,0.0
0.0,0.0,0.0,0.0
37.093,-0.357,-0.529,0.0
0.0,0.0,0.0,0.0
0.0,0.0,0.0,0.0
23.495,-0.219,-0.701,0.0
21.063,-0.194,-0.737,0.0
50.899,-0.463,-0.361,0.0
0.0,0.0,0.0,0.0
33.539,-0.298,-0.584,0.0
0.0,0.0,0.0,0.0
24.659,-0.214,-0.686,0.0
22.14,-0.189,-0.73,0.0
55.3,-0.466,-0.282,0.0
44.149,-0.367,-0.452,0.0
0.0,0.0,0.0,0.0
0.0,0.0,0.0,0.0
0.0,0.0,0.0,0.0
22.838,-0.179,-0.708,0.0
0.0,0.0,0.0,0.0
46.98,-0.356,-0.388,0.0
38.015,-0.284,-0.51,0.0
31.952,-0.234,-0.596,0.0
27.451,-0.198,-0.654,0.0
24.362,-0.173,-0.707,0.0
0.0,0.0,0.0,0.0
51.249,-0.35,-0.321,0.0
0.0,0.0,0.0,0.0
0.0,0.0,0.0,0.0
0.0,0.0,0.0,0.0
25.299,-0.159,-0.683,0.0
0.0,0.0,0.0,0.0
0.0,0.0,0.0,0.0
45.588,-0.269,-0.431,0.0
36.208,-0.209,-0.533,0.0
30.993,-0.174,-0.616,0.0
26.456,-0.145,-0.663,0.0
0.0,0.0,0.0,0.0
53.512,-0.279,-0.125,0.0
0.0,0.0,0.0,0.0
39.898,-0.196,-0.51,0.0
31.787,-0.152,-0.57,0.0
27.746,-0.129,-0.641,0.0
110.989,-0.498,0.531,2.0
0.0,0.0,0.0,0.0
51.534,-0.216,-0.285,0.0
44.924,-0.181,-0.485,0.0
35.446,-0.138,-0.566,0.0
29.708,-0.111,-0.628,0.0
111.273,-0.399,0.751,6.0
0.0,0.0,0.0,0.0
0.0,0.0,0.0,0.0
45.08,-0.141,-0.399,0.0
38.427,-0.114,-0.539,0.0
31.077,-0.087,-0.597,0.0
114.487,-0.304,0.993,150.0
101.819,-0.254,0.357,1.0
0.0,0.0,0.0,0.0
51.458,-0.112,-0.357,0.0
0.0,0.0,0.0,0.0
0.0,0.0,0.0,0.0
119.751,-0.203,1.269,16.0
110.549,-0.168,0.599,9.0
0.0,0.0,0.0,0.0
0.0,0.0,0.0,0.0
45.138,-0.046,-0.461,1.0
35.453,-0.03,-0.546,0.0
117.343,-0.08,1.468,14.0
111.116,-0.057,0.814,9.0
95.472,-0.033,0.204,1.0
0.0,0.0,0.0,0.0
45.747,0.0,-0.38,0.0
38.141,0.006,-0.515,0.0
117.28,0.04,1.688,11.0
111.115,0.057,1.024,8.0
95.662,0.067,0.386,4.0
0.0,0.0,0.0,0.0
51.886,0.054,-0.334,0.0
42.802,0.053,-0.497,1.0
117.457,0.166,1.912,13.0
111.109,0.178,1.232,22.0
0.0,0.0,0.0,0.0
93.074,0.183,0.057,1.0
52.203,0.112,-0.239,0.0
42.862,0.1,-0.419,0.0
119.878,0.302,2.175,21.0
111.19,0.301,1.44,12.0
110.975,0.322,0.861,15.0
91.782,0.283,0.225,1.0
0.0,0.0,0.0,0.0
49.881,0.173,-0.395,0.0
119.848,0.438,2.394,27.0
119.875,0.461,1.771,52.0
111.083,0.448,1.063,18.0
94.822,0.401,0.404,1.0
0.0,0.0,0.0,0.0
52.123,0.241,-0.319,0.0
111.17,0.535,2.421,19.0
111.079,0.556,1.841,25.0
111.065,0.579,1.263,29.0
104.725,0.567,0.635,8.0
87.437,0.49,0.074,2.0
51.903,0.301,-0.225,0.0
111.075,0.668,2.619,31.0
111.064,0.691,2.041,31.0
111.053,0.713,1.46,26.0
104.925,0.695,0.823,26.0
85.765,0.586,0.226,5.0
0.0,0.0,0.0,0.0
104.792,0.759,2.657,24.0
104.791,0.78,2.109,27.0
0.0,0.0,0.0,0.0
104.803,0.826,1.007,8.0
97.709,0.79,0.428,3.0
0.0,0.0,0.0,0.0
104.708,0.89,2.838,35.0
101.938,0.887,2.229,1.0
100.09,0.893,1.666,4.0
99.017,0.904,1.121,13.0
98.232,0.919,0.6,16.0
0.0,0.0,0.0,0.0
98.791,0.966,2.846,17.0
98.855,0.988,2.332,13.0
98.714,1.009,1.812,26.0
98.615,1.029,1.284,27.0
98.475,1.048,0.767,15.0
85.409,0.929,0.219,5.0
98.714,1.094,3.01,22.0
98.589,1.114,2.49,24.0
98.57,1.136,1.974,31.0
98.519,1.157,1.446,34.0
98.513,1.179,0.93,25.0
85.267,1.039,0.358,12.0
98.43,1.221,3.164,25.0
98.529,1.244,2.65,33.0
98.542,1.267,2.134,29.0
98.556,1.29,1.608,32.0
98.547,1.312,1.092,34.0
98.305,1.331,0.573,8.0
98.392,1.356,3.325,20.0
98.503,1.38,2.811,26.0
98.617,1.404,2.297,28.0
98.707,1.428,1.771,24.0
98.856,1.453,1.254,17.0
92.067,1.374,0.685,20.0
120.339,1.826,4.261,11.0
98.614,1.518,2.972,8.0
119.834,1.873,2.982,13.0
91.978,1.459,1.796,20.0
91.91,1.48,1.312,37.0
91.881,1.501,0.828,33.0
190.796,3.163,7.056,11.0
92.029,1.547,2.919,5.0
91.855,1.566,2.429,29.0
91.865,1.588,1.937,42.0
91.844,1.61,1.454,38.0
91.881,1.633,0.971,30.0
70.286,1.266,2.708,5.0
91.845,1.677,3.055,34.0
91.79,1.698,2.569,30.0
91.708,1.718,2.073,6.0
87.715,1.665,1.521,7.0
87.472,1.682,1.057,32.0
78.769,1.534,3.155,12.0
91.704,1.809,3.19,26.0
91.853,1.833,2.709,30.0
86.987,1.758,2.098,42.0
85.39,1.747,1.609,22.0
85.362,1.768,1.158,31.0
85.288,1.788,3.544,14.0
85.314,1.809,3.093,29.0
85.296,1.829,2.641,33.0
85.286,1.85,2.181,37.0
85.272,1.871,1.731,41.0
85.243,1.892,1.28,34.0
85.286,1.915,3.667,31.0
78.895,1.792,2.975,24.0
85.241,1.957,2.763,33.0
85.223,1.978,2.302,36.0
85.251,2.0,1.852,35.0
85.257,2.022,1.402,33.0
85.404,2.05,3.795,11.0
85.37,2.07,3.34,21.0
78.903,1.934,2.669,21.0
85.326,2.112,2.426,25.0
85.333,2.134,1.974,8.0
119.991,3.032,2.14,12.0
78.844,2.015,3.614,27.0
78.83,2.034,3.195,30.0
78.812,2.053,2.774,29.0
78.898,2.075,2.351,31.0
78.876,2.095,1.932,32.0
78.891,2.115,1.513,34.0
78.797,2.136,3.718,30.0
78.812,2.157,3.3,32.0
78.796,2.176,2.88,28.0
78.81,2.198,2.454,33.0
78.121,2.198,2.017,7.0
76.591,2.175,1.571,4.0
65.493,1.879,3.177,19.0
115.83,3.353,5.002,16.0
78.809,2.301,2.983,10.0
78.889,2.324,2.558,31.0
78.868,2.344,2.138,11.0
74.745,2.242,1.629,4.0
82.438,2.498,4.106,13.0
117.355,3.586,5.219,12.0
78.787,2.428,3.083,21.0
190.728,5.927,6.428,12.0
74.342,2.329,2.109,3.0
119.929,3.79,2.764,6.0
65.486,2.09,3.343,9.0
72.453,2.331,3.312,30.0
72.474,2.351,2.926,29.0
72.463,2.369,2.53,34.0
72.433,2.386,2.143,35.0
72.403,2.405,1.756,33.0
72.258,2.423,3.776,26.0
72.351,2.445,3.394,32.0
72.401,2.466,3.01,42.0
72.398,2.484,2.614,41.0
72.378,2.503,2.227,35.0
72.379,2.523,1.84,35.0
72.207,2.542,3.86,29.0
72.377,2.566,3.48,26.0
72.421,2.586,3.094,33.0
72.43,2.606,2.7,29.0
72.465,2.626,2.313,33.0
72.47,2.646,1.925,25.0
0.0,0.0,0.0,0.0
66.154,2.455,3.257,35.0
66.276,2.477,2.906,14.0
190.069,7.153,7.297,15.0
190.734,7.231,6.301,18.0
195.198,7.452,5.403,14.0
64.804,2.496,3.609,8.0
65.479,2.54,3.295,14.0
66.184,2.584,2.975,16.0
66.166,2.601,2.611,28.0
66.212,2.62,2.257,3.0
194.77,7.758,5.596,21.0
65.745,2.643,3.732,42.0
65.51,2.65,3.366,38.0
66.024,2.687,3.036,18.0
66.034,2.706,2.674,30.0
66.047,2.724,2.32,33.0
66.083,2.744,1.966,29.0
65.725,2.753,3.798,42.0
65.797,2.773,3.447,41.0
65.952,2.797,3.1,18.0
65.997,2.815,2.739,10.0
66.036,2.835,2.385,32.0
0.0,0.0,0.0,0.0
52.89,2.305,3.108,8.0
64.437,2.825,3.439,6.0
65.953,2.909,3.164,22.0
52.469,2.328,2.228,16.0
66.117,2.951,2.451,5.0
66.187,2.973,2.097,8.0
52.852,2.394,3.157,6.0
52.935,2.412,2.875,15.0
52.851,2.422,2.585,16.0
52.923,2.439,2.297,8.0
189.977,8.807,7.219,8.0
61.785,2.88,2.014,0.0
41.429,1.948,2.513,30.0
59.487,2.813,3.285,12.0
59.468,2.827,2.962,8.0
52.792,2.524,2.338,14.0
65.848,3.166,2.56,2.0
0.0,0.0,0.0,0.0
40.946,1.996,2.519,39.0
41.71,2.044,2.339,28.0
59.464,2.93,3.012,11.0
59.413,2.942,2.681,28.0
59.464,2.961,2.362,26.0
59.484,2.977,2.04,20.0
40.965,2.067,2.554,40.0
41.678,2.114,2.372,26.0
52.909,2.698,2.723,26.0
59.367,3.042,2.727,18.0
59.41,3.06,2.406,28.0
59.404,3.075,2.084,42.0
40.908,2.135,2.583,40.0
41.717,2.188,2.406,28.0
59.333,3.128,3.1,8.0
52.525,2.782,2.453,26.0
59.416,3.163,2.452,37.0
59.42,3.179,2.129,28.0
40.976,2.21,2.618,45.0
41.051,2.225,2.398,45.0
41.974,2.286,2.224,12.0
59.414,3.251,2.818,9.0
119.667,6.579,5.023,26.0
119.696,6.613,4.374,30.0
41.267,2.298,2.666,31.0
41.613,2.328,2.461,23.0
52.681,2.96,2.827,7.0
91.151,5.146,4.385,11.0
