X,Y,Z,Reflectivity
41.308,-0.583,4.53,36.0
43.409,-0.605,4.524,3.0
43.326,-0.603,5.748,19.0
47.854,-0.657,6.084,6.0
41.345,-0.559,5.029,34.0
41.226,-0.55,4.784,37.0
41.376,-0.544,4.574,22.0
0.0,0.0,0.0,0.0
43.18,-0.558,5.766,41.0
47.793,-0.609,6.118,7.0
41.327,-0.519,5.062,39.0
41.147,-0.508,4.809,30.0
41.257,-0.502,4.595,37.0
41.489,-0.497,4.394,41.0
42.79,-0.511,5.749,47.0
44.378,-0.521,5.717,18.0
41.275,-0.477,5.089,15.0
41.067,-0.467,4.833,41.0
41.186,-0.46,4.62,37.0
41.462,-0.455,4.424,36.0
42.657,-0.467,5.765,41.0
44.161,-0.474,5.723,22.0
41.203,-0.434,5.112,37.0
40.963,-0.424,4.852,44.0
41.105,-0.417,4.642,27.0
41.249,-0.41,4.431,42.0
42.233,-0.418,5.739,36.0
43.721,-0.424,5.699,8.0
41.158,-0.392,5.136,21.0
40.994,-0.381,4.885,43.0
41.175,-0.375,4.679,45.0
41.255,-0.368,4.461,37.0
42.366,-0.375,5.787,45.0
41.222,-0.357,5.401,12.0
41.172,-0.349,5.166,32.0
41.002,-0.339,4.913,33.0
41.052,-0.331,4.692,39.0
41.279,-0.325,4.49,40.0
42.169,-0.33,5.787,42.0
43.352,-0.33,5.708,20.0
41.068,-0.304,5.179,43.0
43.139,-0.311,5.197,3.0
41.018,-0.287,4.714,40.0
41.315,-0.281,4.52,41.0
42.07,-0.283,5.8,42.0
0.0,0.0,0.0,0.0
41.089,-0.26,5.206,41.0
41.273,-0.253,4.996,18.0
41.166,-0.244,4.755,28.0
41.389,-0.237,4.551,19.0
42.102,-0.238,5.828,39.0
41.665,-0.227,5.535,16.0
41.145,-0.216,5.236,36.0
43.033,-0.217,5.232,21.0
41.023,-0.199,4.76,42.0
41.292,-0.192,4.562,23.0
42.128,-0.192,5.854,39.0
42.222,-0.184,5.63,20.0
41.272,-0.171,5.273,16.0
41.307,-0.163,5.043,36.0
41.068,-0.154,4.785,35.0
41.15,-0.146,4.566,38.0
42.126,-0.145,5.874,38.0
42.139,-0.137,5.639,17.0
48.237,-0.147,6.185,4.0
41.144,-0.117,5.041,30.0
41.069,-0.108,4.803,41.0
41.169,-0.1,4.586,40.0
42.112,-0.098,5.89,43.0
42.104,-0.089,5.652,28.0
53.337,-0.102,6.861,6.0
41.062,-0.07,5.048,42.0
41.131,-0.063,4.827,38.0
41.296,-0.054,4.616,24.0
42.22,-0.05,5.921,28.0
42.055,-0.042,5.661,42.0
48.282,-0.039,6.228,8.0
41.031,-0.025,5.059,34.0
40.999,-0.016,4.825,32.0
41.449,-0.009,4.647,14.0
42.359,-0.002,5.955,16.0
42.281,0.004,5.706,32.0
41.624,0.013,5.383,16.0
41.054,0.021,5.074,40.0
40.975,0.029,4.835,31.0
51.732,0.046,5.815,6.0
42.55,0.044,5.994,28.0
42.214,0.052,5.708,47.0
41.746,0.06,5.41,17.0
41.062,0.067,5.086,39.0
40.987,0.074,4.847,34.0
41.085,0.083,4.628,28.0
42.414,0.093,5.985,12.0
42.177,0.1,5.713,44.0
41.926,0.108,5.442,20.0
41.159,0.114,5.107,32.0
41.034,0.121,4.861,16.0
41.489,0.131,4.682,12.0
42.503,0.142,6.006,18.0
42.185,0.149,5.722,40.0
42.348,0.157,5.505,39.0
40.85,0.16,5.076,41.0
41.106,0.168,4.876,26.0
41.338,0.177,4.672,39.0
42.398,0.19,5.998,17.0
42.288,0.197,5.742,33.0
42.316,0.205,5.506,35.0
40.878,0.206,5.084,41.0
41.083,0.215,4.878,15.0
41.223,0.223,4.663,29.0
42.377,0.238,5.999,17.0
42.176,0.245,5.731,48.0
48.711,0.292,6.342,10.0
40.721,0.251,5.068,37.0
41.167,0.262,4.891,40.0
41.244,0.27,4.668,27.0
51.912,0.35,7.352,6.0
42.199,0.293,5.736,38.0
40.699,0.29,5.301,5.0
40.725,0.298,5.069,40.0
40.807,0.306,4.849,43.0
41.06,0.315,4.648,27.0
51.887,0.41,7.348,5.0
41.925,0.339,5.698,36.0
40.611,0.336,5.289,9.0
40.736,0.344,5.07,39.0
40.693,0.351,4.834,43.0
41.073,0.362,4.648,28.0
41.885,0.379,5.93,18.0
41.062,0.379,5.579,33.0
40.937,0.385,5.329,34.0
40.634,0.39,5.055,44.0
41.022,0.4,4.871,39.0
41.188,0.409,4.658,53.0
41.589,0.423,5.885,48.0
40.742,0.422,5.532,33.0
40.907,0.431,5.321,41.0
40.604,0.435,5.047,41.0
40.619,0.442,4.818,43.0
41.365,0.458,4.672,41.0
41.409,0.469,5.854,33.0
40.589,0.466,5.505,45.0
40.72,0.475,5.291,37.0
40.613,0.481,5.041,38.0
40.762,0.49,4.828,42.0
41.617,0.507,4.694,38.0
41.329,0.514,5.835,45.0
40.559,0.512,5.494,37.0
40.833,0.522,5.297,16.0
40.832,0.529,5.06,43.0
40.647,0.534,4.806,42.0
41.277,0.549,4.647,35.0
40.848,0.554,5.758,48.0
40.512,0.556,5.478,45.0
41.533,0.578,5.378,18.0
40.659,0.572,5.029,38.0
40.542,0.577,4.784,39.0
40.729,0.587,4.574,38.0
40.648,0.597,5.718,39.0
40.569,0.602,5.474,43.0
40.892,0.614,5.283,37.0
40.547,0.616,5.003,38.0
40.534,0.622,4.77,40.0
40.618,0.63,4.549,38.0
40.655,0.642,5.706,41.0
40.476,0.646,5.448,48.0
41.252,0.665,5.316,49.0
40.52,0.66,4.986,39.0
40.541,0.667,4.757,38.0
40.545,0.674,4.527,37.0
40.775,0.689,5.708,43.0
40.658,0.693,5.458,40.0
40.634,0.7,5.221,41.0
41.263,0.717,5.061,32.0
40.66,0.713,4.755,40.0
40.473,0.716,4.502,40.0
40.626,0.731,5.67,44.0
40.678,0.737,5.443,41.0
40.606,0.742,5.2,36.0
40.371,0.744,4.935,43.0
40.57,0.754,4.727,36.0
40.529,0.76,4.491,44.0
40.841,0.778,5.682,43.0
40.948,0.787,5.46,40.0
40.68,0.787,5.191,40.0
40.45,0.789,4.925,39.0
40.373,0.794,4.684,44.0
40.532,0.802,4.471,38.0
40.794,0.82,5.654,36.0
40.908,0.829,5.434,39.0
40.522,0.827,5.15,36.0
40.513,0.833,4.911,37.0
40.405,0.837,4.667,41.0
40.535,0.846,4.45,41.0
41.175,0.872,5.684,31.0
40.767,0.869,5.393,43.0
40.401,0.867,5.111,41.0
40.355,0.872,4.869,37.0
40.674,0.884,4.675,31.0
40.555,0.888,4.429,43.0
41.208,0.915,5.665,41.0
40.841,0.912,5.378,40.0
40.304,0.906,5.075,42.0
40.413,0.914,4.852,39.0
40.418,0.92,4.621,35.0
40.55,0.928,4.403,41.0
40.934,0.951,5.601,34.0
40.885,0.955,5.358,34.0
40.267,0.946,5.044,45.0
40.296,0.952,4.812,38.0
40.349,0.958,4.586,38.0
40.614,0.97,4.384,38.0
40.86,0.989,5.563,39.0
40.726,0.991,5.309,36.0
40.344,0.987,5.026,38.0
40.247,0.99,4.778,40.0
40.317,0.997,4.554,44.0
40.714,1.012,4.366,35.0
40.891,1.03,5.538,45.0
40.68,1.031,5.273,35.0
40.345,1.027,4.997,39.0
40.28,1.03,4.752,34.0
40.558,1.042,4.552,24.0
40.768,1.053,4.341,40.0
41.105,1.075,5.535,38.0
40.672,1.069,5.241,39.0
40.385,1.066,4.97,34.0
40.451,1.073,4.741,31.0
40.704,1.085,4.536,31.0
40.806,1.093,4.313,40.0
41.547,1.127,5.561,30.0
40.675,1.108,5.208,37.0
40.285,1.101,4.925,38.0
40.398,1.109,4.701,40.0
40.625,1.12,4.494,44.0
41.012,1.136,4.3,38.0
41.607,1.167,5.534,17.0
40.578,1.142,5.161,37.0
40.635,1.148,4.933,23.0
40.5,1.149,4.678,35.0
40.672,1.159,4.463,34.0
40.951,1.171,4.258,41.0
41.217,1.193,5.445,17.0
40.727,1.183,5.144,32.0
40.718,1.187,4.906,21.0
40.754,1.193,4.671,44.0
40.628,1.194,4.422,39.0
40.861,1.205,4.212,35.0
40.718,1.215,5.341,34.0
40.78,1.22,5.112,37.0
40.636,1.221,4.858,19.0
41.316,1.245,4.696,28.0
40.763,1.233,4.398,38.0
40.794,1.238,4.166,38.0
40.747,1.251,5.305,34.0
40.658,1.252,5.057,41.0
40.63,1.255,4.817,40.0
41.458,1.285,4.671,33.0
40.768,1.267,4.358,39.0
40.801,1.272,4.126,34.0
40.696,1.283,5.257,40.0
41.019,1.297,5.06,37.0
40.609,1.288,4.774,47.0
41.776,1.329,4.664,26.0
40.844,1.303,4.324,38.0
40.696,1.302,4.074,38.0
41.014,1.326,5.256,17.0
41.052,1.331,5.021,37.0
41.02,1.334,4.779,39.0
41.235,1.344,4.561,40.0
40.706,1.33,4.267,31.0
40.69,1.333,4.03,38.0
40.859,1.352,5.192,42.0
40.989,1.361,4.969,22.0
41.089,1.367,4.742,36.0
41.04,1.369,4.494,34.0
40.652,1.359,4.216,41.0
40.544,1.359,3.971,41.0
41.402,1.403,5.214,36.0
41.025,1.393,4.927,16.0
41.329,1.406,4.723,36.0
40.823,1.392,4.424,25.0
40.683,1.391,4.173,37.0
40.479,1.387,3.918,40.0
41.282,1.428,5.151,30.0
41.087,1.425,4.887,15.0
41.507,1.442,4.695,18.0
40.679,1.416,4.361,40.0
40.817,1.424,4.139,35.0
40.479,1.415,3.871,41.0
40.926,1.445,5.057,36.0
41.1,1.453,4.839,16.0
40.808,1.446,4.567,28.0
40.587,1.441,4.302,40.0
40.982,1.457,4.106,17.0
40.365,1.438,3.811,37.0
40.952,1.473,5.01,33.0
41.115,1.481,4.79,10.0
40.715,1.469,4.506,37.0
40.502,1.464,4.243,44.0
40.699,1.474,4.028,19.0
40.378,1.465,3.762,41.0
40.938,1.499,4.957,40.0
42.61,1.562,4.911,30.0
40.764,1.497,4.46,49.0
40.582,1.492,4.2,34.0
40.722,1.5,3.978,27.0
40.365,1.489,3.71,41.0
40.936,1.523,4.904,11.0
42.533,1.585,4.846,18.0
40.648,1.517,4.395,36.0
40.513,1.514,4.14,38.0
40.498,1.515,3.904,32.0
40.356,1.512,3.656,42.0
50.831,1.922,6.021,1.0
0.0,0.0,0.0,0.0
40.498,1.534,4.324,39.0
40.782,1.547,4.114,29.0
40.435,1.536,3.844,38.0
40.539,1.541,3.618,37.0
42.606,1.634,4.989,8.0
0.0,0.0,0.0,0.0
40.528,1.557,4.272,35.0
40.612,1.562,4.04,29.0
40.4,1.555,3.785,39.0
40.348,1.555,3.546,39.0
42.614,1.656,4.93,34.0
40.637,1.58,4.464,40.0
40.469,1.576,4.209,39.0
40.449,1.576,3.968,41.0
40.591,1.583,3.746,34.0
40.335,1.574,3.489,40.0
42.467,1.671,4.853,31.0
40.565,1.597,4.398,38.0
40.528,1.597,4.158,25.0
40.467,1.595,3.911,34.0
40.455,1.596,3.675,43.0
40.652,1.605,3.457,27.0
42.301,1.683,4.772,2.0
40.633,1.617,4.346,30.0
40.727,1.622,4.119,15.0
40.416,1.611,3.848,36.0
40.366,1.61,3.608,44.0
40.444,1.614,3.381,35.0
40.671,1.635,4.528,43.0
40.546,1.631,4.277,26.0
41.136,1.655,4.099,17.0
40.427,1.627,3.789,39.0
40.472,1.63,3.557,41.0
40.353,1.626,3.313,38.0
40.643,1.649,4.463,42.0
40.481,1.643,4.209,44.0
40.772,1.655,4.001,15.0
40.662,1.651,3.749,17.0
40.758,1.656,3.521,25.0
40.365,1.641,3.252,36.0
40.729,1.667,4.41,34.0
40.527,1.659,4.151,36.0
40.584,1.661,3.92,32.0
40.309,1.65,3.654,33.0
40.629,1.664,3.447,33.0
40.449,1.657,3.197,35.0
40.601,1.674,4.332,41.0
41.627,1.717,4.198,17.0
40.533,1.671,3.851,34.0
40.253,1.66,3.586,40.0
40.385,1.666,3.363,38.0
40.431,1.668,3.132,41.0
40.566,1.684,4.264,41.0
42.128,1.748,4.182,17.0
40.879,1.696,3.819,17.0
40.378,1.675,3.533,40.0
40.326,1.673,3.294,37.0
40.484,1.679,3.072,41.0
40.647,1.697,4.207,39.0
40.741,1.7,3.978,15.0
40.483,1.689,3.717,34.0
40.613,1.694,3.489,29.0
40.335,1.682,3.23,40.0
40.518,1.689,3.01,39.0
41.372,1.735,4.216,17.0
40.637,1.703,3.903,35.0
40.331,1.689,3.638,40.0
40.423,1.693,3.407,38.0
40.367,1.69,3.167,37.0
40.621,1.7,2.951,36.0
41.48,1.746,4.157,21.0
40.636,1.709,3.836,36.0
40.339,1.696,3.572,38.0
40.295,1.693,3.33,42.0
40.422,1.698,3.105,38.0
40.694,1.709,2.889,40.0
41.373,1.746,4.078,17.0
40.575,1.712,3.762,31.0
40.459,1.705,3.515,37.0
40.315,1.698,3.264,39.0
40.531,1.706,3.046,37.0
40.918,1.722,2.837,37.0
40.69,1.721,3.942,32.0
40.318,1.704,3.671,37.0
40.544,1.712,3.455,33.0
40.34,1.702,3.198,40.0
40.575,1.711,2.981,44.0
41.168,1.734,2.786,16.0
40.543,1.716,3.859,36.0
40.274,1.703,3.598,40.0
40.395,1.707,3.373,36.0
40.342,1.703,3.13,40.0
40.618,1.713,2.915,45.0
41.098,1.732,2.711,27.0
40.582,1.718,3.793,32.0
40.455,1.71,3.545,40.0
40.323,1.703,3.298,41.0
40.483,1.708,3.071,37.0
40.782,1.719,2.857,44.0
44.696,1.882,2.871,10.0
40.346,1.706,3.701,38.0
40.543,1.713,3.482,33.0
40.354,1.702,3.23,39.0
40.567,1.709,3.007,42.0
41.076,1.729,2.806,15.0
44.606,1.876,2.788,26.0
40.286,1.7,3.625,39.0
40.429,1.704,3.401,36.0
40.353,1.699,3.159,38.0
40.613,1.708,2.939,41.0
41.06,1.724,2.733,15.0
44.623,1.872,2.711,39.0
40.371,1.699,3.561,39.0
40.293,1.694,3.319,41.0
40.463,1.698,3.097,37.0
40.787,1.71,2.88,39.0
44.845,1.877,2.907,8.0
65.745,2.749,3.88,25.0
40.581,1.702,3.508,28.0
40.303,1.687,3.248,39.0
40.521,1.694,3.03,38.0
40.991,1.711,2.822,31.0
44.612,1.859,2.812,35.0
65.655,2.733,3.758,40.0
40.456,1.689,3.425,39.0
40.473,1.686,3.19,38.0
40.665,1.692,2.968,31.0
40.994,1.703,2.749,14.0
44.644,1.851,2.734,46.0
65.504,2.712,3.631,41.0
40.338,1.674,3.342,37.0
40.433,1.675,3.114,46.0
40.725,1.684,2.899,34.0
44.945,1.855,2.934,7.0
65.82,2.712,3.914,20.0
65.905,2.711,3.536,30.0
40.366,1.664,3.271,38.0
40.575,1.669,3.052,44.0
40.97,1.682,2.842,19.0
44.64,1.829,2.833,17.0
65.825,2.693,3.794,29.0
65.915,2.691,3.417,25.0
40.444,1.654,3.204,38.0
40.892,1.669,3.001,36.0
44.725,1.822,3.022,4.0
44.598,1.813,2.749,12.0
65.536,2.659,3.66,40.0
65.979,2.671,3.301,19.0
40.462,1.641,3.131,41.0
40.839,1.652,2.923,37.0
41.06,1.657,2.699,25.0
65.11,2.622,3.896,27.0
65.872,2.647,3.558,35.0
66.152,2.652,3.189,6.0
40.643,1.632,3.071,40.0
40.953,1.64,2.855,24.0
65.792,2.629,4.204,9.0
65.84,2.624,3.818,33.0
64.812,2.577,3.382,23.0
66.186,2.626,3.07,14.0
40.738,1.618,3.003,47.0
44.712,1.771,3.036,10.0
64.882,2.563,4.028,22.0
65.754,2.591,3.694,24.0
66.234,2.603,3.336,6.0
66.132,2.593,2.947,15.0
40.712,1.597,2.927,45.0
44.699,1.749,2.954,8.0
65.357,2.55,3.937,40.0
72.749,2.83,3.953,8.0
66.23,2.57,3.215,21.0
66.167,2.561,2.828,20.0
40.892,1.583,2.865,41.0
80.357,3.102,5.162,23.0
65.68,2.528,3.837,41.0
65.259,2.504,3.427,12.0
66.211,2.534,3.093,21.0
66.245,2.528,2.71,8.0
40.937,1.562,2.792,42.0
65.053,2.475,4.06,9.0
64.721,2.454,3.662,6.0
66.16,2.501,3.353,38.0
66.265,2.497,2.973,21.0
190.096,7.143,7.428,15.0
71.911,2.701,4.772,20.0
65.749,2.461,3.981,33.0
0.0,0.0,0.0,0.0
66.282,2.465,3.237,27.0
72.524,2.688,3.121,25.0
72.544,2.68,2.701,8.0
66.443,2.453,4.288,7.0
0.0,0.0,0.0,0.0
66.275,2.43,3.506,28.0
72.456,2.647,3.405,23.0
72.461,2.637,2.985,24.0
72.44,2.627,2.564,24.0
65.763,2.383,4.122,16.0
0.0,0.0,0.0,0.0
72.375,2.603,3.695,10.0
72.402,2.594,3.269,33.0
72.429,2.585,2.85,32.0
72.405,2.575,2.43,31.0
66.046,2.345,4.018,29.0
72.174,2.552,3.971,18.0
72.337,2.548,3.559,33.0
72.398,2.54,3.135,42.0
72.4,2.53,2.716,40.0
72.383,2.519,2.296,29.0
66.422,2.308,3.919,20.0
72.222,2.499,3.841,33.0
72.334,2.492,3.427,38.0
72.385,2.483,3.001,40.0
72.407,2.474,2.583,36.0
72.393,2.463,2.163,19.0
72.477,2.46,4.142,33.0
72.29,2.443,3.712,12.0
72.36,2.434,3.295,36.0
72.44,2.426,2.872,33.0
72.436,2.415,2.451,36.0
72.43,2.403,2.032,31.0
72.234,2.391,3.995,22.0
72.435,2.386,3.586,14.0
72.439,2.375,3.166,34.0
72.48,2.364,2.74,31.0
72.526,2.355,2.322,24.0
72.496,2.343,1.901,24.0
65.653,2.115,3.511,12.0
72.451,2.323,3.455,24.0
78.738,2.511,3.298,8.0
190.7,6.052,6.865,22.0
211.295,6.673,6.382,8.0
120.045,3.772,2.932,8.0
65.537,2.051,3.386,13.0
115.014,3.582,5.277,11.0
78.787,2.44,3.159,22.0
78.899,2.43,2.698,1.0
74.102,2.271,2.106,3.0
78.978,2.407,1.788,5.0
82.357,2.5,4.108,10.0
117.993,3.562,5.203,11.0
78.814,2.365,3.018,18.0
78.882,2.353,2.556,27.0
74.353,2.206,1.98,5.0
78.884,2.327,1.645,25.0
65.5,1.924,3.151,17.0
118.167,3.451,5.001,7.0
78.776,2.286,2.878,19.0
78.844,2.275,2.416,27.0
74.672,2.141,1.856,5.0
78.858,2.247,1.504,29.0
78.925,2.237,3.657,17.0
78.831,2.22,3.196,21.0
78.791,2.204,2.737,28.0
78.81,2.191,2.274,28.0
76.621,2.115,1.768,2.0
78.868,2.164,1.364,14.0
78.801,2.149,3.511,30.0
78.794,2.134,3.055,31.0
78.819,2.121,2.599,27.0
78.865,2.107,2.137,31.0
78.885,2.093,1.682,16.0
74.391,1.96,1.157,4.0
78.834,2.064,3.374,32.0
78.836,2.048,2.918,30.0
78.948,2.036,2.465,16.0
119.994,3.073,3.043,13.0
119.994,3.049,2.349,10.0
85.367,2.152,1.178,7.0
189.926,4.754,7.796,13.0
78.877,1.958,2.781,25.0
85.311,2.102,2.515,25.0
85.269,2.084,2.012,29.0
85.28,2.067,1.52,31.0
85.26,2.05,1.027,30.0
85.296,2.034,3.352,13.0
85.252,2.016,2.858,27.0
85.255,1.999,2.366,34.0
85.244,1.982,1.865,39.0
85.26,1.964,1.373,41.0
85.248,1.946,0.88,29.0
78.895,1.786,2.966,23.0
85.253,1.912,2.712,34.0
85.25,1.895,2.22,35.0
85.25,1.876,1.719,38.0
85.269,1.86,1.228,40.0
85.235,1.841,0.736,21.0
85.317,1.825,3.063,31.0
85.319,1.808,2.571,26.0
85.339,1.79,2.079,27.0
85.369,1.773,1.579,28.0
85.386,1.756,1.087,24.0
85.208,1.733,0.593,13.0
91.77,1.848,3.142,29.0
91.833,1.829,2.614,21.0
87.064,1.715,1.975,23.0
91.952,1.791,1.547,26.0
91.966,1.772,1.017,19.0
84.763,1.614,0.449,8.0
91.841,1.728,2.991,32.0
91.779,1.707,2.46,14.0
87.321,1.605,1.837,10.0
91.899,1.668,1.394,15.0
91.867,1.647,0.865,29.0
77.917,1.38,0.285,4.0
91.876,1.606,2.842,16.0
91.86,1.584,2.311,33.0
91.862,1.563,1.782,35.0
87.653,1.472,1.187,4.0
91.818,1.521,0.714,21.0
74.502,1.217,0.151,2.0
92.089,1.482,2.698,5.0
119.971,1.904,2.824,8.0
91.971,1.437,1.635,18.0
92.013,1.417,1.097,21.0
91.991,1.396,0.568,8.0
75.948,1.135,0.032,1.0
98.53,1.449,2.731,26.0
98.667,1.427,2.166,22.0
98.533,1.402,1.596,25.0
98.591,1.379,1.02,24.0
85.218,1.172,0.391,10.0
0.0,0.0,0.0,0.0
98.529,1.307,2.575,31.0
98.572,1.284,2.009,27.0
98.485,1.259,1.441,30.0
98.443,1.234,0.864,18.0
81.263,0.999,0.246,4.0
0.0,0.0,0.0,0.0
98.561,1.162,2.423,25.0
98.554,1.138,1.856,29.0
98.56,1.114,1.289,29.0
98.173,1.086,0.71,8.0
80.747,0.873,0.12,4.0
0.0,0.0,0.0,0.0
98.738,1.017,2.276,15.0
98.727,0.992,1.708,17.0
98.668,0.967,1.14,25.0
97.916,0.935,0.56,6.0
0.0,0.0,0.0,0.0
52.985,0.478,-0.306,0.0
100.343,0.88,2.161,1.0
100.031,0.851,1.58,2.0
104.775,0.865,1.053,16.0
90.679,0.725,0.381,7.0
0.0,0.0,0.0,0.0
48.661,0.363,-0.354,0.0
111.094,0.802,2.228,8.0
0.0,0.0,0.0,0.0
104.928,0.702,0.9,24.0
86.667,0.557,0.237,5.0
0.0,0.0,0.0,0.0
45.999,0.272,-0.401,0.0
111.065,0.627,2.068,28.0
111.07,0.597,1.43,28.0
104.596,0.534,0.746,8.0
87.978,0.427,0.115,1.0
0.0,0.0,0.0,0.0
42.851,0.185,-0.435,1.0
119.874,0.486,2.061,57.0
119.771,0.453,1.373,9.0
103.903,0.365,0.596,6.0
0.0,0.0,0.0,0.0
0.0,0.0,0.0,0.0
39.839,0.107,-0.46,0.0
119.856,0.291,1.894,21.0
111.134,0.239,1.12,11.0
93.693,0.177,0.408,1.0
0.0,0.0,0.0,0.0
49.972,0.067,-0.359,0.0
0.0,0.0,0.0,0.0
111.153,0.088,1.606,15.0
111.09,0.057,0.969,7.0
95.732,0.023,0.287,1.0
0.0,0.0,0.0,0.0
45.183,-0.014,-0.386,1.0
36.591,-0.021,-0.521,0.0
111.152,-0.098,1.457,6.0
110.986,-0.129,0.82,14.0
0.0,0.0,0.0,0.0
0.0,0.0,0.0,0.0
0.0,0.0,0.0,0.0
34.285,-0.078,-0.534,0.0
119.733,-0.309,1.412,11.0
111.078,-0.319,0.674,3.0
0.0,0.0,0.0,0.0
0.0,0.0,0.0,0.0
40.057,-0.15,-0.447,0.0
0.0,0.0,0.0,0.0
119.693,-0.517,1.257,17.0
0.0,0.0,0.0,0.0
0.0,0.0,0.0,0.0
48.13,-0.251,-0.324,0.0
37.739,-0.207,-0.469,0.0
30.99,-0.179,-0.562,0.0
119.665,-0.725,1.108,12.0
0.0,0.0,0.0,0.0
0.0,0.0,0.0,0.0
0.0,0.0,0.0,0.0
36.752,-0.266,-0.502,0.0
30.216,-0.228,-0.586,0.0
114.432,-0.897,0.918,9.0
0.0,0.0,0.0,0.0
0.0,0.0,0.0,0.0
0.0,0.0,0.0,0.0
35.412,-0.32,-0.527,0.0
29.336,-0.273,-0.604,0.0
119.763,-1.152,0.819,56.0
0.0,0.0,0.0,0.0
0.0,0.0,0.0,0.0
0.0,0.0,0.0,0.0
33.345,-0.361,-0.535,0.0
28.481,-0.317,-0.619,0.0
0.0,0.0,0.0,0.0
0.0,0.0,0.0,0.0
0.0,0.0,0.0,0.0
40.793,-0.503,-0.468,0.0
32.222,-0.407,-0.553,0.0
0.0,0.0,0.0,0.0
127.536,-1.687,0.584,2.0
0.0,0.0,0.0,0.0
0.0,0.0,0.0,0.0
0.0,0.0,0.0,0.0
0.0,0.0,0.0,0.0
26.469,-0.391,-0.634,0.0
0.0,0.0,0.0,0.0
0.0,0.0,0.0,0.0
46.755,-0.734,-0.368,1.0
37.412,-0.599,-0.511,0.0
30.806,-0.503,-0.596,0.0
26.09,-0.434,-0.653,0.0
0.0,0.0,0.0,0.0
0.0,0.0,0.0,0.0
44.817,-0.787,-0.4,1.0
0.0,0.0,0.0,0.0
29.339,-0.534,-0.598,0.0
25.301,-0.469,-0.66,0.0
0.0,0.0,0.0,0.0
0.0,0.0,0.0,0.0
45.165,-0.878,-0.449,0.0
34.516,-0.682,-0.542,0.0
28.887,-0.58,-0.618,0.0
24.574,-0.502,-0.665,0.0
0.0,0.0,0.0,0.0
0.0,0.0,0.0,0.0
41.247,-0.88,-0.45,0.0
0.0,0.0,0.0,0.0
28.145,-0.619,-0.629,0.0
18.155,-0.405,-0.509,28.0
0.0,0.0,0.0,0.0
0.0,0.0,0.0,0.0
39.487,-0.917,-0.468,0.0
0.0,0.0,0.0,0.0
21.919,-0.523,-0.51,0.0
18.143,-0.439,-0.525,56.0
0.0,0.0,0.0,0.0
46.978,-1.166,-0.332,0.0
37.908,-0.953,-0.483,0.0
31.398,-0.8,-0.581,0.0
21.861,-0.564,-0.528,161.0
21.861,-0.571,-0.652,86.0
0.0,0.0,0.0,0.0
47.865,-1.28,-0.381,0.0
38.069,-1.03,-0.518,0.0
21.884,-0.6,-0.424,19.0
21.862,-0.606,-0.547,215.0
21.869,-0.614,-0.671,83.0
0.0,0.0,0.0,0.0
44.261,-1.269,-0.388,2.0
0.0,0.0,0.0,0.0
29.514,-0.866,-0.596,0.0
21.893,-0.65,-0.566,49.0
21.884,-0.657,-0.689,10.0
0.0,0.0,0.0,0.0
44.232,-1.354,-0.423,0.0
34.853,-1.078,-0.53,0.0
28.855,-0.903,-0.605,0.0
24.666,-0.78,-0.657,0.0
21.933,-0.701,-0.708,14.0
0.0,0.0,0.0,0.0
41.555,-1.353,-0.429,0.0
0.0,0.0,0.0,0.0
0.0,0.0,0.0,0.0
0.0,0.0,0.0,0.0
21.592,-0.733,-0.713,0.0
0.0,0.0,0.0,0.0
41.514,-1.433,-0.459,0.0
0.0,0.0,0.0,0.0
27.86,-0.98,-0.625,0.0
23.973,-0.852,-0.673,0.0
21.389,-0.767,-0.721,0.0
0.0,0.0,0.0,0.0
0.0,0.0,0.0,0.0
32.226,-1.186,-0.559,0.0
0.0,0.0,0.0,0.0
23.897,-0.896,-0.686,0.0
20.939,-0.792,-0.719,0.0
0.0,0.0,0.0,0.0
0.0,0.0,0.0,0.0
0.0,0.0,0.0,0.0
26.708,-1.044,-0.633,0.0
23.394,-0.923,-0.687,0.0
20.704,-0.824,-0.724,0.0
47.868,-1.916,-0.352,0.0
37.937,-1.531,-0.492,0.0
30.583,-1.245,-0.568,0.0
26.466,-1.087,-0.643,0.0
23.094,-0.957,-0.691,0.0
20.548,-0.858,-0.731,0.0
47.191,-1.981,-0.373,0.0
38.419,-1.627,-0.52,0.0
30.747,-1.312,-0.588,0.0
26.338,-1.133,-0.655,0.0
22.947,-0.996,-0.699,0.0
20.207,-0.884,-0.729,0.0
44.694,-1.964,-0.377,0.0
38.532,-1.707,-0.541,0.0
30.069,-1.343,-0.591,0.0
25.67,-1.155,-0.651,0.0
22.357,-1.014,-0.693,0.0
19.905,-0.91,-0.729,0.0
20.014,-0.919,-0.179,18.0
20.015,-0.926,-0.291,17.0
20.051,-0.935,-0.404,12.0
20.053,-0.942,-0.518,0.0
0.0,0.0,0.0,0.0
19.795,-0.944,-0.734,2.0
19.99,-0.957,-0.187,33.0
20.006,-0.965,-0.299,26.0
20.036,-0.973,-0.412,26.0
20.065,-0.982,-0.527,22.0
20.079,-0.99,-0.64,6.0
19.829,-0.985,-0.743,1.0
19.985,-0.996,-0.195,34.0
20.007,-1.004,-0.308,26.0
20.026,-1.012,-0.42,29.0
20.059,-1.021,-0.535,30.0
20.071,-1.029,-0.648,24.0
19.816,-1.023,-0.75,1.0
20.029,-1.037,-0.203,28.0
20.031,-1.044,-0.315,7.0
20.042,-1.052,-0.428,13.0
20.062,-1.061,-0.542,15.0
20.082,-1.069,-0.655,9.0
19.745,-1.058,-0.755,0.0
42.469,-2.283,-0.446,0.0
0.0,0.0,0.0,0.0
28.803,-1.569,-0.624,0.0
23.879,-1.309,-0.653,0.0
21.703,-1.198,-0.715,0.0
19.709,-1.095,-0.759,0.0
0.0,0.0,0.0,0.0
0.0,0.0,0.0,0.0
0.0,0.0,0.0,0.0
23.695,-1.345,-0.654,0.0
21.458,-1.226,-0.712,0.0
19.526,-1.123,-0.757,0.0
20.008,-1.153,-0.221,2.0
20.005,-1.16,-0.332,19.0
19.992,-1.167,-0.443,60.0
19.987,-1.174,-0.557,150.0
19.979,-1.181,-0.668,52.0
19.904,-1.183,-0.776,2.0
19.991,-1.191,-0.225,151.0
19.982,-1.197,-0.336,151.0
19.981,-1.204,-0.447,150.0
19.965,-1.211,-0.56,12.0
20.034,-1.222,-0.674,3.0
19.854,-1.218,-0.778,0.0
20.047,-1.233,-0.229,19.0
20.086,-1.242,-0.341,20.0
20.117,-1.251,-0.454,26.0
20.103,-1.258,-0.567,19.0
20.073,-1.263,-0.678,12.0
20.03,-1.268,-0.788,1.0
20.035,-1.27,-0.232,32.0
20.062,-1.279,-0.343,29.0
20.078,-1.287,-0.455,30.0
20.098,-1.296,-0.569,30.0
20.095,-1.303,-0.681,14.0
19.82,-1.292,-0.782,2.0
20.028,-1.308,-0.234,33.0
20.055,-1.317,-0.345,28.0
20.077,-1.326,-0.457,27.0
20.095,-1.334,-0.571,19.0
20.147,-1.345,-0.684,5.0
19.232,-1.291,-0.76,0.0
20.041,-1.347,-0.235,21.0
20.054,-1.355,-0.346,12.0
20.099,-1.365,-0.458,0.0
23.515,-1.606,-0.669,0.0
20.433,-1.403,-0.695,0.0
19.175,-1.323,-0.758,0.0
19.974,-1.38,-0.234,0.0
0.0,0.0,0.0,0.0
28.253,-1.972,-0.645,0.0
23.722,-1.664,-0.675,0.0
21.119,-1.489,-0.718,0.0
19.542,-1.385,-0.773,0.0
0.0,0.0,0.0,0.0
0.0,0.0,0.0,0.0
0.0,0.0,0.0,0.0
24.066,-1.733,-0.684,1.0
21.21,-1.535,-0.72,0.0
19.278,-1.402,-0.761,0.0
39.907,-2.906,-0.466,1.0
0.0,0.0,0.0,0.0
0.0,0.0,0.0,0.0
24.157,-1.784,-0.685,0.0
21.034,-1.561,-0.713,0.0
18.997,-1.417,-0.749,0.0
35.683,-2.663,-0.413,1.0
0.0,0.0,0.0,0.0
27.562,-2.077,-0.623,0.0
23.48,-1.777,-0.663,0.0
21.119,-1.606,-0.713,0.0
19.141,-1.462,-0.752,0.0
34.22,-2.616,-0.392,1.0
32.213,-2.474,-0.546,1.0
0.0,0.0,0.0,0.0
23.782,-1.843,-0.668,0.0
21.789,-1.696,-0.732,0.0
19.031,-1.488,-0.745,0.0
35.173,-2.752,-0.397,12.0
29.699,-2.334,-0.499,1.0
29.324,-2.315,-0.654,0.0
24.266,-1.924,-0.677,0.0
21.385,-1.703,-0.715,1.0
19.302,-1.544,-0.752,0.0
35.49,-2.84,-0.393,3.0
28.601,-2.298,-0.474,1.0
27.263,-2.2,-0.602,0.0
24.117,-1.955,-0.668,0.0
21.393,-1.741,-0.71,0.0
19.215,-1.571,-0.743,0.0
35.299,-2.887,-0.383,26.0
29.275,-2.404,-0.478,8.0
25.489,-2.101,-0.556,2.0
24.985,-2.069,-0.685,0.0
0.0,0.0,0.0,0.0
19.299,-1.611,-0.742,0.0
35.42,-2.958,-0.374,37.0
28.397,-2.381,-0.456,25.0
24.67,-2.077,-0.531,2.0
23.772,-2.009,-0.645,1.0
23.641,-2.006,-0.771,0.0
19.43,-1.655,-0.741,0.0
35.637,-3.037,-0.365,4.0
28.676,-2.454,-0.451,23.0
25.171,-2.162,-0.534,6.0
22.525,-1.942,-0.604,2.0
22.331,-1.933,-0.721,0.0
19.67,-1.71,-0.743,0.0
29.901,-2.599,-0.296,0.0
29.173,-2.545,-0.448,38.0
24.489,-2.145,-0.511,19.0
21.786,-1.915,-0.576,3.0
21.158,-1.867,-0.675,0.0
20.01,-1.772,-0.748,0.0
29.97,-2.655,-0.285,1.0
29.293,-2.604,-0.439,21.0
24.154,-2.155,-0.494,23.0
21.858,-1.957,-0.569,2.0
20.11,-1.808,-0.634,2.0
19.916,-1.797,-0.737,0.0
35.857,-3.236,-0.326,1.0
29.542,-2.675,-0.43,26.0
22.165,-2.014,-0.444,1.0
22.077,-2.013,-0.565,8.0
19.601,-1.794,-0.609,2.0
18.997,-1.745,-0.694,1.0
0.0,0.0,0.0,0.0
29.658,-2.734,-0.418,25.0
23.561,-2.179,-0.461,2.0
21.559,-2.0,-0.542,19.0
19.647,-1.83,-0.601,2.0
18.215,-1.702,-0.657,2.0
37.554,-3.509,-0.306,15.0
29.704,-2.785,-0.405,8.0
23.584,-2.218,-0.45,5.0
21.604,-2.039,-0.532,19.0
19.87,-1.881,-0.598,3.0
17.822,-1.693,-0.634,2.0
37.792,-3.591,-0.289,14.0
29.76,-2.836,-0.39,4.0
23.586,-2.255,-0.437,4.0
21.639,-2.076,-0.521,19.0
19.454,-1.872,-0.575,16.0
17.99,-1.737,-0.63,3.0
38.363,-3.704,-0.272,14.0
30.354,-2.94,-0.38,13.0
23.567,-2.29,-0.424,2.0
0.0,0.0,0.0,0.0
19.447,-1.901,-0.563,15.0
18.197,-1.785,-0.626,5.0
38.753,-3.8,-0.252,15.0
30.388,-2.989,-0.363,23.0
23.57,-2.325,-0.41,1.0
21.83,-2.16,-0.5,19.0
19.733,-1.958,-0.56,20.0
18.052,-1.797,-0.61,16.0
38.976,-3.879,-0.23,15.0
31.399,-3.134,-0.356,10.0
23.544,-2.357,-0.394,0.0
22.329,-2.242,-0.498,19.0
19.831,-1.997,-0.55,20.0
18.04,-1.822,-0.598,18.0
41.485,-4.19,-0.218,5.0
35.224,-3.567,-0.376,4.0
23.552,-2.391,-0.379,0.0
22.545,-2.296,-0.488,17.0
20.139,-2.057,-0.545,18.0
18.141,-1.858,-0.59,17.0
0.0,0.0,0.0,0.0
32.648,-3.351,-0.327,19.0
29.437,-3.03,-0.454,1.0
22.761,-2.349,-0.477,19.0
20.392,-2.111,-0.538,18.0
18.364,-1.906,-0.584,17.0
33.122,-3.437,-0.128,73.0
32.987,-3.431,-0.307,52.0
28.546,-2.978,-0.42,8.0
23.066,-2.412,-0.467,10.0
20.563,-2.156,-0.528,19.0
18.489,-1.944,-0.575,17.0
33.09,-3.478,-0.105,92.0
33.088,-3.486,-0.283,80.0
28.656,-3.027,-0.401,20.0
23.283,-2.466,-0.454,5.0
20.823,-2.211,-0.519,20.0
18.615,-1.981,-0.565,17.0
33.105,-3.523,-0.079,90.0
33.104,-3.531,-0.259,56.0
0.0,0.0,0.0,0.0
23.622,-2.532,-0.442,29.0
20.902,-2.246,-0.504,18.0
18.778,-2.023,-0.555,17.0
33.12,-3.567,-0.053,47.0
37.352,-4.032,-0.262,15.0
29.895,-3.235,-0.371,27.0
23.691,-2.569,-0.425,34.0
21.521,-2.34,-0.502,18.0
18.963,-2.066,-0.545,18.0
45.996,-5.01,-0.038,21.0
37.962,-4.144,-0.235,20.0
30.269,-3.312,-0.351,24.0
24.474,-2.684,-0.419,20.0
21.782,-2.394,-0.49,22.0
19.259,-2.122,-0.538,20.0
46.772,-5.151,0.0,21.0
38.51,-4.25,-0.207,14.0
30.728,-3.399,-0.331,13.0
25.122,-2.785,-0.409,20.0
22.116,-2.457,-0.479,21.0
19.399,-2.16,-0.525,23.0
45.858,-5.104,0.039,12.0
38.977,-4.346,-0.176,14.0
0.0,0.0,0.0,0.0
25.36,-2.84,-0.39,17.0
22.383,-2.512,-0.466,21.0
19.493,-2.192,-0.511,26.0
0.0,0.0,0.0,0.0
0.0,0.0,0.0,0.0
35.5,-4.006,-0.321,20.0
0.0,0.0,0.0,0.0
22.463,-2.545,-0.447,21.0
19.779,-2.246,-0.5,20.0
50.777,-5.763,0.134,10.0
42.187,-4.797,-0.115,18.0
35.797,-4.078,-0.29,23.0
28.167,-3.215,-0.383,13.0
22.866,-2.615,-0.434,22.0
20.253,-2.32,-0.494,17.0
51.47,-5.895,0.183,3.0
42.79,-4.91,-0.077,14.0
36.505,-4.196,-0.263,13.0
28.931,-3.331,-0.367,11.0
23.236,-2.681,-0.419,20.0
20.721,-2.395,-0.486,19.0
75.165,-8.685,0.338,9.0
0.0,0.0,0.0,0.0
37.358,-4.331,-0.233,18.0
29.577,-3.435,-0.347,22.0
23.834,-2.772,-0.408,24.0
21.027,-2.45,-0.473,19.0
75.168,-8.758,0.41,12.0
46.501,-5.426,0.004,21.0
38.169,-4.461,-0.201,22.0
30.57,-3.579,-0.329,24.0
24.352,-2.855,-0.393,20.0
21.516,-2.527,-0.463,19.0
75.24,-8.836,0.485,9.0
46.817,-5.506,0.05,5.0
38.739,-4.563,-0.166,14.0
35.162,-4.148,-0.343,3.0
24.94,-2.947,-0.377,19.0
21.899,-2.592,-0.449,19.0
84.515,-10.0,0.63,13.0
0.0,0.0,0.0,0.0
38.927,-4.619,-0.127,12.0
35.405,-4.207,-0.309,20.0
25.525,-3.038,-0.36,15.0
22.46,-2.677,-0.438,20.0
89.744,-10.694,0.76,6.0
51.381,-6.13,0.158,12.0
42.146,-5.035,-0.095,17.0
35.725,-4.274,-0.276,23.0
0.0,0.0,0.0,0.0
22.829,-2.739,-0.421,21.0
89.85,-10.778,0.853,10.0
52.723,-6.332,0.218,4.0
45.744,-5.501,-0.056,8.0
36.753,-4.425,-0.246,14.0
28.813,-3.474,-0.347,30.0
23.311,-2.814,-0.406,20.0
100.826,-12.171,1.063,6.0
65.842,-7.957,0.341,5.0
45.782,-5.539,-0.008,20.0
37.554,-4.549,-0.211,20.0
29.65,-3.596,-0.326,29.0
23.964,-2.91,-0.392,20.0
100.968,-12.26,1.173,9.0
83.445,-10.143,0.522,9.0
46.722,-5.685,0.041,21.0
38.397,-4.677,-0.175,20.0
30.473,-3.716,-0.302,14.0
24.636,-3.008,-0.376,21.0
107.685,-13.148,1.367,13.0
84.153,-10.284,0.617,9.0
50.999,-6.239,0.1,4.0
38.856,-4.758,-0.135,14.0
35.477,-4.349,-0.313,10.0
25.047,-3.074,-0.355,21.0
73.264,-8.991,1.009,4.0
88.34,-10.85,0.744,2.0
0.0,0.0,0.0,0.0
40.998,-5.045,-0.098,16.0
35.904,-4.422,-0.278,19.0
25.878,-3.191,-0.339,16.0
73.476,-9.059,1.093,27.0
90.869,-11.213,0.865,7.0
52.634,-6.5,0.219,4.0
45.792,-5.66,-0.059,6.0
36.681,-4.538,-0.243,13.0
0.0,0.0,0.0,0.0
73.629,-9.117,1.177,14.0
90.956,-11.271,0.968,5.0
66.978,-8.306,0.353,7.0
46.112,-5.723,-0.007,21.0
37.586,-4.669,-0.207,21.0
29.403,-3.655,-0.319,22.0
76.647,-9.529,1.312,22.0
76.665,-9.537,0.902,8.0
83.535,-10.399,0.536,5.0
46.817,-5.832,0.044,21.0
38.396,-4.786,-0.168,18.0
30.463,-3.8,-0.296,9.0
76.647,-9.563,1.399,25.0
73.272,-9.147,0.945,12.0
76.628,-9.571,0.578,19.0
50.908,-6.363,0.107,6.0
0.0,0.0,0.0,0.0
35.521,-4.446,-0.305,13.0
76.63,-9.591,1.486,16.0
76.597,-9.591,1.075,19.0
76.589,-9.595,0.664,19.0
0.0,0.0,0.0,0.0
40.915,-5.131,-0.086,15.0
35.891,-4.504,-0.267,25.0
76.742,-9.632,1.576,6.0
76.62,-9.62,1.162,21.0
76.588,-9.62,0.753,22.0
62.562,-7.862,0.273,5.0
45.925,-5.774,-0.045,9.0
36.811,-4.63,-0.232,13.0
86.58,-10.893,1.877,8.0
76.644,-9.646,1.25,16.0
76.557,-9.638,0.84,20.0
76.559,-9.642,0.422,14.0
46.364,-5.841,0.007,20.0
37.776,-4.761,-0.195,23.0
94.137,-11.867,2.148,9.0
76.665,-9.667,1.338,13.0
76.588,-9.659,0.927,21.0
76.566,-9.66,0.509,27.0
47.173,-5.953,0.061,21.0
38.428,-4.851,-0.155,14.0
70.127,-8.855,1.68,3.0
76.724,-9.689,1.428,8.0
76.587,-9.674,1.014,16.0
76.542,-9.67,0.597,28.0
50.669,-6.403,0.124,5.0
0.0,0.0,0.0,0.0
69.933,-8.842,1.756,5.0
87.086,-11.011,1.72,13.0
76.616,-9.688,1.103,11.0
76.534,-9.679,0.684,23.0
52.208,-6.604,0.187,9.0
43.141,-5.458,-0.075,5.0
69.851,-8.84,1.835,5.0
86.89,-10.996,1.816,19.0
76.663,-9.701,1.192,8.0
76.546,-9.687,0.773,20.0
65.66,-8.31,0.311,7.0
46.104,-5.836,-0.027,20.0
69.799,-8.838,1.913,3.0
86.779,-10.987,1.913,15.0
76.673,-9.706,1.28,8.0
76.563,-9.692,0.86,16.0
76.535,-9.689,0.451,16.0
46.671,-5.908,0.025,21.0
69.788,-8.838,1.993,4.0
87.016,-11.018,2.019,5.0
76.693,-9.709,1.369,7.0
76.564,-9.692,0.948,17.0
76.535,-9.687,0.538,24.0
47.683,-6.035,0.08,20.0
69.811,-8.839,2.073,4.0
69.892,-8.847,1.7,4.0
87.12,-11.025,1.654,4.0
76.599,-9.692,1.034,13.0
76.547,-9.683,0.625,23.0
50.599,-6.4,0.142,6.0
69.85,-8.839,2.153,4.0
69.939,-8.847,1.781,4.0
87.029,-11.006,1.749,17.0
76.642,-9.689,1.122,11.0
76.555,-9.676,0.711,22.0
52.537,-6.639,0.206,6.0
69.898,-8.837,2.234,3.0
69.993,-8.845,1.861,4.0
86.882,-10.975,1.845,23.0
76.634,-9.677,1.21,13.0
76.554,-9.664,0.798,20.0
76.538,-9.659,0.388,13.0
70.048,-8.844,2.318,3.0
70.14,-8.851,1.946,3.0
94.132,-11.873,2.107,7.0
76.644,-9.663,1.297,15.0
76.588,-9.652,0.884,18.0
76.552,-9.644,0.474,21.0
70.215,-8.85,2.402,3.0
70.479,-8.878,2.034,3.0
70.523,-8.879,1.656,1.0
76.653,-9.646,1.381,13.0
76.592,-9.633,0.969,18.0
76.554,-9.624,0.559,20.0
70.559,-8.875,2.493,3.0
70.809,-8.901,2.121,3.0
75.499,-9.485,1.856,6.0
76.631,-9.621,1.466,12.0
76.608,-9.613,1.054,20.0
76.592,-9.605,0.643,19.0
75.102,-9.424,2.736,7.0
78.595,-9.855,2.44,14.0
75.501,-9.46,1.939,22.0
76.64,-9.597,1.549,12.0
76.622,-9.588,1.138,20.0
76.627,-9.583,0.727,21.0
75.306,-9.424,2.825,21.0
78.675,-9.837,2.528,28.0
75.418,-9.422,2.018,11.0
76.652,-9.569,1.632,16.0
76.642,-9.561,1.221,24.0
76.634,-9.553,0.809,14.0
0.0,0.0,0.0,0.0
78.595,-9.795,2.611,10.0
75.231,-9.368,2.094,9.0
76.642,-9.536,1.713,14.0
76.659,-9.53,1.302,22.0
73.275,-9.102,0.851,17.0
0.0,0.0,0.0,0.0
75.164,-9.334,2.576,33.0
75.231,-9.334,2.174,9.0
73.035,-9.053,1.709,23.0
76.663,-9.494,1.383,21.0
73.249,-9.063,0.928,25.0
75.315,-9.326,3.066,23.0
75.139,-9.294,2.655,38.0
76.666,-9.473,2.296,16.0
72.976,-9.008,1.786,22.0
76.675,-9.455,1.464,13.0
73.343,-9.036,1.005,18.0
75.658,-9.328,3.159,16.0
75.376,-9.283,2.741,29.0
76.626,-9.426,2.374,18.0
72.959,-8.965,1.859,9.0
76.732,-9.419,1.543,8.0
73.492,-9.012,1.082,14.0
75.96,-9.322,3.249,8.0
0.0,0.0,0.0,0.0
75.108,-9.195,2.403,9.0
76.757,-9.386,2.034,4.0
73.528,-8.981,1.552,12.0
73.506,-8.968,1.156,14.0
74.058,-9.043,3.241,9.0
0.0,0.0,0.0,0.0
75.429,-9.187,2.488,28.0
92.904,-11.301,2.554,6.0
73.012,-8.87,1.614,13.0
73.595,-8.931,1.229,12.0
74.124,-9.003,3.317,22.0
75.718,-9.183,2.98,13.0
75.33,-9.124,2.557,10.0
72.902,-8.818,2.075,10.0
72.865,-8.802,1.68,33.0
73.277,-8.841,1.295,12.0
73.721,-8.902,3.37,24.0
75.807,-9.141,3.056,5.0
78.327,-9.431,2.734,6.0
78.728,-9.466,2.315,10.0
72.951,-8.759,1.752,9.0
73.3,-8.789,1.365,7.0
73.551,-8.827,3.433,29.0
73.599,-8.819,3.037,13.0
78.542,-9.397,2.816,12.0
78.573,-9.386,2.385,9.0
73.272,-8.74,1.828,3.0
73.589,-8.766,1.438,6.0
0.0,0.0,0.0,0.0
73.458,-8.744,3.099,10.0
75.408,-8.961,2.773,16.0
78.389,-9.301,2.452,11.0
73.315,-8.685,1.897,11.0
73.442,-8.687,1.503,9.0
71.812,-8.502,3.484,10.0
73.75,-8.716,3.178,24.0
73.194,-8.636,2.758,26.0
78.436,-9.239,2.522,23.0
73.194,-8.608,1.959,18.0
73.389,-8.617,1.567,7.0
73.17,-8.599,3.615,32.0
73.711,-8.647,3.241,39.0
73.115,-8.562,2.819,9.0
74.354,-8.692,2.456,11.0
77.982,-9.101,2.153,12.0
189.037,-22.025,4.198,15.0
0.0,0.0,0.0,0.0
73.282,-8.53,3.285,35.0
72.558,-8.43,2.859,10.0
74.525,-8.642,2.525,12.0
78.261,-9.06,2.228,13.0
75.052,-8.673,1.73,5.0
73.635,-8.517,3.763,16.0
73.302,-8.463,3.347,32.0
73.41,-8.458,2.953,18.0
0.0,0.0,0.0,0.0
75.161,-8.628,2.2,17.0
74.887,-8.581,1.786,26.0
72.196,-8.28,3.747,24.0
73.576,-8.421,3.419,45.0
72.59,-8.292,2.979,8.0
75.167,-8.569,2.668,40.0
75.152,-8.55,2.26,31.0
74.193,-8.426,1.828,30.0
0.0,0.0,0.0,0.0
72.376,-8.209,3.419,21.0
0.0,0.0,0.0,0.0
74.201,-8.381,2.691,31.0
74.752,-8.426,2.305,9.0
74.336,-8.363,1.888,37.0
33.218,-3.74,1.776,7.0
33.191,-3.729,1.593,1.0
74.642,-8.368,3.176,10.0
73.966,-8.274,2.738,38.0
74.795,-8.349,2.362,17.0
74.956,-8.35,1.959,35.0
33.185,-3.7,1.798,81.0
33.188,-3.692,1.617,74.0
33.183,-3.683,1.436,60.0
33.142,-3.67,1.25,47.0
33.163,-3.664,1.07,42.0
33.165,-3.657,0.89,41.0
33.184,-3.662,1.821,89.0
33.179,-3.653,1.64,81.0
33.165,-3.643,1.458,80.0
33.161,-3.634,1.274,79.0
33.151,-3.625,1.092,79.0
33.145,-3.616,0.912,81.0
33.214,-3.627,1.845,70.0
33.198,-3.616,1.663,69.0
33.187,-3.606,1.481,70.0
33.162,-3.595,1.295,72.0
33.155,-3.586,1.114,72.0
33.136,-3.575,0.933,74.0
70.168,-7.578,3.944,20.0
69.547,-7.492,3.528,17.0
71.865,-7.722,3.253,17.0
33.18,-3.556,1.317,3.0
33.179,-3.548,1.135,15.0
33.163,-3.537,0.954,44.0
70.323,-7.508,3.996,30.0
69.623,-7.414,3.574,22.0
71.629,-7.607,3.285,35.0
74.408,-7.882,2.998,10.0
74.967,-7.921,2.611,9.0
78.336,-8.256,2.3,11.0
69.057,-7.284,3.965,13.0
71.451,-7.516,3.71,9.0
71.953,-7.549,3.341,34.0
74.584,-7.805,3.047,18.0
78.155,-8.157,2.765,9.0
73.858,-7.688,2.209,17.0
68.858,-7.174,3.991,23.0
71.461,-7.425,3.748,19.0
71.943,-7.454,3.38,29.0
74.795,-7.729,3.095,33.0
77.882,-8.026,2.795,9.0
74.013,-7.607,2.252,13.0
68.869,-7.084,4.026,24.0
71.327,-7.316,3.778,23.0
76.664,-7.841,3.639,7.0
71.019,-7.243,2.974,4.0
72.267,-7.35,2.629,25.0
74.218,-7.528,2.294,11.0
68.971,-7.001,4.066,17.0
71.409,-7.227,3.816,10.0
74.545,-7.523,3.573,21.0
78.054,-7.854,3.305,14.0
72.318,-7.255,2.664,11.0
78.616,-7.865,2.465,17.0
0.0,0.0,0.0,0.0
71.835,-7.17,3.87,14.0
74.578,-7.421,3.607,7.0
71.394,-7.083,3.054,10.0
72.632,-7.185,2.707,19.0
78.803,-7.772,2.504,9.0
71.508,-7.057,4.277,13.0
71.157,-7.001,3.863,16.0
71.332,-6.997,3.479,25.0
77.884,-7.615,3.361,22.0
74.461,-7.259,2.804,14.0
78.522,-7.632,2.524,8.0
70.209,-6.828,4.226,7.0
73.923,-7.167,4.041,5.0
73.052,-7.059,3.59,5.0
77.58,-7.473,3.377,17.0
74.523,-7.156,2.833,9.0
78.515,-7.516,2.552,19.0
69.828,-6.689,4.227,7.0
73.515,-7.018,4.043,7.0
73.095,-6.955,3.616,21.0
70.966,-6.73,3.111,20.0
78.526,-7.423,3.01,21.0
78.792,-7.425,2.586,6.0
70.029,-6.602,4.26,24.0
73.375,-6.895,4.057,7.0
71.366,-6.683,3.552,10.0
71.109,-6.636,3.139,22.0
70.965,-6.601,2.74,19.0
78.479,-7.276,2.597,12.0
70.294,-6.52,4.295,24.0
70.074,-6.477,3.893,13.0
71.374,-6.574,3.57,11.0
71.19,-6.535,3.16,19.0
70.827,-6.479,2.752,10.0
78.601,-7.165,2.62,15.0
71.296,-6.502,4.373,12.0
71.016,-6.452,3.962,35.0
71.339,-6.459,3.584,11.0
71.227,-6.427,3.177,4.0
72.411,-6.51,2.828,5.0
74.736,-6.696,2.506,6.0
71.055,-6.368,4.372,11.0
70.729,-6.315,3.959,29.0
67.958,-6.045,3.427,35.0
67.984,-6.025,3.044,46.0
67.968,-6.002,2.667,46.0
67.94,-5.978,2.289,21.0
71.357,-6.281,4.402,21.0
70.714,-6.201,3.969,29.0
67.961,-5.937,3.437,44.0
67.99,-5.917,3.053,51.0
67.965,-5.894,2.675,45.0
67.924,-5.869,2.297,25.0
71.6,-6.187,4.425,14.0
70.814,-6.095,3.982,39.0
67.951,-5.826,3.444,43.0
67.966,-5.805,3.059,46.0
67.966,-5.783,2.681,48.0
67.908,-5.757,2.302,23.0
71.574,-6.069,4.429,20.0
71.444,-6.033,4.023,28.0
67.943,-5.715,3.447,47.0
67.96,-5.694,3.063,42.0
67.953,-5.671,2.684,53.0
67.907,-5.645,2.306,26.0
71.759,-5.966,4.444,23.0
71.472,-5.918,4.026,15.0
67.934,-5.602,3.449,43.0
67.95,-5.58,3.064,44.0
67.942,-5.557,2.685,52.0
67.895,-5.532,2.305,21.0
71.825,-5.852,4.448,18.0
71.621,-5.81,4.035,13.0
71.001,-5.736,3.603,26.0
71.181,-5.727,3.208,27.0
72.279,-5.791,2.855,12.0
72.185,-5.761,2.449,7.0
71.684,-5.719,4.437,17.0
71.381,-5.671,4.018,11.0
71.28,-5.638,3.614,19.0
67.955,-5.353,3.059,27.0
67.921,-5.328,2.678,61.0
67.908,-5.305,2.299,73.0
67.969,-5.308,4.201,75.0
67.949,-5.283,3.819,90.0
67.939,-5.259,3.438,68.0
67.939,-5.237,3.052,44.0
67.915,-5.212,2.671,6.0
70.996,-5.425,2.396,5.0
72.172,-5.513,4.452,15.0
71.566,-5.442,4.013,11.0
67.909,-5.141,3.428,49.0
67.919,-5.118,3.041,54.0
67.913,-5.095,2.661,53.0
72.024,-5.38,2.42,19.0
71.987,-5.375,4.429,11.0
71.417,-5.308,3.993,28.0
67.907,-5.024,3.416,63.0
67.921,-5.002,3.029,70.0
67.915,-4.979,2.649,57.0
20.05,-1.463,0.669,2.0
71.612,-5.223,4.392,37.0
71.025,-5.156,3.957,27.0
67.91,-4.907,3.402,56.0
67.906,-4.883,3.013,63.0
67.895,-4.86,2.633,57.0
20.007,-1.425,0.663,9.0
71.52,-5.092,4.368,10.0
71.367,-5.056,3.958,15.0
67.893,-4.786,3.384,54.0
67.895,-4.763,2.995,56.0
67.885,-4.739,2.614,48.0
19.999,-1.389,0.658,12.0
71.591,-4.968,4.353,18.0
70.457,-4.866,3.887,35.0
70.883,-4.871,3.511,7.0
70.584,-4.827,3.093,19.0
72.185,-4.912,2.758,18.0
20.004,-1.354,0.651,11.0
71.264,-4.821,4.31,41.0
70.535,-4.747,3.868,30.0
70.835,-4.744,3.486,8.0
79.127,-5.272,3.441,7.0
20.031,-1.328,0.758,8.0
19.963,-1.317,0.643,11.0
71.082,-4.683,4.273,19.0
70.432,-4.616,3.836,31.0
70.907,-4.623,3.462,32.0
72.735,-4.718,3.135,10.0
19.977,-1.289,0.748,12.0
19.949,-1.28,0.635,22.0
71.195,-4.564,4.251,25.0
70.917,-4.522,3.834,35.0
73.605,-4.667,3.564,13.0
73.159,-4.614,3.122,18.0
19.978,-1.253,0.74,13.0
19.946,-1.245,0.626,23.0
70.683,-4.404,4.188,41.0
70.929,-4.395,3.803,20.0
19.994,-1.232,0.959,11.0
20.045,-1.228,0.846,12.0
19.972,-1.217,0.73,16.0
19.952,-1.209,0.617,23.0
71.167,-4.307,4.183,33.0
19.975,-1.201,1.061,14.0
19.978,-1.195,0.948,24.0
20.031,-1.191,0.835,25.0
19.974,-1.181,0.72,18.0
19.963,-1.174,0.607,24.0
71.542,-4.199,4.166,22.0
19.972,-1.165,1.05,20.0
19.964,-1.158,0.936,23.0
20.024,-1.155,0.824,29.0
19.972,-1.145,0.709,17.0
19.955,-1.138,0.595,24.0
71.669,-4.077,4.133,13.0
19.964,-1.129,1.038,20.0
19.96,-1.122,0.924,23.0
20.011,-1.118,0.811,17.0
19.981,-1.11,0.697,16.0
19.97,-1.102,0.584,23.0
58.554,-3.226,3.341,24.0
19.971,-1.093,1.026,18.0
19.99,-1.087,0.913,17.0
20.037,-1.083,0.8,8.0
19.987,-1.074,0.685,17.0
19.969,-1.066,0.571,22.0
58.78,-3.131,3.315,33.0
20.005,-1.058,1.014,7.0
73.034,-3.841,3.289,15.0
20.035,-1.047,0.786,7.0
19.986,-1.038,0.671,15.0
19.978,-1.031,0.557,14.0
58.808,-3.025,3.275,29.0
73.589,-3.761,3.679,28.0
73.338,-3.724,3.251,18.0
20.081,-1.013,0.774,8.0
20.1,-1.007,0.66,22.0
20.121,-1.002,0.547,24.0
76.516,-3.799,4.205,4.0
80.314,-3.962,3.957,31.0
83.404,-4.087,3.635,22.0
20.082,-0.977,0.759,12.0
20.104,-0.972,0.646,24.0
20.114,-0.966,0.532,22.0
79.655,-3.813,4.316,16.0
80.639,-3.833,3.91,26.0
85.753,-4.049,3.671,23.0
20.087,-0.942,0.743,11.0
20.099,-0.936,0.629,17.0
20.128,-0.931,0.516,9.0
79.456,-3.661,4.241,19.0
80.846,-3.699,3.854,12.0
95.139,-4.322,3.993,22.0
20.123,-0.907,0.728,1.0
20.143,-0.902,0.614,0.0
193.458,-8.603,4.8,17.0
80.604,-3.57,4.233,27.0
80.877,-3.556,3.786,18.0
100.158,-4.371,4.118,27.0
104.218,-4.515,3.68,17.0
193.571,-8.324,5.733,16.0
193.045,-8.243,4.621,20.0
80.842,-3.437,4.173,14.0
80.824,-3.409,3.71,18.0
100.361,-4.202,4.036,16.0
104.298,-4.333,3.588,15.0
194.01,-8.001,5.57,22.0
192.916,-7.898,4.441,9.0
80.996,-3.299,4.106,35.0
95.278,-3.85,4.285,16.0
104.034,-4.172,4.085,23.0
207.032,-8.238,6.928,8.0
192.866,-7.615,5.354,11.0
193.138,-7.565,4.26,7.0
81.165,-3.164,4.036,24.0
94.261,-3.644,4.148,11.0
104.034,-3.99,3.983,18.0
193.658,-7.367,6.291,23.0
192.937,-7.279,5.165,24.0
194.235,-7.27,4.092,5.0
81.255,-3.024,3.957,39.0
104.147,-3.844,4.478,14.0
117.679,-4.307,4.386,13.0
193.37,-7.016,6.082,23.0
193.176,-6.949,4.971,12.0
204.43,-7.293,4.095,7.0
80.998,-2.872,3.86,23.0
101.323,-3.561,4.248,9.0
101.159,-3.525,3.662,19.0
193.218,-6.675,5.872,9.0
187.426,-6.417,4.624,48.0
187.474,-6.364,3.554,19.0
94.397,-3.184,4.397,20.0
100.924,-3.372,4.122,23.0
119.619,-3.961,4.2,24.0
193.213,-6.342,5.659,19.0
193.862,-6.305,4.57,22.0
193.338,-6.23,3.451,16.0
81.349,-2.603,3.697,19.0
101.645,-3.222,4.036,20.0
120.307,-3.778,4.088,18.0
193.907,-6.03,5.458,22.0
194.432,-5.99,4.36,19.0
193.86,-5.918,3.24,11.0
81.293,-2.463,3.6,25.0
101.745,-3.051,3.922,6.0
120.331,-3.574,3.948,16.0
194.117,-5.709,5.238,20.0
194.958,-5.678,4.143,18.0
138.552,-3.994,2.15,8.0
81.472,-2.331,3.511,3.0
117.235,-3.319,4.379,11.0
120.83,-3.386,3.819,23.0
0.0,0.0,0.0,0.0
195.149,-5.355,3.911,5.0
138.767,-3.767,1.985,5.0
101.784,-2.74,4.26,15.0
116.804,-3.11,4.217,9.0
120.844,-3.182,3.668,6.0
118.223,-3.08,2.899,7.0
193.059,-4.977,3.628,11.0
0.0,0.0,0.0,0.0
96.636,-2.441,3.922,16.0
113.377,-2.83,3.949,10.0
0.0,0.0,0.0,0.0
118.078,-2.882,2.745,16.0
193.051,-4.656,3.379,21.0
0.0,0.0,0.0,0.0
106.399,-2.511,4.179,10.0
112.798,-2.632,3.783,20.0
112.775,-2.6,3.134,2.0
193.57,-4.408,4.246,8.0
193.098,-4.343,3.125,10.0
138.909,-3.086,1.451,9.0
106.504,-2.34,4.041,14.0
112.738,-2.446,3.629,24.0
209.306,-4.484,5.532,6.0
193.669,-4.098,3.987,19.0
138.998,-2.902,2.062,8.0
138.986,-2.865,1.263,24.0
112.866,-2.3,4.129,16.0
113.09,-2.273,3.485,22.0
113.072,-2.242,2.833,6.0
193.313,-3.781,3.714,19.0
0.0,0.0,0.0,0.0
139.024,-2.645,1.071,19.0
112.698,-2.116,3.963,26.0
113.029,-2.092,3.323,21.0
206.415,-3.767,4.882,16.0
193.658,-3.484,3.446,19.0
0.0,0.0,0.0,0.0
139.073,-2.429,0.875,10.0
112.89,-1.945,3.81,6.0
112.66,-1.911,3.153,16.0
206.419,-3.449,4.588,8.0
193.741,-3.186,3.17,8.0
139.142,-2.251,1.474,10.0
138.737,-2.208,0.67,5.0
0.0,0.0,0.0,0.0
113.247,-1.746,3.002,15.0
205.997,-3.125,4.276,6.0
138.944,-2.072,2.068,9.0
138.882,-2.035,1.266,17.0
0.0,0.0,0.0,0.0
0.0,0.0,0.0,0.0
206.548,-2.871,5.167,10.0
0.0,0.0,0.0,0.0
0.0,0.0,0.0,0.0
139.206,-1.829,1.058,20.0
0.0,0.0,0.0,0.0
209.276,-2.647,6.121,19.0
210.64,-2.612,4.945,7.0
204.216,-2.481,3.615,19.0
0.0,0.0,0.0,0.0
119.848,-1.397,0.727,7.0
0.0,0.0,0.0,0.0
119.735,-1.339,3.317,2.0
119.737,-1.31,2.625,61.0
119.746,-1.281,1.934,152.0
119.746,-1.252,1.231,150.0
117.555,-1.2,0.529,1.0
0.0,0.0,0.0,0.0
119.732,-1.164,3.126,150.0
119.726,-1.136,2.434,90.0
119.748,-1.108,1.743,86.0
119.658,-1.077,1.037,18.0
0.0,0.0,0.0,0.0
0.0,0.0,0.0,0.0
119.722,-0.995,2.934,66.0
119.775,-0.967,2.243,19.0
119.709,-0.939,1.55,14.0
113.823,-0.867,0.805,7.0
82.9,-0.613,0.108,1.0
0.0,0.0,0.0,0.0
119.801,-0.83,2.742,25.0
119.793,-0.803,2.049,8.0
119.703,-0.775,1.356,14.0
110.996,-0.693,0.603,4.0
0.0,0.0,0.0,0.0
0.0,0.0,0.0,0.0
119.798,-0.665,2.541,33.0
119.846,-0.639,1.849,14.0
119.695,-0.611,1.155,17.0
105.195,-0.513,0.395,1.0
0.0,0.0,0.0,0.0
0.0,0.0,0.0,0.0
119.806,-0.505,2.339,8.0
119.788,-0.478,1.645,5.0
114.352,-0.432,0.91,7.0
0.0,0.0,0.0,0.0
0.0,0.0,0.0,0.0
44.952,-0.14,-0.427,1.0
193.266,-0.563,3.445,4.0
119.692,-0.323,1.441,8.0
110.782,-0.275,0.692,11.0
0.0,0.0,0.0,0.0
0.0,0.0,0.0,0.0
41.165,-0.076,-0.461,0.0
114.734,-0.188,1.847,5.0
117.403,-0.167,1.209,19.0
0.0,0.0,0.0,0.0
0.0,0.0,0.0,0.0
0.0,0.0,0.0,0.0
37.478,-0.022,-0.485,0.0
111.125,-0.044,1.595,9.0
111.075,-0.021,0.95,9.0
95.624,0.001,0.264,4.0
0.0,0.0,0.0,0.0
45.465,0.019,-0.405,2.0
35.502,0.022,-0.522,0.0
111.155,0.091,1.398,21.0
0.0,0.0,0.0,0.0
0.0,0.0,0.0,0.0
0.0,0.0,0.0,0.0
42.783,0.069,-0.458,0.0
33.913,0.061,-0.559,0.0
111.136,0.222,1.199,13.0
103.725,0.227,0.518,4.0
0.0,0.0,0.0,0.0
0.0,0.0,0.0,0.0
38.03,0.105,-0.475,0.0
31.444,0.093,-0.575,0.0
110.997,0.349,0.998,12.0
0.0,0.0,0.0,0.0
0.0,0.0,0.0,0.0
0.0,0.0,0.0,0.0
0.0,0.0,0.0,0.0
29.883,0.122,-0.601,0.0
104.45,0.446,0.746,9.0
0.0,0.0,0.0,0.0
0.0,0.0,0.0,0.0
42.795,0.206,-0.443,1.0
34.195,0.171,-0.552,0.0
0.0,0.0,0.0,0.0
97.282,0.521,0.515,2.0
0.0,0.0,0.0,0.0
0.0,0.0,0.0,0.0
39.647,0.233,-0.484,0.0
0.0,0.0,0.0,0.0
26.788,0.167,-0.638,0.0
85.836,0.55,0.295,6.0
0.0,0.0,0.0,0.0
0.0,0.0,0.0,0.0
35.502,0.246,-0.499,0.0
30.048,0.213,-0.597,0.0
25.747,0.187,-0.661,0.0
84.307,0.626,0.131,1.0
0.0,0.0,0.0,0.0
42.763,0.332,-0.43,0.0
33.699,0.267,-0.538,0.0
28.133,0.228,-0.612,0.0
24.575,0.203,-0.678,0.0
0.0,0.0,0.0,0.0
0.0,0.0,0.0,0.0
39.435,0.344,-0.471,0.0
32.101,0.285,-0.573,0.0
26.922,0.244,-0.637,0.0
23.471,0.216,-0.692,0.0
0.0,0.0,0.0,0.0
46.744,0.445,-0.377,0.0
0.0,0.0,0.0,0.0
0.0,0.0,0.0,0.0
25.901,0.259,-0.664,0.0
22.481,0.228,-0.707,0.0
0.0,0.0,0.0,0.0
41.05,0.428,-0.411,0.0
33.901,0.359,-0.536,0.0
28.229,0.303,-0.614,0.0
24.431,0.266,-0.673,0.0
0.0,0.0,0.0,0.0
0.0,0.0,0.0,0.0
39.398,0.446,-0.471,0.0
31.682,0.363,-0.562,0.0
26.817,0.311,-0.635,0.0
23.462,0.276,-0.692,0.0
20.647,0.245,-0.729,0.0
40.47,0.486,-0.327,0.0
37.107,0.451,-0.516,0.0
29.84,0.367,-0.589,0.0
25.856,0.321,-0.663,0.0
22.422,0.282,-0.706,0.0
19.902,0.253,-0.742,0.0
41.086,0.527,-0.414,0.0
0.0,0.0,0.0,0.0
0.0,0.0,0.0,0.0
24.288,0.321,-0.671,0.0
21.327,0.285,-0.713,0.0
19.041,0.257,-0.747,0.0
0.0,0.0,0.0,0.0
31.465,0.432,-0.561,0.0
26.615,0.368,-0.63,0.0
23.353,0.326,-0.691,0.0
20.494,0.289,-0.726,0.0
18.295,0.26,-0.754,0.0
35.74,0.512,-0.501,0.0
29.972,0.433,-0.594,0.0
25.702,0.374,-0.659,0.0
22.396,0.329,-0.707,0.0
19.805,0.293,-0.74,0.0
17.643,0.264,-0.762,1.0
33.837,0.508,-0.54,0.0
0.0,0.0,0.0,0.0
24.608,0.375,-0.679,0.0
21.49,0.33,-0.72,0.0
18.986,0.294,-0.747,0.0
17.512,0.273,-0.791,0.0
31.677,0.496,-0.569,0.0
26.498,0.418,-0.63,0.0
23.398,0.372,-0.692,0.0
20.326,0.325,-0.722,0.0
18.275,0.294,-0.755,0.0
16.698,0.271,-0.787,0.0
29.729,0.484,-0.592,0.0
0.0,0.0,0.0,0.0
22.234,0.366,-0.701,0.0
19.793,0.328,-0.742,0.0
17.559,0.293,-0.76,2.0
16.138,0.271,-0.793,0.0
28.002,0.472,-0.613,0.0
24.262,0.411,-0.673,0.0
21.356,0.364,-0.717,0.0
18.946,0.325,-0.748,0.0
17.462,0.301,-0.791,0.0
15.718,0.273,-0.804,0.0
26.515,0.461,-0.634,0.0
23.112,0.404,-0.687,0.0
20.356,0.358,-0.724,0.0
18.34,0.324,-0.761,0.0
16.704,0.297,-0.79,0.0
15.215,0.272,-0.809,0.0
25.129,0.45,-0.651,0.0
22.032,0.396,-0.699,0.0
19.774,0.357,-0.742,0.0
17.635,0.32,-0.767,1.0
16.112,0.294,-0.795,0.0
14.82,0.272,-0.818,0.0
24.14,0.443,-0.674,0.0
21.353,0.394,-0.72,0.0
18.911,0.35,-0.748,0.0
17.098,0.318,-0.778,0.0
15.653,0.293,-0.803,0.0
14.405,0.271,-0.823,0.0
22.903,0.43,-0.685,0.0
20.302,0.383,-0.725,0.0
18.19,0.345,-0.756,0.0
16.582,0.315,-0.787,0.0
15.226,0.291,-0.812,0.0
14.017,0.269,-0.829,0.0
22.323,0.428,-0.712,0.0
19.629,0.378,-0.74,0.0
17.678,0.341,-0.77,0.0
16.044,0.311,-0.794,0.0
14.804,0.288,-0.819,0.0
13.658,0.267,-0.835,0.0
20.985,0.409,-0.711,0.0
18.814,0.368,-0.747,0.0
17.029,0.335,-0.775,0.0
15.599,0.308,-0.803,0.0
14.355,0.284,-0.823,0.0
13.353,0.265,-0.843,0.0
20.343,0.403,-0.73,0.0
18.202,0.362,-0.759,0.0
16.599,0.331,-0.788,0.0
15.163,0.303,-0.81,0.0
13.952,0.28,-0.827,0.0
13.053,0.263,-0.85,0.0
19.495,0.392,-0.737,0.0
17.686,0.356,-0.772,0.0
16.062,0.324,-0.795,0.0
14.68,0.297,-0.814,0.0
13.65,0.277,-0.836,0.0
12.592,0.257,-0.845,0.0
18.819,0.382,-0.749,0.0
17.097,0.348,-0.78,0.0
15.576,0.318,-0.802,0.0
14.325,0.293,-0.822,0.0
13.311,0.273,-0.842,0.0
12.253,0.252,-0.847,0.0
18.023,0.37,-0.753,0.0
16.496,0.339,-0.786,0.0
15.093,0.311,-0.807,0.0
13.922,0.287,-0.827,0.0
13.001,0.269,-0.848,0.0
11.911,0.247,-0.847,0.0
17.636,0.364,-0.772,0.0
15.928,0.33,-0.79,0.0
14.735,0.306,-0.817,0.0
13.598,0.283,-0.834,0.0
12.603,0.262,-0.847,0.0
11.626,0.243,-0.849,0.0
16.976,0.353,-0.776,0.0
15.512,0.323,-0.799,0.0
14.315,0.298,-0.821,0.0
13.332,0.278,-0.844,0.0
12.235,0.256,-0.846,0.0
11.411,0.239,-0.856,0.0
16.497,0.344,-0.786,0.0
15.136,0.316,-0.809,0.0
13.914,0.291,-0.825,0.0
12.934,0.271,-0.844,0.0
11.901,0.249,-0.846,0.0
11.235,0.236,-0.864,0.0
15.988,0.334,-0.792,0.0
14.722,0.308,-0.815,0.0
13.598,0.285,-0.832,0.0
12.566,0.263,-0.844,0.0
11.626,0.244,-0.849,0.0
11.056,0.232,-0.872,0.0
15.553,0.325,-0.8,0.0
14.322,0.299,-0.82,0.0
13.326,0.279,-0.841,0.0
12.211,0.256,-0.843,0.0
11.409,0.239,-0.855,0.0
10.799,0.227,-0.872,0.0
15.16,0.316,-0.809,0.0
13.958,0.291,-0.826,0.0
12.98,0.271,-0.844,0.0
11.911,0.249,-0.845,0.0
11.241,0.235,-0.863,0.0
10.567,0.221,-0.874,0.0
14.734,0.306,-0.814,0.0
13.628,0.283,-0.832,0.0
12.643,0.263,-0.846,0.0
11.633,0.242,-0.847,0.0
11.054,0.23,-0.87,0.0
10.394,0.216,-0.879,0.0
14.344,0.296,-0.819,0.0
13.334,0.275,-0.839,0.0
12.277,0.253,-0.844,0.0
11.418,0.236,-0.853,0.0
10.786,0.223,-0.869,0.0
10.217,0.211,-0.883,0.0
