X,Y,Z,Reflectivity
84.942,7.839,4.386,39.0
93.003,8.6,4.28,15.0
41.753,3.883,3.091,33.0
44.501,4.147,3.043,19.0
44.604,4.164,2.799,10.0
84.741,7.926,4.832,12.0
85.281,7.992,4.383,25.0
92.328,8.669,4.226,14.0
41.769,3.944,3.081,21.0
44.073,4.17,3.002,25.0
72.9,6.91,4.555,34.0
73.405,6.97,4.166,26.0
73.455,6.988,3.754,10.0
91.558,8.727,4.165,15.0
41.939,4.02,3.082,27.0
43.418,4.168,2.945,18.0
59.657,5.737,3.709,9.0
72.991,7.032,4.119,27.0
73.333,7.077,3.725,13.0
90.916,8.791,4.106,13.0
42.184,4.102,3.085,9.0
43.324,4.219,2.924,34.0
72.869,7.108,4.505,26.0
73.133,7.146,4.101,25.0
88.734,8.685,4.476,10.0
88.626,8.689,3.971,15.0
53.909,5.314,3.924,7.0
42.955,4.241,2.883,25.0
73.051,7.224,4.489,11.0
73.13,7.243,4.073,14.0
88.53,8.783,4.431,21.0
88.541,8.799,3.932,33.0
42.72,4.268,3.091,31.0
42.933,4.295,2.864,17.0
73.377,7.352,4.478,15.0
88.536,8.885,4.893,39.0
88.537,8.899,4.394,36.0
88.549,8.915,3.894,33.0
42.844,4.336,3.081,32.0
0.0,0.0,0.0,0.0
73.377,7.447,4.446,17.0
88.54,8.999,4.853,29.0
88.504,9.008,4.351,27.0
88.367,9.008,3.845,16.0
42.932,4.399,3.067,16.0
44.717,4.588,2.941,23.0
58.271,5.986,3.503,11.0
88.09,9.062,4.786,20.0
87.959,9.062,4.281,19.0
87.837,9.062,3.779,17.0
42.933,4.452,3.046,24.0
44.582,4.628,2.91,7.0
59.599,6.196,3.551,12.0
87.551,9.113,4.711,21.0
87.443,9.115,4.21,18.0
87.314,9.115,3.709,20.0
43.823,4.597,3.086,22.0
42.704,4.485,2.763,19.0
42.623,4.482,2.516,4.0
87.04,9.164,4.635,26.0
86.945,9.167,4.136,22.0
86.871,9.172,3.64,11.0
43.752,4.641,3.055,22.0
42.739,4.539,2.741,17.0
84.131,8.945,4.917,30.0
84.13,8.956,4.43,63.0
84.132,8.967,3.953,58.0
84.14,8.98,3.476,59.0
43.594,4.674,3.017,20.0
42.657,4.578,2.709,17.0
42.671,4.585,2.467,32.0
84.166,9.055,4.379,33.0
84.211,9.07,3.903,21.0
84.246,9.085,3.428,17.0
42.989,4.657,2.948,21.0
42.587,4.617,2.678,34.0
42.731,4.638,2.443,13.0
84.067,9.135,4.319,12.0
84.046,9.143,3.841,13.0
84.012,9.15,3.363,6.0
120.505,-3.429,4.387,17.0
205.305,-5.888,6.397,8.0
194.17,-5.616,5.035,24.0
194.77,-5.681,4.013,20.0
138.659,-4.078,2.133,8.0
138.701,-4.111,1.407,9.0
101.931,-3.043,3.868,7.0
205.84,-6.195,6.736,7.0
193.856,-5.879,5.329,25.0
194.305,-5.935,4.304,22.0
193.573,-5.959,3.278,16.0
0.0,0.0,0.0,0.0
101.216,-3.161,4.0,28.0
120.401,-3.787,4.129,8.0
193.303,-6.124,5.617,20.0
193.898,-6.187,4.601,25.0
193.474,-6.215,3.58,13.0
0.0,0.0,0.0,0.0
101.007,-3.289,4.151,20.0
117.745,-3.859,4.222,11.0
187.338,-6.182,5.74,28.0
187.413,-6.227,4.746,40.0
187.476,-6.268,3.768,46.0
138.548,-4.662,2.061,6.0
103.945,-3.52,4.437,12.0
101.119,-3.444,3.787,28.0
193.85,-6.645,6.248,25.0
193.007,-6.658,5.195,21.0
204.449,-7.094,4.435,31.0
193.501,-6.755,3.188,6.0
94.359,-3.314,4.179,33.0
104.062,-3.675,4.065,20.0
194.465,-6.908,6.582,23.0
193.006,-6.896,5.505,17.0
193.149,-6.939,4.501,23.0
193.531,-6.994,3.503,16.0
94.412,-3.431,4.335,22.0
103.887,-3.795,4.227,23.0
190.521,-6.999,6.759,5.0
193.227,-7.139,5.831,27.0
192.814,-7.162,4.813,24.0
194.506,-7.264,3.841,11.0
81.294,-3.052,3.867,34.0
103.9,-3.92,4.399,17.0
104.333,-3.957,3.874,16.0
193.559,-7.377,6.16,20.0
192.952,-7.391,5.134,18.0
193.258,-7.441,4.138,17.0
81.178,-3.141,3.996,43.0
95.452,-3.711,4.201,14.0
103.908,-4.059,4.031,28.0
206.958,-8.124,6.93,10.0
193.78,-7.642,5.48,19.0
192.871,-7.642,4.45,18.0
81.047,-3.227,4.125,30.0
94.622,-3.784,4.322,12.0
104.197,-4.185,4.216,8.0
104.213,-4.203,3.662,21.0
193.705,-7.849,5.8,21.0
192.727,-7.844,4.77,28.0
67.249,-2.75,3.536,30.0
80.923,-3.324,3.833,29.0
100.159,-4.13,4.222,17.0
104.219,-4.315,3.839,29.0
193.87,-8.062,6.134,20.0
193.461,-8.079,5.116,16.0
59.887,-2.512,3.251,21.0
80.879,-3.406,3.968,33.0
94.645,-4.001,4.15,15.0
104.239,-4.422,4.017,13.0
117.146,-4.989,3.905,16.0
193.306,-8.266,5.44,24.0
67.134,-2.883,3.758,22.0
80.751,-3.48,4.099,37.0
80.873,-3.498,3.684,4.0
100.096,-4.345,4.027,21.0
115.656,-5.038,4.052,26.0
193.25,-8.447,5.765,4.0
67.286,-2.954,3.882,26.0
80.636,-3.553,4.231,17.0
80.888,-3.576,3.823,18.0
94.866,-4.207,3.98,20.0
20.11,-0.894,0.739,0.0
20.111,-0.897,0.634,9.0
58.043,-2.603,3.448,17.0
79.087,-3.557,4.285,17.0
80.68,-3.64,3.951,33.0
94.382,-4.272,4.123,15.0
95.114,-4.318,3.66,23.0
20.09,-0.914,0.668,18.0
58.39,-2.67,3.57,29.0
79.143,-3.63,4.426,15.0
80.319,-3.694,4.072,25.0
83.378,-3.845,3.785,25.0
94.601,-4.375,3.802,24.0
20.093,-0.932,0.703,18.0
58.269,-2.714,3.663,31.0
58.308,-2.723,3.362,32.0
79.41,-3.718,4.164,16.0
83.385,-3.914,3.93,11.0
85.527,-4.026,3.586,23.0
20.083,-0.947,0.737,15.0
58.227,-2.759,3.762,28.0
58.226,-2.766,3.458,32.0
78.968,-3.761,4.279,12.0
80.67,-3.851,3.944,28.0
83.399,-3.99,3.642,23.0
20.095,-0.964,0.773,8.0
58.28,-2.807,3.868,33.0
58.417,-2.819,3.572,30.0
73.679,-3.564,4.121,12.0
80.354,-3.896,4.068,20.0
83.434,-4.053,3.788,32.0
73.401,-3.574,2.952,13.0
58.147,-2.843,3.96,33.0
58.44,-2.862,3.674,26.0
58.472,-2.87,3.372,19.0
73.444,-3.612,3.845,9.0
73.573,-3.625,3.468,10.0
73.377,-3.623,3.077,31.0
0.0,0.0,0.0,0.0
58.517,-2.906,3.781,32.0
58.339,-2.902,3.465,31.0
73.449,-3.661,3.972,10.0
73.699,-3.679,3.602,27.0
83.494,-4.176,3.646,29.0
0.0,0.0,0.0,0.0
58.623,-2.948,3.89,32.0
58.459,-2.945,3.574,32.0
58.959,-2.975,3.29,29.0
79.261,-4.005,4.011,14.0
83.434,-4.224,3.787,13.0
0.0,0.0,0.0,0.0
58.508,-2.977,3.983,26.0
58.961,-3.005,3.706,33.0
58.68,-2.995,3.377,33.0
73.439,-3.753,3.844,15.0
71.128,-3.64,3.353,32.0
57.127,-2.935,4.289,31.0
63.847,-3.285,4.459,13.0
58.416,-3.009,3.774,32.0
58.43,-3.013,3.464,32.0
73.3,-3.785,3.963,8.0
71.152,-3.679,3.476,12.0
57.047,-2.961,4.382,25.0
63.817,-3.316,4.567,13.0
58.344,-3.035,3.871,32.0
58.428,-3.042,3.566,32.0
58.776,-3.064,3.28,26.0
20.009,-1.044,1.012,9.0
57.185,-2.996,4.493,22.0
60.02,-3.147,4.402,17.0
58.785,-3.085,4.003,30.0
58.488,-3.073,3.671,33.0
58.609,-3.081,3.373,32.0
19.995,-1.052,1.046,10.0
0.0,0.0,0.0,0.0
57.37,-3.033,4.306,13.0
63.58,-3.364,4.438,30.0
58.229,-3.083,3.754,32.0
58.532,-3.101,3.467,31.0
20.009,-1.061,1.081,6.0
58.559,-3.117,4.803,28.0
63.282,-3.37,4.858,8.0
63.837,-3.402,4.565,33.0
58.341,-3.11,3.861,28.0
58.603,-3.126,3.571,32.0
58.861,-3.142,3.28,23.0
58.545,-3.137,4.901,20.0
58.813,-3.153,4.614,29.0
64.054,-3.434,4.69,39.0
58.875,-3.158,3.996,29.0
58.267,-3.127,3.65,31.0
58.624,-3.148,3.366,28.0
62.413,-3.364,5.332,17.0
58.744,-3.167,4.71,32.0
63.779,-3.439,4.779,38.0
63.525,-3.426,4.42,22.0
58.303,-3.146,3.751,31.0
58.699,-3.168,3.47,32.0
62.337,-3.377,5.431,22.0
58.585,-3.174,4.796,26.0
63.273,-3.428,4.847,37.0
58.989,-3.196,4.203,21.0
58.349,-3.162,3.851,30.0
58.638,-3.179,3.564,32.0
62.384,-3.394,5.541,17.0
58.575,-3.187,4.894,15.0
63.063,-3.431,4.937,19.0
58.752,-3.196,4.285,17.0
58.804,-3.199,3.98,32.0
58.495,-3.182,3.653,32.0
25.755,-3.195,-0.33,18.0
22.441,-2.786,-0.408,20.0
19.875,-2.47,-0.468,18.0
18.073,-2.248,-0.524,16.0
16.376,-2.038,-0.563,13.0
15.124,-1.884,-0.601,14.0
0.0,0.0,0.0,0.0
22.95,-2.859,-0.393,22.0
20.36,-2.538,-0.458,22.0
18.286,-2.281,-0.511,17.0
16.758,-2.092,-0.558,14.0
15.374,-1.921,-0.595,14.0
29.261,-3.654,-0.312,22.0
23.3,-2.912,-0.374,28.0
20.771,-2.597,-0.444,20.0
18.509,-2.316,-0.497,16.0
17.118,-2.143,-0.552,14.0
15.536,-1.947,-0.584,15.0
30.355,-3.802,-0.291,9.0
24.039,-3.012,-0.359,30.0
21.077,-2.642,-0.428,18.0
18.891,-2.37,-0.487,16.0
17.423,-2.187,-0.543,15.0
15.778,-1.982,-0.576,14.0
35.44,-4.449,-0.301,5.0
0.0,0.0,0.0,0.0
21.348,-2.682,-0.41,16.0
19.373,-2.435,-0.478,17.0
17.723,-2.229,-0.532,15.0
16.108,-2.027,-0.57,14.0
35.79,-4.502,-0.264,23.0
25.896,-3.259,-0.33,7.0
0.0,0.0,0.0,0.0
19.842,-2.499,-0.468,20.0
18.066,-2.276,-0.522,16.0
16.353,-2.061,-0.561,14.0
36.556,-4.606,-0.229,13.0
0.0,0.0,0.0,0.0
22.918,-2.889,-0.389,21.0
20.294,-2.559,-0.455,21.0
18.409,-2.323,-0.512,18.0
16.733,-2.112,-0.555,15.0
37.489,-4.73,-0.193,20.0
29.216,-3.687,-0.307,22.0
23.491,-2.965,-0.372,22.0
20.671,-2.61,-0.441,19.0
18.626,-2.352,-0.497,16.0
17.341,-2.191,-0.555,16.0
38.281,-4.834,-0.154,17.0
30.51,-3.853,-0.286,9.0
24.096,-3.044,-0.355,24.0
21.01,-2.654,-0.424,17.0
19.041,-2.406,-0.486,17.0
17.509,-2.213,-0.541,16.0
38.741,-4.895,-0.112,14.0
35.595,-4.498,-0.293,7.0
24.548,-3.102,-0.334,16.0
21.702,-2.743,-0.413,18.0
19.533,-2.469,-0.477,17.0
17.791,-2.249,-0.529,16.0
43.108,-5.448,-0.075,3.0
36.032,-4.554,-0.256,13.0
25.814,-3.262,-0.321,6.0
22.514,-2.845,-0.403,20.0
19.971,-2.524,-0.464,20.0
18.288,-2.311,-0.523,18.0
46.037,-5.817,-0.028,10.0
36.998,-4.674,-0.22,14.0
0.0,0.0,0.0,0.0
23.065,-2.913,-0.386,22.0
20.449,-2.583,-0.452,21.0
18.48,-2.334,-0.507,17.0
46.448,-5.866,0.024,21.0
37.907,-4.786,-0.182,21.0
29.727,-3.753,-0.302,21.0
23.653,-2.985,-0.369,23.0
20.83,-2.629,-0.437,18.0
18.804,-2.373,-0.494,17.0
47.298,-5.968,0.079,22.0
38.559,-4.864,-0.141,14.0
35.482,-4.474,-0.32,2.0
24.312,-3.065,-0.351,19.0
21.152,-2.666,-0.419,16.0
19.232,-2.424,-0.483,17.0
0.0,0.0,0.0,0.0
0.0,0.0,0.0,0.0
35.795,-4.507,-0.281,12.0
0.0,0.0,0.0,0.0
0.0,0.0,0.0,0.0
19.78,-2.488,-0.475,20.0
52.266,-6.575,0.207,7.0
0.0,0.0,0.0,0.0
36.327,-4.566,-0.243,13.0
28.995,-3.643,-0.352,4.0
22.873,-2.873,-0.4,22.0
20.325,-2.552,-0.464,24.0
62.672,-7.868,0.321,11.0
45.715,-5.736,-0.01,20.0
37.472,-4.699,-0.208,14.0
29.423,-3.688,-0.324,21.0
23.257,-2.914,-0.38,28.0
20.717,-2.595,-0.45,21.0
76.586,-9.592,0.48,14.0
46.737,-5.85,0.042,21.0
38.318,-4.793,-0.17,18.0
30.418,-3.803,-0.3,9.0
24.165,-3.02,-0.368,31.0
21.267,-2.656,-0.438,19.0
76.639,-9.572,0.567,15.0
50.938,-6.358,0.104,6.0
0.0,0.0,0.0,0.0
35.449,-4.419,-0.31,11.0
25.154,-3.133,-0.355,21.0
21.952,-2.733,-0.427,19.0
76.647,-9.543,0.653,7.0
51.977,-6.466,0.165,18.0
40.836,-5.076,-0.088,15.0
35.883,-4.457,-0.273,23.0
25.785,-3.201,-0.334,10.0
22.609,-2.805,-0.414,20.0
90.783,-11.263,0.877,4.0
66.803,-8.281,0.288,9.0
45.97,-5.693,-0.047,20.0
36.971,-4.575,-0.24,14.0
0.0,0.0,0.0,0.0
23.264,-2.874,-0.4,21.0
94.025,-11.619,1.013,16.0
66.817,-8.249,0.363,3.0
46.381,-5.721,0.003,21.0
37.808,-4.659,-0.203,20.0
29.974,-3.691,-0.321,21.0
23.952,-2.947,-0.385,20.0
73.211,-9.008,0.871,22.0
83.799,-10.3,0.548,10.0
47.139,-5.788,0.055,19.0
38.578,-4.732,-0.165,14.0
35.322,-4.329,-0.34,2.0
24.895,-3.048,-0.373,21.0
73.249,-8.97,0.951,15.0
84.233,-10.304,0.643,6.0
0.0,0.0,0.0,0.0
0.0,0.0,0.0,0.0
35.547,-4.335,-0.303,16.0
25.342,-3.087,-0.352,13.0
73.298,-8.931,1.032,6.0
90.224,-10.98,0.786,5.0
52.366,-6.365,0.176,12.0
45.405,-5.513,-0.095,6.0
36.03,-4.37,-0.269,16.0
0.0,0.0,0.0,0.0
73.332,-8.886,1.111,11.0
90.331,-10.932,0.884,9.0
65.859,-7.96,0.292,7.0
0.0,0.0,0.0,0.0
37.248,-4.491,-0.238,15.0
29.516,-3.555,-0.347,26.0
118.793,-14.31,1.926,14.0
100.841,-12.131,1.094,6.0
83.406,-10.02,0.458,7.0
46.578,-5.588,0.0,21.0
38.241,-4.582,-0.204,24.0
30.42,-3.64,-0.325,23.0
73.254,-8.769,1.265,10.0
107.727,-12.877,1.282,10.0
84.176,-10.048,0.55,14.0
47.034,-5.606,0.049,4.0
38.729,-4.61,-0.166,14.0
35.248,-4.19,-0.341,7.0
73.197,-8.704,1.338,5.0
73.129,-8.683,0.945,22.0
84.671,-10.038,0.639,10.0
51.034,-6.041,0.106,25.0
0.0,0.0,0.0,0.0
35.474,-4.187,-0.307,26.0
119.076,-14.06,2.299,20.0
73.134,-8.622,1.019,22.0
85.266,-10.036,0.729,6.0
51.291,-6.027,0.158,7.0
42.46,-4.982,-0.097,16.0
36.184,-4.239,-0.276,13.0
73.396,-8.602,1.49,13.0
118.517,-13.866,1.769,9.0
75.227,-8.787,0.719,30.0
51.444,-5.998,0.21,1.0
45.714,-5.322,-0.059,20.0
37.358,-4.342,-0.249,17.0
73.61,-8.559,1.567,16.0
75.229,-8.731,1.196,25.0
75.205,-8.713,0.792,31.0
75.162,-8.693,0.379,16.0
46.69,-5.391,-0.015,20.0
38.353,-4.421,-0.218,19.0
75.144,-8.665,1.672,13.0
74.967,-8.628,1.265,42.0
75.208,-8.639,0.864,32.0
75.212,-8.624,0.452,20.0
0.0,0.0,0.0,0.0
39.015,-4.457,-0.185,14.0
75.057,-8.579,1.741,25.0
75.047,-8.561,1.337,37.0
75.259,-8.568,0.935,26.0
75.306,-8.557,0.522,22.0
0.0,0.0,0.0,0.0
0.0,0.0,0.0,0.0
74.27,-8.411,1.792,38.0
75.203,-8.499,1.409,26.0
75.334,-8.496,1.005,14.0
89.963,-10.126,0.707,10.0
50.392,-5.66,0.124,6.0
42.496,-4.764,-0.123,17.0
74.471,-8.352,1.865,43.0
75.234,-8.419,1.479,20.0
114.277,-12.761,1.629,10.0
89.627,-9.987,0.785,11.0
63.065,-7.013,0.212,4.0
0.0,0.0,0.0,0.0
75.037,-8.33,1.946,28.0
33.138,-3.67,0.68,0.0
118.758,-13.124,1.797,17.0
90.612,-9.992,0.873,9.0
83.425,-9.18,0.353,1.0
46.22,-5.075,-0.053,21.0
33.152,-3.641,0.888,53.0
33.136,-3.631,0.708,46.0
33.138,-3.623,0.529,44.0
33.133,-3.614,0.347,41.0
33.133,-3.606,0.168,37.0
33.14,-3.599,-0.01,26.0
33.144,-3.6,0.915,85.0
33.138,-3.591,0.736,81.0
33.121,-3.58,0.557,80.0
33.122,-3.572,0.374,80.0
33.115,-3.563,0.195,75.0
33.098,-3.552,0.016,77.0
33.16,-3.561,0.943,74.0
33.149,-3.55,0.763,73.0
33.133,-3.539,0.584,74.0
33.127,-3.53,0.401,76.0
33.093,-3.518,0.221,81.0
33.09,-3.51,0.042,85.0
78.533,-8.332,2.296,9.0
33.178,-3.511,0.79,4.0
33.151,-3.499,0.609,15.0
33.121,-3.487,0.426,46.0
33.147,-3.481,0.247,65.0
33.124,-3.47,0.067,66.0
78.247,-8.201,2.346,14.0
78.818,-8.238,1.936,17.0
104.611,-10.904,2.001,9.0
104.638,-10.879,1.424,6.0
87.474,-9.07,0.717,6.0
53.807,-5.564,0.149,2.0
73.919,-7.647,2.27,21.0
74.867,-7.723,1.893,12.0
104.54,-10.754,2.076,12.0
135.403,-13.89,1.941,48.0
98.267,-10.053,0.875,5.0
63.28,-6.457,0.22,1.0
74.39,-7.593,2.337,46.0
78.727,-8.012,2.046,9.0
74.819,-7.593,1.537,24.0
135.396,-13.701,2.033,150.0
111.336,-11.234,1.067,3.0
79.716,-8.021,0.332,6.0
78.601,-7.911,2.522,21.0
78.407,-7.868,2.089,20.0
78.72,-7.876,1.67,23.0
135.45,-13.512,2.124,144.0
111.304,-11.07,1.14,11.0
79.964,-7.93,0.384,8.0
78.917,-7.829,2.583,19.0
73.961,-7.315,2.018,4.0
78.799,-7.769,1.722,10.0
135.511,-13.321,2.209,150.0
111.466,-10.923,1.211,10.0
84.973,-8.302,0.461,10.0
78.569,-7.678,2.62,28.0
119.164,-11.609,3.324,9.0
135.514,-13.159,3.042,34.0
119.229,-11.542,2.015,105.0
111.846,-10.794,1.28,8.0
85.375,-8.214,0.513,12.0
74.254,-7.145,2.519,16.0
104.38,-10.011,2.971,13.0
119.23,-11.399,2.744,22.0
119.236,-11.362,2.082,15.0
119.13,-11.315,1.431,5.0
85.168,-8.063,0.559,11.0
78.74,-7.456,2.715,26.0
104.529,-9.864,3.033,9.0
119.246,-11.215,2.808,19.0
119.248,-11.177,2.147,13.0
119.117,-11.128,1.494,10.0
86.786,-8.08,0.615,13.0
78.463,-7.306,2.746,36.0
103.89,-9.639,3.069,8.0
75.439,-6.974,1.816,3.0
135.562,-12.49,2.509,150.0
119.119,-10.936,1.554,15.0
86.515,-7.917,0.656,7.0
0.0,0.0,0.0,0.0
104.166,-9.498,3.126,12.0
119.225,-10.831,2.926,28.0
126.416,-11.444,2.399,23.0
119.166,-10.748,1.61,18.0
89.524,-8.047,0.72,8.0
72.334,-6.502,2.6,9.0
104.456,-9.353,3.182,14.0
75.555,-6.739,1.888,13.0
126.445,-11.237,2.455,28.0
135.682,-12.015,1.892,90.0
93.095,-8.212,0.789,2.0
67.95,-5.994,2.471,42.0
103.689,-9.111,3.201,10.0
72.414,-6.339,1.839,7.0
119.213,-10.396,2.363,49.0
119.217,-10.356,1.71,27.0
111.961,-9.689,0.992,4.0
67.951,-5.879,2.497,57.0
102.853,-8.863,3.216,13.0
72.688,-6.239,1.873,10.0
126.478,-10.815,2.554,17.0
119.245,-10.156,1.754,19.0
112.006,-9.502,1.033,6.0
67.949,-5.763,2.521,40.0
71.843,-6.069,2.271,3.0
72.53,-6.102,1.894,17.0
126.496,-10.598,2.596,61.0
119.294,-9.955,1.794,17.0
114.383,-9.507,1.092,6.0
67.946,-5.645,2.542,52.0
72.08,-5.964,2.301,10.0
72.579,-5.98,1.918,12.0
119.313,-9.789,2.485,40.0
119.349,-9.752,1.829,42.0
114.563,-9.323,1.127,7.0
67.929,-5.526,2.561,34.0
72.55,-5.875,2.335,20.0
119.328,-9.623,3.185,60.0
119.328,-9.581,2.516,24.0
119.293,-9.536,1.859,19.0
114.417,-9.108,1.154,8.0
73.116,-5.818,2.774,4.0
72.549,-5.747,2.353,8.0
67.916,-5.355,1.828,43.0
67.884,-5.329,1.446,72.0
67.87,-5.305,1.073,89.0
67.865,-5.281,0.699,90.0
67.92,-5.282,2.591,91.0
67.898,-5.255,2.215,72.0
67.927,-5.234,1.842,42.0
72.537,-5.563,1.56,4.0
119.357,-9.113,1.908,101.0
119.21,-9.06,1.249,15.0
67.917,-5.158,2.603,29.0
71.938,-5.437,2.359,27.0
71.755,-5.397,1.957,7.0
119.351,-8.935,2.584,27.0
119.365,-8.894,1.925,42.0
20.035,-1.485,0.212,14.0
67.919,-5.033,2.611,54.0
72.333,-5.334,2.381,38.0
20.033,-1.469,0.548,4.0
20.014,-1.461,0.435,8.0
20.014,-1.454,0.325,10.0
20.022,-1.448,0.214,42.0
67.905,-4.908,2.617,57.0
20.02,-1.439,0.661,8.0
19.99,-1.43,0.549,10.0
19.999,-1.423,0.436,10.0
20.012,-1.417,0.326,9.0
20.025,-1.411,0.216,7.0
67.892,-4.78,2.621,54.0
19.998,-1.4,0.661,11.0
20.0,-1.394,0.55,10.0
20.022,-1.388,0.438,8.0
119.389,-8.234,1.951,77.0
119.279,-8.185,1.29,16.0
72.199,-4.949,2.788,12.0
20.0,-1.363,0.661,11.0
20.075,-1.361,0.552,13.0
20.047,-1.352,0.438,5.0
19.968,-1.339,0.326,10.0
19.962,-1.332,0.215,23.0
20.07,-1.337,0.774,2.0
19.994,-1.325,0.66,10.0
19.935,-1.314,0.548,13.0
19.922,-1.306,0.435,14.0
19.923,-1.299,0.324,17.0
19.954,-1.293,0.214,24.0
19.989,-1.293,0.77,11.0
19.946,-1.283,0.657,18.0
19.946,-1.276,0.547,22.0
19.908,-1.267,0.433,18.0
19.935,-1.261,0.323,21.0
19.977,-1.257,0.213,24.0
19.989,-1.255,0.768,12.0
19.95,-1.245,0.655,19.0
19.945,-1.238,0.544,26.0
19.926,-1.23,0.431,22.0
19.933,-1.223,0.32,21.0
19.972,-1.218,0.21,80.0
19.995,-1.217,0.765,16.0
19.957,-1.208,0.653,19.0
19.97,-1.201,0.542,21.0
19.909,-1.19,0.428,18.0
19.928,-1.184,0.317,18.0
20.01,-1.182,0.207,13.0
19.997,-1.179,0.762,19.0
19.961,-1.169,0.649,20.0
19.95,-1.161,0.538,23.0
19.918,-1.152,0.424,19.0
19.934,-1.146,0.313,18.0
19.966,-1.141,0.202,16.0
20.003,-1.14,0.758,19.0
19.976,-1.131,0.645,22.0
19.965,-1.123,0.534,20.0
19.934,-1.114,0.42,19.0
19.942,-1.107,0.308,19.0
19.99,-1.103,0.198,22.0
20.009,-1.101,0.753,18.0
19.969,-1.092,0.64,19.0
19.965,-1.084,0.528,22.0
19.942,-1.076,0.414,19.0
19.959,-1.07,0.303,16.0
19.995,-1.064,0.192,20.0
20.008,-1.062,0.747,14.0
19.968,-1.052,0.634,18.0
19.962,-1.045,0.522,16.0
19.981,-1.039,0.409,10.0
20.026,-1.034,0.298,12.0
20.048,-1.028,0.186,16.0
20.027,-1.023,0.741,11.0
20.072,-1.018,0.63,16.0
20.126,-1.014,0.519,20.0
20.134,-1.007,0.405,25.0
20.154,-1.0,0.292,23.0
20.168,-0.994,0.18,2.0
20.091,-0.987,0.736,15.0
20.1,-0.98,0.624,24.0
20.125,-0.973,0.511,23.0
20.122,-0.966,0.397,18.0
20.148,-0.96,0.284,0.0
138.197,-6.539,1.18,26.0
20.095,-0.947,0.728,17.0
20.099,-0.94,0.615,17.0
20.134,-0.934,0.503,9.0
192.843,-8.883,3.723,7.0
138.055,-6.31,1.891,30.0
138.254,-6.272,1.12,20.0
20.124,-0.909,0.72,2.0
20.162,-0.903,0.608,0.0
193.54,-8.605,4.752,23.0
192.935,-8.51,3.635,23.0
138.083,-6.043,1.827,22.0
138.05,-5.993,1.053,26.0
104.276,-4.507,3.68,14.0
193.834,-8.31,5.752,15.0
193.025,-8.204,4.643,24.0
192.575,-8.117,3.531,26.0
187.282,-7.828,2.383,17.0
138.396,-5.737,0.984,16.0
104.262,-4.302,3.624,14.0
193.839,-7.93,5.649,24.0
192.83,-7.819,4.535,17.0
193.257,-7.77,3.44,19.0
0.0,0.0,0.0,0.0
138.464,-5.468,0.907,14.0
207.267,-8.143,7.088,6.0
193.299,-7.524,5.521,11.0
193.001,-7.444,4.427,7.0
193.376,-7.389,3.327,22.0
0.0,0.0,0.0,0.0
138.506,-5.198,0.825,10.0
194.497,-7.259,6.533,21.0
192.841,-7.127,5.39,22.0
193.328,-7.076,4.314,19.0
193.312,-7.008,3.206,8.0
138.521,-4.974,1.517,9.0
138.473,-4.925,0.737,4.0
193.859,-6.852,6.387,27.0
193.202,-6.76,5.274,19.0
187.409,-6.49,4.059,37.0
187.4,-6.423,2.982,19.0
138.578,-4.701,1.424,17.0
0.0,0.0,0.0,0.0
194.785,-6.498,6.282,19.0
193.994,-6.402,5.16,24.0
194.004,-6.333,4.065,18.0
138.558,-4.477,2.108,8.0
138.672,-4.432,1.327,23.0
0.0,0.0,0.0,0.0
205.772,-6.456,6.485,7.0
194.006,-6.022,5.019,26.0
194.444,-5.967,3.931,21.0
138.601,-4.206,2.005,11.0
138.446,-4.154,1.222,21.0
0.0,0.0,0.0,0.0
0.0,0.0,0.0,0.0
0.0,0.0,0.0,0.0
195.066,-5.607,3.794,9.0
138.618,-3.938,1.898,4.0
138.632,-3.89,1.114,23.0
0.0,0.0,0.0,0.0
207.263,-5.695,6.209,5.0
205.453,-5.576,4.991,14.0
195.076,-5.227,3.635,9.0
0.0,0.0,0.0,0.0
138.807,-3.626,1.002,16.0
0.0,0.0,0.0,0.0
0.0,0.0,0.0,0.0
118.038,-2.976,2.768,10.0
193.353,-4.808,3.439,23.0
0.0,0.0,0.0,0.0
138.895,-3.359,0.883,11.0
0.0,0.0,0.0,0.0
207.404,-4.896,5.857,9.0
118.009,-2.745,2.663,7.0
193.152,-4.43,3.264,16.0
139.08,-3.144,1.548,3.0
138.876,-3.092,0.758,8.0
0.0,0.0,0.0,0.0
209.361,-4.538,5.72,16.0
194.021,-4.142,4.2,18.0
193.237,-4.06,3.086,9.0
139.0,-2.874,1.417,12.0
0.0,0.0,0.0,0.0
0.0,0.0,0.0,0.0
112.765,-2.228,2.973,26.0
193.697,-3.764,4.007,26.0
139.049,-2.656,2.087,7.0
139.017,-2.61,1.283,23.0
0.0,0.0,0.0,0.0
0.0,0.0,0.0,0.0
112.617,-2.01,2.858,21.0
193.96,-3.4,3.82,20.0
139.093,-2.394,1.949,5.0
139.068,-2.348,1.144,20.0
97.856,-1.62,0.249,1.0
0.0,0.0,0.0,0.0
205.687,-3.287,5.011,5.0
194.565,-3.049,3.635,9.0
138.888,-2.131,1.804,17.0
138.812,-2.087,1.0,25.0
0.0,0.0,0.0,0.0
0.0,0.0,0.0,0.0
206.567,-2.916,4.814,17.0
204.231,-2.819,3.598,19.0
0.0,0.0,0.0,0.0
139.15,-1.834,0.854,9.0
0.0,0.0,0.0,0.0
0.0,0.0,0.0,0.0
210.51,-2.584,4.678,8.0
204.318,-2.443,3.376,17.0
139.338,-1.621,1.508,9.0
119.764,-1.357,0.602,7.0
0.0,0.0,0.0,0.0
0.0,0.0,0.0,0.0
119.735,-1.249,2.525,150.0
119.743,-1.211,1.842,150.0
119.704,-1.176,1.161,36.0
0.0,0.0,0.0,0.0
0.0,0.0,0.0,0.0
0.0,0.0,0.0,0.0
119.738,-1.033,2.387,72.0
119.734,-0.996,1.704,33.0
119.715,-0.96,1.022,16.0
0.0,0.0,0.0,0.0
0.0,0.0,0.0,0.0
0.0,0.0,0.0,0.0
119.79,-0.818,2.246,15.0
119.709,-0.781,1.561,16.0
114.228,-0.711,0.837,8.0
0.0,0.0,0.0,0.0
0.0,0.0,0.0,0.0
0.0,0.0,0.0,0.0
119.816,-0.604,2.099,55.0
119.696,-0.569,1.414,14.0
111.046,-0.495,0.678,6.0
0.0,0.0,0.0,0.0
0.0,0.0,0.0,0.0
0.0,0.0,0.0,0.0
119.784,-0.396,1.95,6.0
119.769,-0.36,1.265,16.0
0.0,0.0,0.0,0.0
0.0,0.0,0.0,0.0
0.0,0.0,0.0,0.0
39.827,-0.074,-0.493,0.0
117.378,-0.186,1.761,15.0
117.287,-0.151,1.088,13.0
97.644,-0.097,0.347,2.0
0.0,0.0,0.0,0.0
45.8,-0.019,-0.365,1.0
37.251,-0.005,-0.51,0.0
111.174,0.015,1.52,17.0
110.954,0.046,0.883,9.0
0.0,0.0,0.0,0.0
0.0,0.0,0.0,0.0
45.108,0.057,-0.419,1.0
35.607,0.054,-0.535,0.0
111.187,0.202,1.372,15.0
104.352,0.219,0.689,10.0
0.0,0.0,0.0,0.0
52.957,0.14,-0.261,0.0
42.758,0.125,-0.456,0.0
33.723,0.108,-0.553,0.0
111.132,0.387,1.218,20.0
103.942,0.391,0.543,2.0
70.808,0.285,-0.034,0.0
48.835,0.21,-0.309,0.0
0.0,0.0,0.0,0.0
32.947,0.159,-0.586,0.0
111.01,0.569,1.061,19.0
87.693,0.472,0.336,1.0
0.0,0.0,0.0,0.0
46.043,0.273,-0.356,0.0
0.0,0.0,0.0,0.0
30.528,0.197,-0.586,0.0
104.788,0.705,0.853,20.0
85.178,0.595,0.205,4.0
0.0,0.0,0.0,0.0
42.95,0.323,-0.393,0.0
0.0,0.0,0.0,0.0
29.284,0.235,-0.604,0.0
98.191,0.816,0.656,16.0
0.0,0.0,0.0,0.0
53.54,0.472,-0.256,0.0
41.025,0.372,-0.435,0.0
33.585,0.313,-0.549,0.0
0.0,0.0,0.0,0.0
85.552,0.845,0.444,6.0
0.0,0.0,0.0,0.0
0.0,0.0,0.0,0.0
40.76,0.433,-0.493,0.0
32.152,0.35,-0.574,0.0
27.009,0.3,-0.637,0.0
85.185,0.971,0.315,6.0
0.0,0.0,0.0,0.0
0.0,0.0,0.0,0.0
37.095,0.45,-0.505,0.0
30.842,0.381,-0.597,0.0
25.954,0.327,-0.652,1.0
80.941,1.044,0.176,1.0
0.0,0.0,0.0,0.0
43.992,0.588,-0.41,1.0
35.069,0.478,-0.531,0.0
29.197,0.405,-0.61,0.0
25.326,0.357,-0.675,0.0
75.867,1.089,0.047,1.0
53.432,0.78,-0.273,0.0
41.617,0.617,-0.452,0.0
33.095,0.499,-0.553,0.0
27.975,0.428,-0.628,0.0
24.196,0.376,-0.682,0.0
0.0,0.0,0.0,0.0
0.0,0.0,0.0,0.0
0.0,0.0,0.0,0.0
30.56,0.504,-0.559,0.0
26.749,0.447,-0.643,0.0
23.396,0.397,-0.697,0.0
0.0,0.0,0.0,0.0
45.86,0.799,-0.38,1.0
0.0,0.0,0.0,0.0
30.115,0.539,-0.599,0.0
26.065,0.472,-0.669,0.0
22.665,0.416,-0.712,0.0
0.0,0.0,0.0,0.0
43.133,0.811,-0.427,0.0
34.934,0.664,-0.547,0.0
29.046,0.559,-0.625,0.0
24.737,0.482,-0.675,0.0
0.0,0.0,0.0,0.0
0.0,0.0,0.0,0.0
0.0,0.0,0.0,0.0
0.0,0.0,0.0,0.0
27.417,0.564,-0.636,0.0
23.863,0.496,-0.691,0.0
21.077,0.443,-0.732,0.0
47.849,1.017,-0.357,0.0
0.0,0.0,0.0,0.0
30.552,0.662,-0.58,0.0
26.243,0.574,-0.652,0.0
22.613,0.499,-0.692,0.0
20.174,0.45,-0.734,0.0
44.773,1.008,-0.409,0.0
34.839,0.792,-0.519,0.0
29.417,0.675,-0.608,0.0
25.206,0.583,-0.669,0.0
22.19,0.518,-0.717,0.0
19.509,0.46,-0.743,0.0
0.0,0.0,0.0,0.0
32.941,0.789,-0.547,0.0
27.813,0.672,-0.622,0.0
23.812,0.58,-0.672,0.0
21.27,0.523,-0.723,0.0
18.863,0.467,-0.751,0.0
38.392,0.959,-0.482,0.0
30.819,0.776,-0.564,0.0
26.67,0.676,-0.642,0.0
23.205,0.593,-0.695,0.0
20.406,0.526,-0.729,0.0
18.423,0.478,-0.765,0.0
36.092,0.944,-0.515,0.0
28.626,0.754,-0.574,0.0
25.618,0.68,-0.661,0.0
22.453,0.6,-0.712,0.0
19.782,0.532,-0.741,0.0
17.619,0.478,-0.762,0.0
33.566,0.916,-0.538,0.0
28.518,0.784,-0.622,1.0
24.258,0.671,-0.669,0.0
21.455,0.597,-0.718,0.0
19.144,0.537,-0.751,0.0
17.373,0.49,-0.782,0.0
31.869,0.905,-0.567,0.0
26.825,0.767,-0.632,0.0
23.564,0.678,-0.691,0.0
20.535,0.594,-0.723,0.0
18.412,0.536,-0.755,0.0
16.789,0.492,-0.785,0.0
29.611,0.872,-0.579,0.0
25.857,0.766,-0.655,0.0
22.494,0.67,-0.699,0.0
19.966,0.599,-0.738,0.0
17.878,0.539,-0.765,0.0
16.431,0.498,-0.798,0.0
28.626,0.873,-0.61,2.0
24.683,0.756,-0.668,0.0
21.664,0.667,-0.712,0.0
19.177,0.594,-0.743,0.0
17.426,0.543,-0.776,0.0
15.864,0.497,-0.798,0.0
27.006,0.85,-0.623,0.0
23.751,0.751,-0.685,0.0
20.782,0.66,-0.72,0.0
18.499,0.591,-0.75,0.0
16.905,0.543,-0.783,0.0
15.411,0.498,-0.803,0.0
25.976,0.842,-0.646,0.0
22.672,0.738,-0.695,0.0
20.05,0.656,-0.731,0.0
18.072,0.594,-0.765,0.0
16.417,0.542,-0.79,0.0
15.07,0.5,-0.813,0.0
24.866,0.828,-0.663,0.0
21.726,0.727,-0.705,0.0
19.541,0.657,-0.747,0.0
17.4,0.588,-0.768,0.0
15.738,0.534,-0.786,0.0
14.735,0.502,-0.821,0.0
23.787,0.813,-0.677,0.0
20.898,0.717,-0.716,0.0
18.798,0.648,-0.753,0.0
17.018,0.589,-0.782,0.0
15.536,0.54,-0.804,0.0
14.333,0.501,-0.825,0.0
22.66,0.794,-0.686,0.0
20.074,0.706,-0.724,0.0
18.104,0.639,-0.758,0.0
16.602,0.588,-0.793,0.0
15.143,0.539,-0.811,0.0
13.992,0.5,-0.83,0.0
21.905,0.784,-0.703,0.0
19.577,0.704,-0.741,0.0
17.588,0.635,-0.768,0.0
15.838,0.574,-0.785,0.0
14.745,0.536,-0.816,0.0
13.662,0.499,-0.836,0.0
21.103,0.771,-0.715,0.0
18.752,0.688,-0.744,0.0
17.141,0.631,-0.78,0.0
15.588,0.576,-0.801,0.0
14.418,0.535,-0.825,0.0
13.278,0.494,-0.837,0.0
20.285,0.756,-0.725,0.0
18.357,0.687,-0.762,0.0
16.513,0.62,-0.782,0.0
15.21,0.573,-0.809,0.0
14.021,0.53,-0.828,0.0
13.09,0.496,-0.849,0.0
19.607,0.744,-0.737,0.0
17.693,0.673,-0.767,0.0
16.081,0.614,-0.79,0.0
14.798,0.567,-0.815,0.0
13.754,0.529,-0.837,0.0
12.785,0.493,-0.853,0.0
18.884,0.729,-0.744,0.0
17.117,0.662,-0.773,0.0
15.698,0.609,-0.8,0.0
14.398,0.56,-0.819,0.0
13.407,0.523,-0.841,0.0
12.347,0.484,-0.846,0.0
18.249,0.715,-0.752,0.0
16.652,0.654,-0.783,0.0
15.163,0.597,-0.801,0.0
14.061,0.555,-0.826,0.0
13.104,0.519,-0.845,0.0
12.067,0.479,-0.849,0.0
17.775,0.706,-0.765,0.0
16.179,0.644,-0.79,0.0
14.905,0.595,-0.814,0.0
13.735,0.55,-0.831,0.0
12.793,0.513,-0.849,0.0
11.772,0.474,-0.85,0.0
17.202,0.692,-0.771,0.0
15.698,0.633,-0.795,0.0
14.49,0.586,-0.818,0.0
13.438,0.545,-0.838,0.0
12.347,0.502,-0.842,0.0
11.53,0.47,-0.853,0.0
16.687,0.679,-0.778,0.0
15.282,0.623,-0.802,0.0
14.147,0.578,-0.824,0.0
13.158,0.539,-0.844,0.0
12.09,0.497,-0.846,0.0
11.308,0.466,-0.857,0.0
16.204,0.667,-0.786,0.0
14.951,0.616,-0.811,0.0
13.795,0.57,-0.829,0.0
12.812,0.53,-0.846,0.0
11.794,0.489,-0.847,0.0
11.147,0.464,-0.866,0.0
15.773,0.655,-0.793,0.0
14.551,0.605,-0.816,0.0
13.501,0.563,-0.836,0.0
12.41,0.519,-0.842,0.0
11.573,0.485,-0.852,0.0
10.96,0.46,-0.871,0.0
15.365,0.644,-0.801,0.0
14.22,0.597,-0.823,0.0
13.247,0.557,-0.844,0.0
12.151,0.512,-0.846,0.0
11.321,0.478,-0.854,0.0
10.75,0.455,-0.874,0.0
15.013,0.633,-0.809,0.0
13.885,0.587,-0.829,0.0
12.902,0.546,-0.845,0.0
11.812,0.501,-0.844,0.0
11.194,0.476,-0.865,0.0
10.519,0.448,-0.874,0.0
14.564,0.618,-0.811,0.0
13.563,0.577,-0.834,0.0
12.452,0.53,-0.838,0.0
11.65,0.497,-0.853,0.0
11.0,0.47,-0.87,0.0
10.333,0.442,-0.877,0.0
14.324,0.611,-0.823,0.0
13.191,0.564,-0.835,0.0
12.244,0.524,-0.846,0.0
11.346,0.486,-0.851,0.0
10.79,0.463,-0.872,0.0
10.213,0.439,-0.885,0.0
13.889,0.596,-0.823,0.0
12.889,0.553,-0.838,0.0
11.906,0.512,-0.844,0.0
11.213,0.483,-0.861,0.0
10.582,0.456,-0.874,0.0
10.044,0.434,-0.888,0.0
13.661,0.588,-0.833,0.0
12.602,0.543,-0.842,0.0
11.675,0.504,-0.848,0.0
11.048,0.477,-0.868,0.0
10.392,0.449,-0.877,0.0
9.898,0.428,-0.893,0.0
13.334,0.575,-0.836,0.0
12.311,0.532,-0.844,0.0
11.415,0.493,-0.849,0.0
10.825,0.468,-0.869,0.0
10.24,0.444,-0.882,0.0
9.761,0.423,-0.898,0.0
12.973,0.561,-0.836,0.0
11.983,0.518,-0.842,0.0
11.27,0.488,-0.857,0.0
10.623,0.46,-0.871,0.0
10.112,0.439,-0.888,0.0
9.602,0.417,-0.899,0.0
12.812,0.554,-0.848,0.0
11.734,0.508,-0.845,0.0
11.106,0.481,-0.864,0.0
10.458,0.453,-0.876,0.0
9.968,0.432,-0.893,0.0
9.506,0.413,-0.907,0.0
12.409,0.536,-0.842,0.0
11.538,0.499,-0.85,0.0
10.918,0.473,-0.868,0.0
10.279,0.445,-0.878,0.0
9.832,0.426,-0.897,0.0
9.307,0.404,-0.904,0.0
12.1,0.522,-0.842,0.0
11.325,0.489,-0.854,0.0
10.718,0.463,-0.87,0.0
10.158,0.439,-0.885,0.0
9.692,0.419,-0.901,0.0
9.19,0.398,-0.908,0.0
11.844,0.51,-0.844,0.0
11.185,0.482,-0.862,0.0
10.538,0.454,-0.873,0.0
9.986,0.431,-0.886,0.0
9.555,0.412,-0.904,0.0
8.987,0.388,-0.903,0.0
11.644,0.5,-0.848,0.0
10.998,0.473,-0.865,0.0
10.374,0.446,-0.876,0.0
9.851,0.424,-0.891,0.0
9.393,0.404,-0.904,0.0
8.982,0.387,-0.917,0.0
11.363,0.486,-0.846,0.0
10.828,0.463,-0.869,0.0
10.246,0.439,-0.882,0.0
9.733,0.417,-0.896,0.0
9.324,0.399,-0.913,0.0
8.83,0.378,-0.916,0.0
11.281,0.48,-0.858,0.0
10.628,0.453,-0.87,0.0
10.072,0.429,-0.883,0.0
9.638,0.411,-0.902,0.0
9.175,0.391,-0.913,0.0
8.732,0.372,-0.92,0.0
11.105,0.47,-0.863,0.0
10.483,0.444,-0.875,0.0
9.96,0.422,-0.889,0.0
9.468,0.401,-0.901,0.0
9.078,0.384,-0.917,0.0
8.633,0.365,-0.923,0.0
10.945,0.461,-0.867,0.0
10.323,0.434,-0.878,0.0
9.854,0.414,-0.895,0.0
9.411,0.396,-0.911,0.0
8.88,0.373,-0.911,0.0
8.475,0.356,-0.919,0.0
10.751,0.449,-0.868,0.0
10.159,0.424,-0.879,0.0
9.716,0.405,-0.898,0.0
9.157,0.382,-0.9,0.0
8.817,0.368,-0.918,0.0
8.411,0.351,-0.925,0.0
10.569,0.438,-0.869,0.0
10.046,0.416,-0.885,0.0
9.547,0.395,-0.896,0.0
0.0,0.0,0.0,0.0
8.674,0.359,-0.916,0.0
8.315,0.344,-0.927,0.0
10.387,0.426,-0.87,0.0
9.95,0.408,-0.891,0.0
9.447,0.387,-0.9,0.0
9.0,0.369,-0.911,0.0
8.667,0.355,-0.928,0.0
8.192,0.335,-0.925,0.0
10.278,0.417,-0.875,0.0
9.819,0.398,-0.893,0.0
9.305,0.377,-0.9,0.0
9.029,0.366,-0.927,0.0
8.48,0.343,-0.92,0.0
8.096,0.328,-0.926,0.0
10.173,0.409,-0.881,0.0
9.745,0.391,-0.9,0.0
9.261,0.371,-0.909,0.0
8.805,0.353,-0.917,0.0
8.361,0.335,-0.919,0.0
8.065,0.322,-0.934,0.0
10.05,0.399,-0.884,0.0
9.583,0.38,-0.899,0.0
9.052,0.359,-0.901,0.0
0.0,0.0,0.0,0.0
8.331,0.329,-0.927,0.0
7.982,0.315,-0.935,0.0
9.926,0.389,-0.887,0.0
9.471,0.37,-0.901,0.0
9.006,0.352,-0.909,0.0
0.0,0.0,0.0,0.0
8.219,0.32,-0.926,0.0
7.891,0.307,-0.935,0.0
9.838,0.38,-0.892,0.0
9.317,0.359,-0.899,0.0
8.896,0.343,-0.91,0.0
0.0,0.0,0.0,0.0
8.172,0.314,-0.932,0.0
7.776,0.298,-0.932,0.0
9.749,0.371,-0.897,0.0
9.277,0.352,-0.907,0.0
8.832,0.335,-0.915,0.0
8.405,0.318,-0.92,0.0
8.057,0.305,-0.929,0.0
7.73,0.292,-0.936,0.0
9.659,0.361,-0.901,0.0
9.141,0.342,-0.905,0.0
8.702,0.324,-0.912,0.0
8.371,0.312,-0.927,0.0
8.017,0.298,-0.934,0.0
7.686,0.285,-0.941,0.0
9.48,0.349,-0.896,0.0
9.045,0.332,-0.907,0.0
8.646,0.317,-0.917,0.0
8.285,0.303,-0.928,0.0
7.959,0.291,-0.937,0.0
7.59,0.277,-0.938,0.0
9.41,0.34,-0.9,0.0
8.945,0.322,-0.907,0.0
8.536,0.307,-0.915,0.0
8.149,0.292,-0.922,0.0
7.904,0.283,-0.94,0.0
7.573,0.271,-0.945,0.0
9.301,0.329,-0.901,0.0
8.889,0.314,-0.912,0.0
8.466,0.298,-0.918,0.0
0.0,0.0,0.0,0.0
7.803,0.274,-0.937,0.0
7.453,0.261,-0.939,0.0
9.183,0.319,-0.9,0.0
8.784,0.304,-0.911,0.0
8.424,0.291,-0.923,0.0
7.985,0.275,-0.922,0.0
7.707,0.265,-0.935,0.0
7.368,0.252,-0.936,0.0
9.138,0.31,-0.905,0.0
8.75,0.296,-0.917,0.0
8.362,0.282,-0.925,0.0
7.953,0.268,-0.927,0.0
7.668,0.257,-0.938,0.0
7.372,0.247,-0.945,0.0
9.025,0.299,-0.904,0.0
8.654,0.286,-0.916,0.0
8.277,0.273,-0.924,0.0
7.921,0.26,-0.931,0.0
7.639,0.25,-0.942,0.0
7.34,0.24,-0.948,0.0
8.973,0.29,-0.907,0.0
8.596,0.277,-0.919,0.0
8.233,0.265,-0.928,0.0
0.0,0.0,0.0,0.0
7.544,0.241,-0.938,0.0
7.256,0.231,-0.945,0.0
8.931,0.281,-0.912,0.0
8.521,0.268,-0.919,0.0
8.171,0.256,-0.929,0.0
0.0,0.0,0.0,0.0
7.469,0.232,-0.936,0.0
7.209,0.224,-0.945,0.0
8.808,0.27,-0.908,0.0
8.47,0.259,-0.922,0.0
8.1,0.247,-0.928,0.0
0.0,0.0,0.0,0.0
7.492,0.227,-0.946,0.0
7.122,0.215,-0.941,0.0
8.842,0.263,-0.919,0.0
8.388,0.249,-0.92,0.0
8.088,0.239,-0.934,0.0
0.0,0.0,0.0,0.0
0.0,0.0,0.0,0.0
7.122,0.208,-0.947,0.0
8.71,0.252,-0.913,0.0
8.348,0.24,-0.923,0.0
8.007,0.229,-0.931,0.0
0.0,0.0,0.0,0.0
0.0,0.0,0.0,0.0
7.068,0.2,-0.946,0.0
8.681,0.243,-0.917,0.0
8.302,0.231,-0.925,0.0
7.978,0.221,-0.935,0.0
7.63,0.211,-0.939,0.0
0.0,0.0,0.0,0.0
7.012,0.192,-0.944,0.0
8.585,0.232,-0.914,0.0
8.268,0.222,-0.927,0.0
7.866,0.21,-0.928,0.0
0.0,0.0,0.0,0.0
0.0,0.0,0.0,0.0
6.972,0.184,-0.944,0.0
8.551,0.223,-0.916,0.0
8.182,0.212,-0.924,0.0
7.87,0.203,-0.934,0.0
7.496,0.192,-0.933,0.0
0.0,0.0,0.0,0.0
6.93,0.176,-0.943,0.0
8.535,0.214,-0.921,0.0
8.135,0.203,-0.924,0.0
7.792,0.193,-0.93,0.0
0.0,0.0,0.0,0.0
0.0,0.0,0.0,0.0
6.927,0.169,-0.947,0.0
8.506,0.205,-0.923,0.0
8.142,0.195,-0.93,0.0
7.743,0.184,-0.929,0.0
0.0,0.0,0.0,0.0
0.0,0.0,0.0,0.0
6.919,0.162,-0.951,0.0
8.426,0.194,-0.92,0.0
0.0,0.0,0.0,0.0
0.0,0.0,0.0,0.0
0.0,0.0,0.0,0.0
0.0,0.0,0.0,0.0
6.873,0.154,-0.948,0.0
8.373,0.184,-0.919,0.0
8.049,0.176,-0.929,0.0
0.0,0.0,0.0,0.0
0.0,0.0,0.0,0.0
0.0,0.0,0.0,0.0
0.0,0.0,0.0,0.0
8.355,0.175,-0.921,0.0
8.032,0.167,-0.931,0.0
0.0,0.0,0.0,0.0
7.381,0.152,-0.941,0.0
0.0,0.0,0.0,0.0
0.0,0.0,0.0,0.0
8.353,0.166,-0.925,0.0
7.987,0.158,-0.93,0.0
7.636,0.15,-0.933,0.0
0.0,0.0,0.0,0.0
0.0,0.0,0.0,0.0
0.0,0.0,0.0,0.0
8.31,0.157,-0.924,0.0
7.997,0.149,-0.934,0.0
7.641,0.142,-0.936,0.0
0.0,0.0,0.0,0.0
0.0,0.0,0.0,0.0
0.0,0.0,0.0,0.0
8.262,0.147,-0.922,0.0
7.984,0.141,-0.936,0.0
7.595,0.132,-0.934,0.0
0.0,0.0,0.0,0.0
0.0,0.0,0.0,0.0
0.0,0.0,0.0,0.0
8.265,0.138,-0.925,0.0
7.916,0.131,-0.931,0.0
7.608,0.124,-0.938,0.0
0.0,0.0,0.0,0.0
0.0,0.0,0.0,0.0
0.0,0.0,0.0,0.0
8.21,0.128,-0.921,0.0
7.905,0.122,-0.932,0.0
7.583,0.116,-0.937,0.0
0.0,0.0,0.0,0.0
0.0,0.0,0.0,0.0
0.0,0.0,0.0,0.0
8.271,0.12,-0.93,0.0
7.899,0.113,-0.933,0.0
7.605,0.107,-0.942,0.0
0.0,0.0,0.0,0.0
6.991,0.096,-0.946,0.0
0.0,0.0,0.0,0.0
8.165,0.109,-0.92,0.0
7.905,0.104,-0.935,0.0
7.576,0.098,-0.939,0.0
0.0,0.0,0.0,0.0
0.0,0.0,0.0,0.0
0.0,0.0,0.0,0.0
8.206,0.1,-0.926,0.0
7.914,0.095,-0.938,0.0
7.55,0.09,-0.937,0.0
0.0,0.0,0.0,0.0
0.0,0.0,0.0,0.0
0.0,0.0,0.0,0.0
8.194,0.091,-0.925,0.0
7.898,0.086,-0.937,0.0
7.516,0.081,-0.934,0.0
0.0,0.0,0.0,0.0
0.0,0.0,0.0,0.0
0.0,0.0,0.0,0.0
8.136,0.081,-0.919,0.0
7.812,0.076,-0.927,0.0
7.509,0.072,-0.933,0.0
0.0,0.0,0.0,0.0
0.0,0.0,0.0,0.0
0.0,0.0,0.0,0.0
8.158,0.072,-0.922,0.0
7.817,0.067,-0.928,0.0
7.529,0.064,-0.936,0.0
0.0,0.0,0.0,0.0
0.0,0.0,0.0,0.0
0.0,0.0,0.0,0.0
8.146,0.063,-0.921,0.0
0.0,0.0,0.0,0.0
7.542,0.055,-0.937,0.0
0.0,0.0,0.0,0.0
0.0,0.0,0.0,0.0
0.0,0.0,0.0,0.0
8.221,0.054,-0.928,0.0
0.0,0.0,0.0,0.0
7.553,0.047,-0.938,0.0
0.0,0.0,0.0,0.0
0.0,0.0,0.0,0.0
6.781,0.038,-0.958,0.0
8.216,0.044,-0.927,0.0
0.0,0.0,0.0,0.0
7.549,0.038,-0.937,0.0
0.0,0.0,0.0,0.0
0.0,0.0,0.0,0.0
6.797,0.03,-0.959,0.0
8.228,0.035,-0.927,0.0
7.94,0.032,-0.939,0.0
7.564,0.029,-0.937,0.0
0.0,0.0,0.0,0.0
0.0,0.0,0.0,0.0
6.795,0.022,-0.957,0.0
8.256,0.026,-0.928,0.0
7.885,0.023,-0.931,0.0
7.598,0.021,-0.94,0.0
0.0,0.0,0.0,0.0
0.0,0.0,0.0,0.0
6.776,0.015,-0.953,0.0
8.226,0.017,-0.923,0.0
7.885,0.014,-0.929,0.0
7.544,0.012,-0.931,0.0
0.0,0.0,0.0,0.0
0.0,0.0,0.0,0.0
6.826,0.007,-0.958,0.0
8.25,0.008,-0.923,0.0
7.924,0.006,-0.931,0.0
7.58,0.004,-0.933,0.0
0.0,0.0,0.0,0.0
0.0,0.0,0.0,0.0
6.808,0.0,-0.953,0.0
8.291,-0.001,-0.925,0.0
7.926,-0.002,-0.928,0.0
0.0,0.0,0.0,0.0
0.0,0.0,0.0,0.0
0.0,0.0,0.0,0.0
8.319,-0.01,-0.925,0.0
8.025,-0.011,-0.937,0.0
7.698,-0.012,-0.942,0.0
0.0,0.0,0.0,0.0
0.0,0.0,0.0,0.0
0.0,0.0,0.0,0.0
8.339,-0.019,-0.924,0.0
8.024,-0.02,-0.933,0.0
7.686,-0.021,-0.937,0.0
0.0,0.0,0.0,0.0
0.0,0.0,0.0,0.0
0.0,0.0,0.0,0.0
8.367,-0.028,-0.923,0.0
8.021,-0.029,-0.929,0.0
7.715,-0.029,-0.936,0.0
0.0,0.0,0.0,0.0
0.0,0.0,0.0,0.0
0.0,0.0,0.0,0.0
8.437,-0.038,-0.926,0.0
8.119,-0.038,-0.936,0.0
7.722,-0.038,-0.933,0.0
0.0,0.0,0.0,0.0
0.0,0.0,0.0,0.0
0.0,0.0,0.0,0.0
8.427,-0.047,-0.92,0.0
8.099,-0.046,-0.929,0.0
7.776,-0.046,-0.935,0.0
0.0,0.0,0.0,0.0
0.0,0.0,0.0,0.0
0.0,0.0,0.0,0.0
8.473,-0.056,-0.92,0.0
8.123,-0.055,-0.927,0.0
7.774,-0.054,-0.93,0.0
0.0,0.0,0.0,0.0
0.0,0.0,0.0,0.0
0.0,0.0,0.0,0.0
8.536,-0.065,-0.921,0.0
8.161,-0.064,-0.925,0.0
7.824,-0.063,-0.93,0.0
0.0,0.0,0.0,0.0
0.0,0.0,0.0,0.0
7.002,-0.06,-0.95,0.0
8.529,-0.074,-0.914,0.0
8.247,-0.073,-0.929,0.0
7.917,-0.072,-0.936,0.0
0.0,0.0,0.0,0.0
7.316,-0.069,-0.946,0.0
7.01,-0.068,-0.945,0.0
8.617,-0.084,-0.917,0.0
8.248,-0.082,-0.923,0.0
7.931,-0.08,-0.931,0.0
0.0,0.0,0.0,0.0
7.341,-0.077,-0.944,0.0
7.092,-0.076,-0.951,0.0
8.667,-0.093,-0.916,0.0
8.333,-0.091,-0.926,0.0
8.004,-0.089,-0.933,0.0
0.0,0.0,0.0,0.0
7.425,-0.085,-0.948,0.0
7.09,-0.083,-0.945,0.0
8.708,-0.102,-0.913,0.0
8.36,-0.1,-0.922,0.0
8.023,-0.097,-0.929,0.0
0.0,0.0,0.0,0.0
0.0,0.0,0.0,0.0
7.169,-0.091,-0.949,0.0
8.805,-0.112,-0.915,0.0
8.426,-0.109,-0.922,0.0
8.124,-0.106,-0.933,0.0
7.772,-0.103,-0.936,0.0
7.474,-0.101,-0.941,0.0
7.241,-0.099,-0.952,0.0
8.966,-0.122,-0.924,0.0
8.499,-0.118,-0.922,0.0
8.149,-0.114,-0.928,0.0
0.0,0.0,0.0,0.0
7.555,-0.109,-0.944,0.0
7.255,-0.106,-0.947,0.0
8.9,-0.13,-0.908,0.0
8.593,-0.127,-0.924,0.0
8.159,-0.122,-0.921,0.0
7.892,-0.12,-0.935,0.0
7.622,-0.117,-0.945,0.0
7.313,-0.113,-0.947,0.0
9.004,-0.14,-0.91,0.0
0.0,0.0,0.0,0.0
8.25,-0.131,-0.923,0.0
7.901,-0.127,-0.928,0.0
7.592,-0.123,-0.933,0.0
7.348,-0.121,-0.944,0.0
9.108,-0.149,-0.911,0.0
8.738,-0.145,-0.921,0.0
8.353,-0.14,-0.926,0.0
7.994,-0.135,-0.931,0.0
0.0,0.0,0.0,0.0
7.412,-0.128,-0.944,0.0
9.192,-0.159,-0.91,0.0
8.804,-0.153,-0.919,0.0
8.415,-0.148,-0.924,0.0
8.043,-0.143,-0.927,0.0
7.813,-0.14,-0.944,0.0
7.488,-0.136,-0.945,0.0
9.254,-0.167,-0.905,0.0
8.839,-0.161,-0.912,0.0
8.488,-0.157,-0.922,0.0
8.161,-0.152,-0.932,0.0
7.873,-0.148,-0.942,0.0
7.537,-0.143,-0.943,0.0
9.363,-0.177,-0.905,0.0
8.967,-0.171,-0.915,0.0
8.587,-0.165,-0.923,0.0
8.196,-0.159,-0.926,0.0
7.89,-0.155,-0.934,0.0
7.6,-0.15,-0.941,0.0
9.41,-0.185,-0.899,0.0
9.081,-0.181,-0.916,0.0
8.62,-0.173,-0.916,0.0
8.275,-0.167,-0.925,0.0
7.948,-0.162,-0.932,0.0
7.65,-0.157,-0.938,0.0
9.59,-0.196,-0.904,0.0
9.139,-0.189,-0.911,0.0
8.713,-0.181,-0.915,0.0
8.407,-0.176,-0.929,0.0
8.018,-0.169,-0.93,0.0
7.759,-0.165,-0.942,0.0
9.676,-0.205,-0.9,0.0
9.25,-0.198,-0.91,0.0
8.875,-0.191,-0.921,0.0
8.423,-0.183,-0.92,0.0
8.1,-0.177,-0.928,0.0
7.837,-0.173,-0.941,0.0
9.785,-0.215,-0.897,0.0
9.33,-0.206,-0.906,0.0
8.959,-0.199,-0.918,0.0
8.61,-0.193,-0.929,0.0
8.273,-0.187,-0.937,0.0
7.923,-0.18,-0.941,0.0
9.903,-0.224,-0.895,0.0
9.417,-0.214,-0.902,0.0
9.007,-0.206,-0.911,0.0
8.668,-0.2,-0.924,0.0
8.309,-0.193,-0.93,0.0
7.988,-0.187,-0.937,0.0
10.019,-0.233,-0.892,0.0
9.574,-0.224,-0.904,0.0
9.16,-0.216,-0.913,0.0
0.0,0.0,0.0,0.0
8.412,-0.201,-0.93,0.0
8.062,-0.194,-0.935,0.0
10.146,-0.243,-0.889,0.0
9.697,-0.233,-0.902,0.0
9.277,-0.224,-0.912,0.0
0.0,0.0,0.0,0.0
8.444,-0.207,-0.921,0.0
8.128,-0.2,-0.93,0.0
10.266,-0.252,-0.885,0.0
9.816,-0.242,-0.898,0.0
9.378,-0.232,-0.908,0.0
8.953,-0.223,-0.916,0.0
8.572,-0.215,-0.923,0.0
8.203,-0.207,-0.927,0.0
10.405,-0.261,-0.882,0.0
9.922,-0.25,-0.894,0.0
9.411,-0.239,-0.898,0.0
9.075,-0.231,-0.915,0.0
8.677,-0.222,-0.921,0.0
8.355,-0.215,-0.932,0.0
10.539,-0.27,-0.878,0.0
10.081,-0.26,-0.893,0.0
9.626,-0.249,-0.904,0.0
9.141,-0.238,-0.908,0.0
8.854,-0.231,-0.926,0.0
8.44,-0.222,-0.928,0.0
10.703,-0.28,-0.875,0.0
10.235,-0.269,-0.891,0.0
9.726,-0.256,-0.898,0.0
9.299,-0.246,-0.909,0.0
8.834,-0.235,-0.911,0.0
8.507,-0.227,-0.922,0.0
10.914,-0.29,-0.875,0.0
10.364,-0.277,-0.886,0.0
9.846,-0.264,-0.894,0.0
9.481,-0.255,-0.912,0.0
9.065,-0.245,-0.92,0.0
8.659,-0.235,-0.925,0.0
11.036,-0.298,-0.868,0.0
10.482,-0.285,-0.879,0.0
10.032,-0.273,-0.895,0.0
9.575,-0.262,-0.906,0.0
9.163,-0.252,-0.915,0.0
8.794,-0.243,-0.925,0.0
11.235,-0.308,-0.865,0.0
10.62,-0.293,-0.874,0.0
10.152,-0.281,-0.889,0.0
9.702,-0.269,-0.902,0.0
9.286,-0.259,-0.913,0.0
8.942,-0.25,-0.926,0.0
11.407,-0.317,-0.86,0.0
10.868,-0.303,-0.877,0.0
10.303,-0.289,-0.886,0.0
9.81,-0.276,-0.896,0.0
9.435,-0.266,-0.912,0.0
9.024,-0.255,-0.92,0.0
11.618,-0.327,-0.857,0.0
11.033,-0.312,-0.872,0.0
10.457,-0.296,-0.881,0.0
9.956,-0.283,-0.893,0.0
9.588,-0.273,-0.91,0.0
9.168,-0.262,-0.919,0.0
11.838,-0.337,-0.853,0.0
11.221,-0.32,-0.868,0.0
10.599,-0.303,-0.875,0.0
10.148,-0.291,-0.893,0.0
9.719,-0.28,-0.906,0.0
9.254,-0.267,-0.912,0.0
12.135,-0.348,-0.854,0.0
11.382,-0.328,-0.861,0.0
10.852,-0.313,-0.878,0.0
10.324,-0.299,-0.89,0.0
9.821,-0.285,-0.899,0.0
9.416,-0.274,-0.911,0.0
12.396,-0.359,-0.851,0.0
11.62,-0.337,-0.859,0.0
11.023,-0.321,-0.872,0.0
10.469,-0.305,-0.885,0.0
9.996,-0.292,-0.897,0.0
9.568,-0.28,-0.909,0.0
12.596,-0.367,-0.843,0.0
11.85,-0.346,-0.855,0.0
11.179,-0.327,-0.865,0.0
10.624,-0.311,-0.879,0.0
10.158,-0.298,-0.894,0.0
9.716,-0.286,-0.906,0.0
13.076,-0.383,-0.852,0.0
12.157,-0.357,-0.856,0.0
11.378,-0.334,-0.861,0.0
10.854,-0.32,-0.879,0.0
10.311,-0.304,-0.889,0.0
9.848,-0.291,-0.901,0.0
13.385,-0.394,-0.848,0.0
12.433,-0.366,-0.853,0.0
11.624,-0.343,-0.858,0.0
11.006,-0.325,-0.871,0.0
10.49,-0.31,-0.886,0.0
10.03,-0.297,-0.899,0.0
13.66,-0.403,-0.841,0.0
12.785,-0.377,-0.854,0.0
11.892,-0.352,-0.857,0.0
11.24,-0.333,-0.87,0.0
10.671,-0.316,-0.881,0.0
10.176,-0.302,-0.894,0.0
13.914,-0.411,-0.832,0.0
13.044,-0.386,-0.848,0.0
12.19,-0.361,-0.856,0.0
11.415,-0.338,-0.862,0.0
10.883,-0.323,-0.879,0.0
10.343,-0.307,-0.889,0.0
14.277,-0.422,-0.827,0.0
13.432,-0.397,-0.848,0.0
12.461,-0.369,-0.852,0.0
11.658,-0.345,-0.859,0.0
11.039,-0.327,-0.871,0.0
10.521,-0.312,-0.885,0.0
14.626,-0.431,-0.821,0.0
13.642,-0.403,-0.836,0.0
12.801,-0.378,-0.851,0.0
11.928,-0.352,-0.857,0.0
11.277,-0.333,-0.869,0.0
10.759,-0.318,-0.885,0.0
15.179,-0.447,-0.823,0.0
14.078,-0.414,-0.837,0.0
13.187,-0.388,-0.852,0.0
12.269,-0.361,-0.858,0.0
11.474,-0.338,-0.862,0.0
10.91,-0.321,-0.877,0.0
15.408,-0.452,-0.807,0.0
14.366,-0.421,-0.827,0.0
13.499,-0.396,-0.847,0.0
12.521,-0.367,-0.852,0.0
11.752,-0.344,-0.861,0.0
11.098,-0.325,-0.871,0.0
16.125,-0.47,-0.814,0.0
14.718,-0.429,-0.819,0.0
13.675,-0.398,-0.832,0.0
12.867,-0.375,-0.851,0.0
12.054,-0.351,-0.86,0.0
11.331,-0.33,-0.868,0.0
16.379,-0.474,-0.796,0.0
15.264,-0.442,-0.821,0.0
14.148,-0.409,-0.834,0.0
13.258,-0.383,-0.852,0.0
12.376,-0.358,-0.86,0.0
11.564,-0.334,-0.863,0.0
21.863,-0.628,-1.02,0.0
21.921,-0.629,-1.137,0.0
14.493,-0.416,-0.827,0.0
13.518,-0.387,-0.842,0.0
12.58,-0.36,-0.849,0.0
11.839,-0.339,-0.861,0.0
21.89,-0.623,-0.98,0.0
16.268,-0.462,-0.812,0.0
21.913,-0.622,-1.208,0.0
13.875,-0.393,-0.838,0.0
12.969,-0.367,-0.851,0.0
12.148,-0.344,-0.86,0.0
18.132,-0.51,-0.777,4.0
21.878,-0.615,-1.051,1.0
15.316,-0.43,-0.815,0.0
14.204,-0.398,-0.831,0.0
13.401,-0.375,-0.853,0.0
12.434,-0.347,-0.856,0.0
21.894,-0.608,-0.896,84.0
21.884,-0.607,-1.009,2.0
21.888,-0.606,-1.123,0.0
21.9,-0.606,-1.239,0.0
13.669,-0.377,-0.844,0.0
21.822,-0.602,-1.461,0.0
46.721,-0.741,-0.398,1.0
0.0,0.0,0.0,0.0
31.566,-0.49,-0.596,0.0
27.231,-0.418,-0.658,0.0
23.958,-0.364,-0.703,0.0
21.394,-0.321,-0.739,0.0
0.0,0.0,0.0,0.0
0.0,0.0,0.0,0.0
34.139,-0.494,-0.582,0.0
28.972,-0.414,-0.647,0.0
24.871,-0.351,-0.684,0.0
22.163,-0.309,-0.725,0.0
0.0,0.0,0.0,0.0
44.613,-0.605,-0.448,0.0
0.0,0.0,0.0,0.0
30.785,-0.407,-0.631,0.0
26.5,-0.345,-0.681,0.0
23.006,-0.295,-0.711,0.0
0.0,0.0,0.0,0.0
47.329,-0.589,-0.389,1.0
0.0,0.0,0.0,0.0
0.0,0.0,0.0,0.0
26.818,-0.319,-0.641,0.0
23.77,-0.278,-0.691,0.0
0.0,0.0,0.0,0.0
0.0,0.0,0.0,0.0
40.253,-0.447,-0.467,0.0
0.0,0.0,0.0,0.0
0.0,0.0,0.0,0.0
25.121,-0.264,-0.685,0.0
0.0,0.0,0.0,0.0
0.0,0.0,0.0,0.0
0.0,0.0,0.0,0.0
0.0,0.0,0.0,0.0
0.0,0.0,0.0,0.0
26.252,-0.244,-0.67,0.0
0.0,0.0,0.0,0.0
0.0,0.0,0.0,0.0
0.0,0.0,0.0,0.0
38.254,-0.325,-0.512,0.0
32.342,-0.268,-0.601,0.0
27.59,-0.222,-0.657,0.0
0.0,0.0,0.0,0.0
0.0,0.0,0.0,0.0
0.0,0.0,0.0,0.0
0.0,0.0,0.0,0.0
0.0,0.0,0.0,0.0
0.0,0.0,0.0,0.0
111.111,-0.731,0.642,5.0
0.0,0.0,0.0,0.0
0.0,0.0,0.0,0.0
0.0,0.0,0.0,0.0
36.185,-0.206,-0.548,0.0
30.59,-0.168,-0.623,0.0
114.289,-0.602,0.855,10.0
95.228,-0.48,0.217,3.0
0.0,0.0,0.0,0.0
0.0,0.0,0.0,0.0
0.0,0.0,0.0,0.0
31.959,-0.132,-0.596,0.0
119.708,-0.468,1.1,20.0
103.373,-0.381,0.41,5.0
0.0,0.0,0.0,0.0
0.0,0.0,0.0,0.0
0.0,0.0,0.0,0.0
34.0,-0.095,-0.579,0.0
119.714,-0.306,1.297,17.0
110.802,-0.258,0.62,9.0
0.0,0.0,0.0,0.0
0.0,0.0,0.0,0.0
45.404,-0.073,-0.461,1.0
35.525,-0.049,-0.547,0.0
117.383,-0.137,1.462,15.0
111.192,-0.105,0.802,11.0
95.364,-0.067,0.189,1.0
0.0,0.0,0.0,0.0
45.689,-0.01,-0.391,1.0
37.634,0.0,-0.519,0.0
111.132,0.027,1.563,13.0
111.167,0.055,0.982,8.0
95.511,0.069,0.343,2.0
0.0,0.0,0.0,0.0
49.79,0.06,-0.347,0.0
42.79,0.062,-0.523,0.0
111.183,0.188,1.739,9.0
111.123,0.215,1.155,20.0
104.08,0.227,0.537,6.0
0.0,0.0,0.0,0.0
0.0,0.0,0.0,0.0
42.834,0.125,-0.456,1.0
119.883,0.381,2.062,150.0
119.736,0.411,1.432,14.0
110.846,0.409,0.745,7.0
88.133,0.347,0.121,1.0
0.0,0.0,0.0,0.0
45.749,0.203,-0.417,0.0
111.119,0.522,2.083,23.0
111.088,0.55,1.499,29.0
110.95,0.577,0.914,16.0
87.778,0.478,0.253,2.0
0.0,0.0,0.0,0.0
48.697,0.29,-0.371,0.0
111.062,0.692,2.25,32.0
111.098,0.721,1.666,18.0
104.889,0.707,1.02,9.0
97.408,0.682,0.426,6.0
0.0,0.0,0.0,0.0
0.0,0.0,0.0,0.0
104.77,0.817,2.278,19.0
0.0,0.0,0.0,0.0
100.164,0.834,1.123,3.0
98.217,0.844,0.575,16.0
0.0,0.0,0.0,0.0
54.922,0.5,-0.257,0.0
104.723,0.984,2.429,10.0
104.796,1.011,1.878,15.0
98.67,0.978,1.248,27.0
98.434,1.002,0.716,16.0
80.983,0.846,0.162,4.0
0.0,0.0,0.0,0.0
98.588,1.085,2.427,23.0
98.572,1.111,1.906,32.0
98.529,1.136,1.384,34.0
98.468,1.162,0.854,23.0
85.094,1.027,0.289,12.0
0.0,0.0,0.0,0.0
98.516,1.243,2.561,32.0
98.541,1.27,2.041,30.0
98.541,1.298,1.521,30.0
98.551,1.323,0.989,31.0
85.418,1.17,0.406,9.0
76.864,1.074,-0.04,0.0
98.518,1.406,2.695,28.0
119.928,1.745,2.646,105.0
99.117,1.468,1.662,21.0
92.019,1.388,1.046,24.0
91.854,1.411,0.558,13.0
74.807,1.17,0.059,1.0
92.101,1.469,2.642,8.0
91.957,1.491,2.15,26.0
91.88,1.516,1.662,40.0
91.872,1.541,1.165,42.0
91.847,1.565,0.677,28.0
77.775,1.347,0.162,5.0
91.851,1.62,2.754,26.0
91.845,1.646,2.266,38.0
91.821,1.67,1.778,21.0
87.695,1.62,1.224,3.0
91.887,1.723,0.795,22.0
78.265,1.49,0.262,5.0
91.823,1.776,2.868,33.0
91.85,1.803,2.381,13.0
87.16,1.735,1.796,49.0
85.423,1.724,1.298,14.0
85.356,1.746,0.843,35.0
84.801,1.758,0.386,8.0
85.31,1.797,2.769,31.0
85.297,1.821,2.315,38.0
85.279,1.845,1.861,39.0
85.246,1.868,1.397,40.0
85.247,1.892,0.944,40.0
85.021,1.911,0.489,13.0
85.263,1.945,2.869,31.0
85.249,1.969,2.415,35.0
85.258,1.994,1.961,36.0
85.273,2.018,1.498,35.0
85.284,2.042,1.043,33.0
85.179,2.064,0.588,17.0
78.867,1.939,2.746,26.0
85.308,2.12,2.514,10.0
120.003,3.017,2.897,23.0
79.004,2.009,1.478,18.0
78.953,2.03,1.055,32.0
78.913,2.051,0.633,28.0
78.831,2.078,2.834,31.0
78.854,2.1,2.412,28.0
78.856,2.122,1.99,35.0
78.823,2.145,1.561,29.0
77.137,2.121,1.115,4.0
76.836,2.135,0.701,4.0
78.791,2.218,2.918,21.0
78.821,2.241,2.497,28.0
76.899,2.208,2.024,6.0
76.033,2.206,1.587,4.0
74.701,2.188,1.159,4.0
74.21,2.196,0.755,13.0
78.781,2.36,3.0,18.0
78.977,2.388,2.584,9.0
0.0,0.0,0.0,0.0
74.253,2.287,1.626,2.0
120.042,3.732,1.985,6.0
72.489,2.275,0.81,23.0
28.985,2.013,-0.598,0.0
25.192,1.743,-0.659,0.0
22.376,1.542,-0.709,0.0
19.727,1.354,-0.736,0.0
17.893,1.224,-0.766,0.0
16.434,1.12,-0.795,0.0
0.0,0.0,0.0,0.0
25.318,1.705,-0.658,0.0
22.376,1.501,-0.705,0.0
19.905,1.33,-0.739,0.0
18.026,1.2,-0.769,0.0
16.525,1.096,-0.796,0.0
29.207,1.921,-0.592,0.0
25.598,1.677,-0.66,0.0
22.458,1.465,-0.703,0.0
19.849,1.29,-0.732,0.0
18.076,1.169,-0.766,0.0
16.537,1.065,-0.792,0.0
29.36,1.876,-0.588,0.0
25.564,1.627,-0.652,0.0
22.646,1.435,-0.702,0.0
20.137,1.27,-0.737,0.0
18.188,1.143,-0.766,0.0
16.612,1.039,-0.791,0.0
29.711,1.843,-0.586,0.0
25.854,1.597,-0.652,0.0
22.808,1.402,-0.701,0.0
20.23,1.238,-0.735,0.0
18.277,1.113,-0.764,0.0
16.596,1.006,-0.785,0.0
30.096,1.81,-0.584,0.0
26.2,1.568,-0.652,0.0
22.821,1.36,-0.693,0.0
20.32,1.205,-0.731,0.0
18.459,1.09,-0.765,0.0
16.73,0.983,-0.785,0.0
30.456,1.775,-0.58,0.0
26.295,1.525,-0.645,0.0
22.765,1.314,-0.683,0.0
20.499,1.177,-0.729,0.0
18.531,1.059,-0.761,0.0
17.115,0.973,-0.796,0.0
31.185,1.758,-0.581,0.0
26.88,1.508,-0.648,0.0
23.233,1.296,-0.687,0.0
20.729,1.151,-0.728,0.0
18.616,1.028,-0.756,0.0
16.972,0.933,-0.782,0.0
0.0,0.0,0.0,0.0
26.972,1.462,-0.638,0.0
23.564,1.27,-0.686,0.0
20.889,1.12,-0.724,0.0
18.846,1.006,-0.756,0.0
17.037,0.904,-0.777,0.0
31.876,1.676,-0.564,0.0
27.174,1.421,-0.629,0.0
23.835,1.24,-0.682,0.0
21.141,1.094,-0.722,0.0
19.135,0.985,-0.758,0.0
17.364,0.889,-0.783,0.0
32.427,1.645,-0.557,0.0
27.595,1.392,-0.624,0.0
24.099,1.208,-0.676,0.0
21.348,1.064,-0.718,0.0
19.375,0.96,-0.757,0.0
17.548,0.865,-0.781,0.0
33.082,1.615,-0.55,0.0
28.303,1.374,-0.624,0.0
24.401,1.178,-0.671,0.0
21.66,1.039,-0.716,0.0
19.465,0.928,-0.749,0.0
17.679,0.838,-0.776,0.0
33.887,1.591,-0.543,0.0
28.216,1.317,-0.605,0.0
25.088,1.163,-0.674,0.0
