X,Y,Z,Reflectivity
33.247,-3.3,2.189,45.0
69.28,-6.872,4.191,26.0
33.258,-3.305,2.948,55.0
33.241,-3.3,2.767,53.0
33.235,-3.296,2.588,53.0
33.232,-3.293,2.406,52.0
33.248,-3.291,2.228,49.0
69.463,-6.871,4.284,29.0
33.247,-3.295,2.986,54.0
33.242,-3.291,2.806,53.0
33.233,-3.286,2.626,52.0
33.219,-3.281,2.443,52.0
33.243,-3.28,2.266,51.0
69.568,-6.859,4.37,29.0
33.252,-3.285,3.025,55.0
33.24,-3.279,2.844,51.0
33.236,-3.275,2.664,52.0
33.218,-3.27,2.481,52.0
33.237,-3.268,2.303,52.0
69.654,-6.842,4.454,23.0
33.249,-3.272,3.062,54.0
33.239,-3.267,2.882,50.0
33.228,-3.262,2.701,53.0
33.21,-3.256,2.517,52.0
33.236,-3.255,2.34,51.0
69.704,-6.819,4.533,10.0
33.259,-3.26,3.1,54.0
33.238,-3.253,2.918,51.0
33.224,-3.248,2.737,51.0
33.205,-3.241,2.553,52.0
33.22,-3.239,2.375,52.0
33.242,-3.237,2.198,44.0
33.25,-3.244,3.135,53.0
33.235,-3.238,2.953,52.0
33.226,-3.233,2.773,51.0
33.207,-3.226,2.588,52.0
33.226,-3.224,2.411,51.0
33.239,-3.221,2.232,48.0
33.253,-3.228,3.171,54.0
33.239,-3.222,2.989,52.0
33.217,-3.215,2.807,51.0
33.201,-3.209,2.622,52.0
33.215,-3.206,2.444,52.0
33.236,-3.203,2.266,50.0
33.251,-3.211,3.205,55.0
33.237,-3.204,3.023,52.0
33.225,-3.198,2.842,51.0
33.198,-3.19,2.656,52.0
33.208,-3.186,2.477,50.0
33.229,-3.184,2.299,50.0
33.256,-3.193,3.239,58.0
33.238,-3.185,3.057,50.0
33.226,-3.179,2.875,52.0
33.193,-3.171,2.688,51.0
33.21,-3.167,2.51,51.0
33.215,-3.163,2.331,55.0
33.26,-3.173,3.272,62.0
33.231,-3.165,3.088,48.0
33.21,-3.157,2.906,50.0
33.184,-3.149,2.72,49.0
33.199,-3.145,2.541,49.0
33.221,-3.142,2.363,59.0
47.103,-4.464,4.68,15.0
47.262,-4.471,4.437,7.0
74.722,-7.056,6.609,12.0
33.203,-3.129,2.752,1.0
70.862,-6.666,5.491,11.0
69.804,-6.555,5.03,14.0
47.089,-4.431,4.722,28.0
47.254,-4.438,4.481,4.0
74.586,-6.991,6.666,21.0
74.526,-6.972,6.247,10.0
73.77,-6.889,5.781,6.0
70.029,-6.528,5.108,24.0
47.115,-4.4,4.767,16.0
50.951,-4.749,4.876,4.0
74.578,-6.936,6.731,11.0
74.136,-6.882,6.279,25.0
73.522,-6.811,5.826,5.0
70.274,-6.498,5.187,13.0
47.184,-4.371,4.815,12.0
47.267,-4.37,4.564,9.0
79.761,-7.359,7.265,7.0
73.746,-6.789,6.308,29.0
71.083,-6.531,5.692,11.0
70.258,-6.442,5.243,19.0
47.214,-4.337,4.857,14.0
73.864,-6.771,7.194,14.0
79.843,-7.303,7.338,5.0
71.347,-6.511,6.16,16.0
71.061,-6.472,5.747,8.0
70.323,-6.392,5.304,18.0
47.221,-4.299,4.896,15.0
73.723,-6.697,7.239,24.0
73.703,-6.68,6.832,7.0
71.279,-6.446,6.21,8.0
73.26,-6.611,5.982,4.0
70.779,-6.374,5.392,30.0
47.278,-4.265,4.938,15.0
73.774,-6.639,7.3,9.0
73.569,-6.606,6.875,19.0
76.165,-6.823,6.691,12.0
74.003,-6.614,6.096,10.0
70.787,-6.313,5.444,31.0
47.29,-4.224,4.974,5.0
73.419,-6.543,7.317,12.0
73.475,-6.532,6.919,31.0
73.325,-6.503,6.495,9.0
74.477,-6.59,6.187,11.0
70.848,-6.253,5.499,22.0
71.075,-6.285,7.525,11.0
72.995,-6.438,7.326,23.0
73.566,-6.472,6.978,27.0
73.334,-6.435,6.545,9.0
71.412,-6.251,5.981,8.0
70.886,-6.191,5.548,12.0
70.582,-6.174,7.52,41.0
0.0,0.0,0.0,0.0
73.49,-6.395,7.018,19.0
78.123,-6.781,7.022,4.0
71.386,-6.181,6.024,12.0
70.89,-6.122,5.593,21.0
73.047,-6.319,7.829,14.0
70.251,-6.061,7.14,22.0
73.389,-6.315,7.053,20.0
78.072,-6.7,7.065,10.0
71.326,-6.105,6.061,20.0
70.46,-6.016,5.6,25.0
70.573,-6.035,7.605,19.0
70.291,-5.994,7.185,17.0
73.293,-6.232,7.086,11.0
72.117,-6.116,6.567,11.0
72.301,-6.115,6.184,11.0
70.622,-5.958,5.651,13.0
70.774,-5.979,7.666,39.0
70.42,-5.932,7.236,6.0
73.339,-6.161,7.13,11.0
72.314,-6.058,6.622,10.0
74.663,-6.238,6.425,8.0
73.224,-6.101,5.897,9.0
70.62,-5.892,7.685,37.0
70.333,-5.851,7.263,18.0
73.522,-6.098,7.184,10.0
71.754,-5.934,6.606,23.0
72.966,-6.017,6.314,12.0
73.302,-6.028,5.938,8.0
70.909,-5.839,7.751,22.0
70.338,-5.774,7.297,17.0
73.529,-6.018,7.219,14.0
71.946,-5.872,6.656,10.0
72.978,-5.938,6.347,12.0
73.36,-5.952,5.975,9.0
70.629,-5.739,7.75,25.0
76.307,-6.181,7.948,5.0
71.1,-5.741,7.009,7.0
79.411,-6.393,7.38,9.0
70.738,-5.677,6.181,24.0
73.345,-5.869,6.002,17.0
71.553,-5.732,7.88,21.0
71.318,-5.695,7.456,15.0
71.741,-5.711,7.1,45.0
70.941,-5.63,6.618,10.0
70.742,-5.597,6.207,11.0
73.654,-5.809,6.054,28.0
70.949,-5.602,7.839,22.0
71.403,-5.62,7.49,11.0
71.549,-5.613,7.105,26.0
70.777,-5.535,6.626,33.0
68.016,-5.302,5.99,12.0
67.995,-5.284,5.61,64.0
71.411,-5.556,7.912,31.0
70.52,-5.468,7.418,24.0
71.383,-5.516,7.11,9.0
68.017,-5.239,6.388,37.0
68.01,-5.221,6.008,53.0
67.988,-5.202,5.628,8.0
71.37,-5.466,7.927,33.0
70.654,-5.394,7.451,25.0
71.194,-5.416,7.109,9.0
68.019,-5.157,6.405,15.0
71.916,-5.435,6.37,14.0
72.998,-5.499,6.059,9.0
71.264,-5.373,7.931,30.0
71.056,-5.338,7.509,18.0
68.051,-5.094,6.81,7.0
71.205,-5.312,6.72,8.0
71.004,-5.279,6.303,7.0
70.508,-5.224,5.866,4.0
70.813,-5.251,7.894,44.0
70.939,-5.241,7.509,40.0
68.044,-5.009,6.821,37.0
71.351,-5.234,6.745,6.0
70.853,-5.18,6.301,20.0
72.144,-5.256,6.013,6.0
70.844,-5.165,7.908,45.0
71.737,-5.211,7.603,25.0
68.049,-4.925,6.83,28.0
73.251,-5.282,6.933,11.0
71.117,-5.111,6.332,21.0
72.469,-5.19,6.048,7.0
70.833,-5.076,7.914,26.0
70.209,-5.012,7.448,10.0
71.487,-5.085,7.181,15.0
73.478,-5.207,6.961,6.0
73.006,-5.155,6.506,9.0
72.105,-5.072,6.022,27.0
71.278,-5.016,7.968,47.0
70.546,-4.945,7.488,35.0
71.241,-4.975,7.16,31.0
69.549,-4.838,6.591,44.0
72.715,-5.04,6.482,12.0
72.427,-5.001,6.051,22.0
70.585,-4.875,7.892,11.0
70.628,-4.859,7.497,26.0
70.965,-4.863,7.132,20.0
69.929,-4.774,6.626,34.0
64.324,-4.374,5.733,23.0
72.377,-4.903,6.044,29.0
70.149,-4.753,7.84,14.0
70.971,-4.789,7.531,11.0
71.453,-4.802,7.178,20.0
64.045,-4.288,6.066,17.0
64.354,-4.292,5.732,31.0
72.384,-4.809,6.041,32.0
70.363,-4.675,7.86,9.0
71.176,-4.709,7.547,11.0
59.48,-3.919,5.97,8.0
64.048,-4.203,6.06,39.0
64.271,-4.2,5.718,38.0
70.927,-4.617,5.911,15.0
70.443,-4.585,7.861,25.0
59.437,-3.853,6.295,12.0
59.48,-3.84,5.962,33.0
64.048,-4.117,6.051,39.0
64.082,-4.103,5.692,38.0
63.951,-4.078,5.32,39.0
70.504,-4.494,7.856,36.0
59.512,-3.777,6.293,11.0
59.355,-3.751,5.939,33.0
64.166,-4.039,6.05,26.0
63.876,-4.003,5.662,35.0
63.516,-3.965,5.271,38.0
70.129,-4.375,7.8,18.0
59.461,-3.693,6.275,17.0
59.058,-3.652,5.896,31.0
64.043,-3.944,6.024,18.0
63.802,-3.913,5.641,38.0
63.46,-3.874,5.252,41.0
58.924,-3.595,6.539,34.0
58.985,-3.583,6.21,12.0
59.033,-3.57,5.879,33.0
64.043,-3.857,6.007,19.0
63.622,-3.814,5.607,38.0
63.471,-3.788,5.235,24.0
58.883,-3.512,6.517,34.0
59.261,-3.518,6.22,33.0
58.735,-3.471,5.83,33.0
59.335,-3.491,5.547,24.0
63.373,-3.712,5.564,37.0
63.095,-3.68,5.182,31.0
58.818,-3.427,6.49,32.0
58.111,-3.37,6.08,32.0
58.45,-3.374,5.782,32.0
59.276,-3.405,5.52,33.0
62.931,-3.599,5.502,37.0
63.047,-3.589,5.155,33.0
58.671,-3.336,6.451,33.0
58.188,-3.292,6.065,32.0
58.067,-3.27,5.721,32.0
56.863,-3.187,5.272,21.0
62.499,-3.488,5.439,36.0
63.146,-3.507,5.137,38.0
58.989,-3.272,6.46,35.0
58.227,-3.214,6.043,32.0
57.969,-3.184,5.685,32.0
56.823,-3.106,5.243,31.0
62.319,-3.39,5.395,10.0
58.519,-3.169,4.733,22.0
59.219,-3.201,6.458,34.0
58.382,-3.141,6.031,32.0
57.889,-3.099,5.649,30.0
56.787,-3.025,5.212,31.0
56.919,-3.017,4.899,28.0
58.645,-3.094,4.714,29.0
58.405,-3.076,6.338,27.0
58.723,-3.077,6.036,33.0
57.96,-3.022,5.625,32.0
56.682,-2.94,5.171,31.0
60.257,-3.111,5.154,14.0
58.667,-3.014,4.683,15.0
58.287,-2.988,6.293,33.0
58.522,-2.984,5.982,11.0
56.529,-2.868,5.454,30.0
56.835,-2.869,5.152,31.0
60.332,-3.031,5.124,30.0
0.0,0.0,0.0,0.0
58.428,-2.914,6.272,12.0
56.326,-2.794,5.723,11.0
56.401,-2.783,5.407,22.0
56.707,-2.784,5.105,26.0
56.762,-2.773,4.785,15.0
44.101,-2.143,3.466,20.0
52.791,-2.559,5.633,6.0
56.335,-2.716,5.687,25.0
47.124,-2.26,4.486,33.0
56.768,-2.708,5.073,9.0
56.718,-2.692,4.744,14.0
56.717,-2.677,4.419,7.0
46.742,-2.2,4.955,48.0
46.611,-2.182,4.672,33.0
46.795,-2.179,4.421,39.0
47.466,-2.198,4.207,5.0
44.072,-2.03,3.654,40.0
44.131,-2.022,3.406,40.0
46.695,-2.132,4.915,35.0
46.593,-2.116,4.636,35.0
46.706,-2.11,4.378,34.0
44.35,-1.993,3.898,16.0
44.115,-1.971,3.624,36.0
44.165,-1.962,3.375,40.0
46.638,-2.065,4.872,28.0
46.584,-2.051,4.598,32.0
46.644,-2.042,4.335,27.0
44.168,-1.923,3.846,32.0
55.659,-2.409,4.527,12.0
44.204,-1.903,3.342,33.0
52.529,-2.253,5.444,5.0
46.444,-1.98,4.545,35.0
44.271,-1.877,4.077,10.0
44.27,-1.866,3.817,18.0
55.548,-2.328,4.471,11.0
44.173,-1.841,3.302,41.0
46.941,-1.948,4.824,25.0
46.226,-1.907,4.483,32.0
44.187,-1.812,4.03,18.0
44.333,-1.808,3.784,20.0
44.069,-1.787,3.507,38.0
44.142,-1.779,3.259,44.0
46.952,-1.884,4.782,30.0
46.213,-1.844,4.439,26.0
44.176,-1.752,3.988,45.0
44.313,-1.746,3.741,26.0
44.075,-1.727,3.467,34.0
44.145,-1.72,3.218,47.0
46.403,-1.799,4.682,40.0
46.22,-1.781,4.396,38.0
44.157,-1.692,3.945,42.0
44.245,-1.684,3.692,46.0
44.226,-1.674,3.436,40.0
44.181,-1.662,3.178,39.0
46.527,-1.741,4.648,39.0
46.302,-1.722,4.357,43.0
44.178,-1.633,3.901,44.0
44.052,-1.618,3.632,41.0
44.219,-1.614,3.39,41.0
44.182,-1.603,3.133,48.0
52.805,-1.905,5.221,15.0
46.601,-1.671,4.337,31.0
44.279,-1.578,3.864,31.0
43.993,-1.557,3.581,36.0
44.217,-1.556,3.344,43.0
44.356,-1.551,3.098,22.0
46.684,-1.623,4.565,34.0
46.881,-1.618,4.312,6.0
43.75,-1.501,3.77,38.0
44.065,-1.502,3.538,40.0
44.329,-1.501,3.303,33.0
0.0,0.0,0.0,0.0
46.725,-1.562,4.516,12.0
44.356,-1.473,4.029,31.0
43.758,-1.443,3.721,48.0
46.203,-1.514,3.657,3.0
44.225,-1.44,3.245,42.0
46.118,-1.491,3.117,20.0
43.713,-1.404,4.174,28.0
44.146,-1.408,3.959,30.0
43.891,-1.391,3.681,41.0
44.281,-1.394,3.453,19.0
45.173,-1.412,3.261,25.0
45.908,-1.425,3.049,38.0
43.7,-1.347,4.12,26.0
43.807,-1.341,3.875,31.0
43.851,-1.333,3.625,39.0
44.553,-1.345,3.42,39.0
45.954,-1.378,3.261,19.0
45.873,-1.366,2.99,26.0
43.629,-1.289,4.059,24.0
43.702,-1.282,3.811,29.0
43.912,-1.279,3.574,32.0
44.477,-1.286,3.358,32.0
45.891,-1.318,3.199,36.0
56.816,-1.62,3.632,24.0
43.516,-1.231,3.993,34.0
43.532,-1.222,3.74,43.0
43.985,-1.226,3.524,43.0
44.83,-1.241,3.326,44.0
46.032,-1.265,3.149,19.0
62.564,-1.707,3.918,8.0
43.475,-1.176,3.931,28.0
43.557,-1.169,3.685,40.0
44.094,-1.175,3.474,43.0
44.999,-1.19,3.279,32.0
57.089,-1.499,3.829,6.0
51.599,-1.344,3.162,26.0
43.575,-1.125,3.881,42.0
43.635,-1.118,3.632,48.0
44.011,-1.119,3.407,35.0
45.343,-1.144,3.243,37.0
51.462,-1.289,3.381,24.0
51.69,-1.285,3.096,12.0
43.463,-1.07,3.81,44.0
43.729,-1.068,3.578,39.0
44.741,-1.084,3.4,30.0
45.036,-1.083,3.157,22.0
51.373,-1.226,3.303,38.0
51.837,-1.227,3.032,19.0
43.728,-1.024,3.77,43.0
43.291,-1.006,3.48,52.0
45.034,-1.038,3.359,36.0
44.978,-1.029,3.088,13.0
51.351,-1.165,3.227,42.0
73.499,-1.655,4.193,17.0
43.545,-0.97,3.691,48.0
43.346,-0.957,3.421,18.0
51.408,-1.126,3.758,15.0
50.757,-1.102,3.41,25.0
51.532,-1.11,3.162,24.0
73.618,-1.573,4.09,26.0
42.94,-0.907,3.575,49.0
0.0,0.0,0.0,0.0
48.514,-1.008,3.473,22.0
50.445,-1.039,3.313,24.0
61.216,-1.251,3.665,34.0
73.601,-1.491,3.979,15.0
43.015,-0.861,3.515,47.0
0.0,0.0,0.0,0.0
48.399,-0.952,3.391,26.0
50.1,-0.977,3.214,26.0
61.19,-1.183,3.569,20.0
81.884,-1.57,4.3,15.0
42.835,-0.81,3.434,41.0
0.0,0.0,0.0,0.0
48.502,-0.901,3.322,22.0
50.232,-0.925,3.142,9.0
61.146,-1.116,3.47,15.0
81.995,-1.484,4.177,14.0
42.885,-0.766,3.37,49.0
48.478,-0.858,3.526,9.0
0.0,0.0,0.0,0.0
61.009,-1.059,3.719,5.0
61.145,-1.052,3.371,11.0
81.154,-1.383,4.003,19.0
42.907,-0.721,3.301,44.0
48.362,-0.805,3.438,29.0
49.106,-0.81,3.204,23.0
61.091,-0.997,3.623,20.0
61.183,-0.99,3.273,7.0
81.158,-1.301,3.869,22.0
42.691,-0.674,3.214,46.0
48.296,-0.755,3.353,41.0
50.59,-0.783,3.217,16.0
61.217,-0.939,3.53,23.0
81.868,-1.243,4.243,11.0
81.284,-1.222,3.74,14.0
42.577,-0.63,3.133,42.0
48.355,-0.709,3.276,38.0
61.526,-0.893,3.808,16.0
60.754,-0.873,3.4,14.0
81.28,-1.156,4.076,11.0
84.996,-1.197,3.768,5.0
48.059,-0.665,3.455,11.0
48.45,-0.664,3.2,22.0
73.615,-0.999,4.432,6.0
60.667,-0.815,3.292,13.0
81.304,-1.08,3.937,11.0
112.131,-1.475,4.779,16.0
48.392,-0.625,3.394,12.0
48.425,-0.618,3.113,35.0
60.746,-0.768,3.551,4.0
60.576,-0.757,3.181,12.0
94.992,-1.175,4.434,10.0
104.311,-1.276,4.26,6.0
117.403,-0.208,4.333,24.0
70.164,-0.121,2.178,15.0
117.497,-0.197,2.959,8.0
112.9,-0.183,2.171,2.0
117.396,-0.185,1.57,10.0
111.111,-0.17,0.835,12.0
117.454,-0.168,4.089,18.0
117.448,-0.163,3.4,24.0
114.751,-0.154,2.649,5.0
112.437,-0.146,1.927,12.0
117.428,-0.148,1.326,17.0
104.652,-0.127,0.568,2.0
117.441,-0.132,3.841,20.0
117.431,-0.127,3.151,25.0
113.632,-0.118,2.384,3.0
117.309,-0.118,1.764,11.0
117.258,-0.114,1.077,10.0
97.804,-0.091,0.325,1.0
70.2,-0.059,2.147,11.0
117.426,-0.096,2.903,15.0
112.509,-0.088,2.121,11.0
111.128,-0.083,1.433,16.0
110.762,-0.079,0.779,12.0
0.0,0.0,0.0,0.0
117.419,-0.072,3.34,21.0
114.053,-0.067,2.576,9.0
117.315,-0.065,1.963,18.0
111.123,-0.059,1.198,13.0
103.113,-0.052,0.507,1.0
0.0,0.0,0.0,0.0
117.423,-0.049,3.09,26.0
112.583,-0.044,2.304,8.0
111.114,-0.041,1.623,14.0
111.163,-0.038,0.961,8.0
0.0,0.0,0.0,0.0
0.0,0.0,0.0,0.0
114.153,-0.029,2.761,9.0
117.307,-0.028,2.149,20.0
111.123,-0.024,1.385,16.0
110.633,-0.022,0.721,8.0
0.0,0.0,0.0,0.0
0.0,0.0,0.0,0.0
112.782,-0.015,2.487,6.0
111.11,-0.013,1.799,13.0
111.134,-0.012,1.147,10.0
0.0,0.0,0.0,0.0
0.0,0.0,0.0,0.0
45.774,-0.003,-0.334,0.0
117.324,-0.005,2.337,15.0
111.102,-0.004,1.561,16.0
110.959,-0.003,0.909,9.0
0.0,0.0,0.0,0.0
52.862,-0.001,-0.191,0.0
44.966,0.0,-0.425,2.0
117.309,0.0,2.085,23.0
111.127,0.0,1.324,18.0
110.436,0.0,0.668,5.0
0.0,0.0,0.0,0.0
49.588,0.0,-0.285,0.0
0.0,0.0,0.0,0.0
111.106,0.001,1.736,18.0
111.12,0.0,1.086,7.0
95.528,0.0,0.372,4.0
0.0,0.0,0.0,0.0
45.515,0.0,-0.36,2.0
0.0,0.0,0.0,0.0
111.099,-0.001,1.496,17.0
110.79,-0.002,0.842,9.0
0.0,0.0,0.0,0.0
52.801,-0.002,-0.221,0.0
44.878,-0.002,-0.45,0.0
35.192,-0.002,-0.559,0.0
111.161,-0.008,1.258,17.0
104.347,-0.009,0.57,1.0
0.0,0.0,0.0,0.0
0.0,0.0,0.0,0.0
38.02,-0.005,-0.463,0.0
0.0,0.0,0.0,0.0
111.211,-0.019,1.021,7.0
0.0,0.0,0.0,0.0
0.0,0.0,0.0,0.0
45.43,-0.01,-0.386,3.0
0.0,0.0,0.0,0.0
0.0,0.0,0.0,0.0
110.655,-0.035,0.777,9.0
0.0,0.0,0.0,0.0
0.0,0.0,0.0,0.0
40.65,-0.015,-0.432,0.0
33.851,-0.014,-0.559,0.0
28.05,-0.012,-0.627,0.0
97.584,-0.048,0.476,1.0
0.0,0.0,0.0,0.0
0.0,0.0,0.0,0.0
38.025,-0.022,-0.487,0.0
30.999,-0.019,-0.578,0.0
26.414,-0.017,-0.647,0.0
95.481,-0.067,0.26,1.0
0.0,0.0,0.0,0.0
44.994,-0.034,-0.403,1.0
35.227,-0.028,-0.525,0.0
28.888,-0.024,-0.6,0.0
24.904,-0.022,-0.663,0.0
0.0,0.0,0.0,0.0
0.0,0.0,0.0,0.0
40.066,-0.041,-0.444,0.0
32.604,-0.035,-0.556,0.0
27.474,-0.03,-0.629,0.0
23.599,-0.027,-0.678,0.0
0.0,0.0,0.0,0.0
45.204,-0.058,-0.332,1.0
0.0,0.0,0.0,0.0
30.434,-0.041,-0.583,0.0
25.786,-0.036,-0.645,0.0
22.527,-0.033,-0.695,0.0
52.858,-0.082,-0.19,0.0
45.54,-0.073,-0.43,0.0
34.209,-0.057,-0.523,0.0
0.0,0.0,0.0,0.0
24.383,-0.043,-0.661,0.0
21.506,-0.039,-0.709,0.0
0.0,0.0,0.0,0.0
39.672,-0.078,-0.458,0.0
31.883,-0.064,-0.554,0.0
26.742,-0.055,-0.624,0.0
23.461,-0.05,-0.685,0.0
20.693,-0.045,-0.725,0.0
45.36,-0.105,-0.353,1.0
0.0,0.0,0.0,0.0
30.001,-0.073,-0.585,0.0
25.653,-0.064,-0.652,0.0
22.203,-0.057,-0.695,0.0
19.861,-0.052,-0.738,0.0
44.823,-0.123,-0.442,0.0
0.0,0.0,0.0,0.0
28.42,-0.082,-0.613,0.0
24.346,-0.071,-0.67,0.0
21.404,-0.064,-0.714,0.0
19.144,-0.059,-0.751,0.0
0.0,0.0,0.0,0.0
0.0,0.0,0.0,0.0
26.628,-0.089,-0.629,0.0
23.361,-0.08,-0.691,0.0
20.355,-0.071,-0.721,0.0
18.365,-0.065,-0.759,0.0
0.0,0.0,0.0,0.0
29.716,-0.113,-0.589,0.0
25.439,-0.098,-0.654,0.0
22.056,-0.087,-0.698,2.0
19.761,-0.079,-0.741,0.0
17.678,-0.072,-0.766,0.0
33.706,-0.144,-0.541,0.0
28.174,-0.122,-0.617,0.0
24.266,-0.107,-0.673,0.0
21.112,-0.095,-0.711,0.0
18.946,-0.087,-0.749,0.0
17.187,-0.08,-0.78,0.0
30.878,-0.149,-0.558,0.0
26.538,-0.13,-0.634,0.0
23.152,-0.116,-0.689,0.0
20.249,-0.103,-0.723,0.0
18.302,-0.095,-0.76,0.0
16.634,-0.087,-0.788,0.0
29.295,-0.159,-0.587,0.0
25.293,-0.14,-0.655,0.0
22.061,-0.124,-0.7,0.0
19.536,-0.111,-0.736,0.0
17.601,-0.102,-0.766,0.0
16.144,-0.095,-0.797,0.0
28.415,-0.173,-0.626,0.0
24.098,-0.149,-0.672,0.0
21.206,-0.133,-0.715,0.0
18.879,-0.12,-0.749,0.0
17.095,-0.11,-0.778,0.0
15.669,-0.103,-0.805,0.0
26.397,-0.178,-0.634,0.0
22.847,-0.156,-0.682,0.0
20.304,-0.141,-0.725,0.0
18.13,-0.128,-0.755,0.0
16.647,-0.119,-0.791,0.0
15.135,-0.11,-0.807,0.0
24.998,-0.186,-0.649,0.0
21.863,-0.166,-0.696,0.0
19.478,-0.15,-0.734,0.0
17.702,-0.138,-0.772,0.0
16.108,-0.127,-0.797,0.0
14.767,-0.118,-0.817,0.0
23.716,-0.195,-0.662,0.0
21.142,-0.176,-0.714,0.0
18.917,-0.159,-0.749,0.0
17.011,-0.145,-0.774,0.0
15.619,-0.135,-0.803,0.0
14.317,-0.126,-0.82,0.0
22.821,-0.205,-0.68,0.0
20.138,-0.183,-0.718,0.0
0.0,0.0,0.0,0.0
16.558,-0.154,-0.785,0.0
15.142,-0.143,-0.807,0.0
14.007,-0.134,-0.828,0.0
21.985,-0.215,-0.697,0.0
19.559,-0.194,-0.734,0.0
17.653,-0.177,-0.766,0.0
16.016,-0.163,-0.79,0.0
14.825,-0.152,-0.818,0.0
13.669,-0.142,-0.834,0.0
21.094,-0.224,-0.708,0.0
18.967,-0.204,-0.747,0.0
16.989,-0.185,-0.769,0.0
15.716,-0.173,-0.804,0.0
14.384,-0.16,-0.82,0.0
13.377,-0.151,-0.841,0.0
20.526,-0.236,-0.727,0.0
18.386,-0.214,-0.758,0.0
16.671,-0.196,-0.785,0.0
15.205,-0.181,-0.806,0.0
14.089,-0.169,-0.829,0.0
13.069,-0.159,-0.846,0.0
19.757,-0.245,-0.736,0.0
17.806,-0.223,-0.767,0.0
16.17,-0.205,-0.79,0.0
14.718,-0.188,-0.807,0.0
13.749,-0.178,-0.834,0.0
12.698,-0.166,-0.844,0.0
18.987,-0.253,-0.741,0.0
17.185,-0.231,-0.77,0.0
15.811,-0.215,-0.801,0.0
14.558,-0.2,-0.824,0.0
13.483,-0.187,-0.842,0.0
12.433,-0.174,-0.849,0.0
18.42,-0.263,-0.75,0.0
16.788,-0.242,-0.782,0.0
15.296,-0.223,-0.801,0.0
14.127,-0.208,-0.824,0.0
13.09,-0.194,-0.84,0.0
12.164,-0.182,-0.852,0.0
17.906,-0.273,-0.76,0.0
16.357,-0.252,-0.79,0.0
14.946,-0.232,-0.809,0.0
13.797,-0.217,-0.828,0.0
12.868,-0.204,-0.848,0.0
11.835,-0.189,-0.849,0.0
17.384,-0.283,-0.768,0.0
15.91,-0.261,-0.795,0.0
14.584,-0.241,-0.814,0.0
13.483,-0.225,-0.832,0.0
12.532,-0.212,-0.847,0.0
11.602,-0.198,-0.852,0.0
16.97,-0.293,-0.778,0.0
15.418,-0.269,-0.796,0.0
14.298,-0.252,-0.822,0.0
13.243,-0.235,-0.839,0.0
12.28,-0.22,-0.85,0.0
11.418,-0.207,-0.857,0.0
16.578,-0.304,-0.787,0.0
15.173,-0.281,-0.808,0.0
14.018,-0.262,-0.828,0.0
13.065,-0.246,-0.849,0.0
11.991,-0.228,-0.849,0.0
11.26,-0.216,-0.863,0.0
16.106,-0.313,-0.79,0.0
14.777,-0.289,-0.811,0.0
13.69,-0.27,-0.831,0.0
12.626,-0.252,-0.841,0.0
11.718,-0.235,-0.849,0.0
11.043,-0.224,-0.864,0.0
18.182,-0.373,-0.92,0.0
14.391,-0.298,-0.812,0.0
13.431,-0.28,-0.836,0.0
12.374,-0.26,-0.843,0.0
11.548,-0.245,-0.854,0.0
10.912,-0.233,-0.871,0.0
18.139,-0.393,-0.946,7.0
18.156,-0.396,-1.052,0.0
18.134,-0.399,-1.156,0.0
12.176,-0.27,-0.848,0.0
11.351,-0.254,-0.857,0.0
10.764,-0.243,-0.876,0.0
18.135,-0.413,-0.973,10.0
18.135,-0.417,-1.078,1.0
18.146,-0.42,-1.184,1.0
11.923,-0.278,-0.848,0.0
11.194,-0.263,-0.862,0.0
10.584,-0.251,-0.877,0.0
18.134,-0.435,-0.999,9.0
18.126,-0.438,-1.104,0.0
18.145,-0.442,-1.211,0.0
11.704,-0.287,-0.85,0.0
11.02,-0.272,-0.864,0.0
10.418,-0.259,-0.878,0.0
18.14,-0.457,-1.026,1.0
13.42,-0.34,-0.837,0.0
12.439,-0.318,-0.848,0.0
11.559,-0.298,-0.856,0.0
10.914,-0.283,-0.872,0.0
10.298,-0.269,-0.883,0.0
14.195,-0.375,-0.823,0.0
13.166,-0.35,-0.839,0.0
12.224,-0.327,-0.85,0.0
11.368,-0.307,-0.858,0.0
10.744,-0.292,-0.873,0.0
10.211,-0.279,-0.889,0.0
13.937,-0.385,-0.827,0.0
12.966,-0.361,-0.844,0.0
11.956,-0.335,-0.848,0.0
11.197,-0.316,-0.86,0.0
10.569,-0.3,-0.873,0.0
10.065,-0.288,-0.89,0.0
13.662,-0.394,-0.828,0.0
12.703,-0.369,-0.844,0.0
11.758,-0.344,-0.849,0.0
11.057,-0.326,-0.864,0.0
10.477,-0.311,-0.879,0.0
9.938,-0.297,-0.892,0.0
13.503,-0.407,-0.836,0.0
12.477,-0.379,-0.845,0.0
11.591,-0.354,-0.852,0.0
10.948,-0.337,-0.869,0.0
10.338,-0.32,-0.881,0.0
9.833,-0.307,-0.895,0.0
13.289,-0.417,-0.839,0.0
12.294,-0.389,-0.848,0.0
11.445,-0.364,-0.855,0.0
10.793,-0.346,-0.87,0.0
10.272,-0.331,-0.888,0.0
9.75,-0.317,-0.899,0.0
13.114,-0.429,-0.844,0.0
12.069,-0.397,-0.847,0.0
11.285,-0.374,-0.857,0.0
10.662,-0.356,-0.872,0.0
10.174,-0.342,-0.891,0.0
9.65,-0.326,-0.901,0.0
12.707,-0.432,-0.833,0.0
11.92,-0.408,-0.85,0.0
11.176,-0.385,-0.862,0.0
10.542,-0.366,-0.875,0.0
10.027,-0.35,-0.89,0.0
9.539,-0.335,-0.902,0.0
12.385,-0.438,-0.826,0.0
11.741,-0.418,-0.851,0.0
11.038,-0.395,-0.863,0.0
10.45,-0.377,-0.879,0.0
9.916,-0.36,-0.891,0.0
9.39,-0.343,-0.898,0.0
12.447,-0.457,-0.844,0.0
11.596,-0.428,-0.853,0.0
10.969,-0.408,-0.87,0.0
10.312,-0.386,-0.878,0.0
9.831,-0.37,-0.894,0.0
9.324,-0.353,-0.902,0.0
12.282,-0.467,-0.845,0.0
11.433,-0.438,-0.853,0.0
10.837,-0.417,-0.871,0.0
10.263,-0.398,-0.885,0.0
9.763,-0.381,-0.898,0.0
9.233,-0.362,-0.903,0.0
12.15,-0.479,-0.848,0.0
11.316,-0.449,-0.855,0.0
10.689,-0.426,-0.87,0.0
10.149,-0.407,-0.885,0.0
9.67,-0.39,-0.899,0.0
9.155,-0.372,-0.904,0.0
11.968,-0.488,-0.847,0.0
11.231,-0.461,-0.86,0.0
10.6,-0.438,-0.872,0.0
10.101,-0.419,-0.891,0.0
9.606,-0.401,-0.902,0.0
9.087,-0.382,-0.906,0.0
11.857,-0.5,-0.851,0.0
11.115,-0.472,-0.861,0.0
10.52,-0.449,-0.876,0.0
9.99,-0.429,-0.89,0.0
9.482,-0.409,-0.899,0.0
9.063,-0.394,-0.912,0.0
11.71,-0.511,-0.85,0.0
11.015,-0.483,-0.863,0.0
10.452,-0.461,-0.879,0.0
9.882,-0.438,-0.889,0.0
9.412,-0.42,-0.901,0.0
9.018,-0.404,-0.915,0.0
11.592,-0.521,-0.852,0.0
10.974,-0.496,-0.869,0.0
10.352,-0.471,-0.879,0.0
9.79,-0.447,-0.889,0.0
9.398,-0.432,-0.907,0.0
8.922,-0.412,-0.913,0.0
11.494,-0.533,-0.853,0.0
10.899,-0.508,-0.872,0.0
10.278,-0.482,-0.881,0.0
9.754,-0.459,-0.893,0.0
9.352,-0.443,-0.91,0.0
8.889,-0.423,-0.916,0.0
11.397,-0.545,-0.855,0.0
10.834,-0.52,-0.874,0.0
10.22,-0.493,-0.883,0.0
9.715,-0.471,-0.896,0.0
9.229,-0.45,-0.905,0.0
8.813,-0.432,-0.915,0.0
11.345,-0.558,-0.859,0.0
10.686,-0.528,-0.87,0.0
10.156,-0.505,-0.885,0.0
9.68,-0.483,-0.9,0.0
9.211,-0.462,-0.909,0.0
8.759,-0.442,-0.915,0.0
11.273,-0.57,-0.861,0.0
10.619,-0.54,-0.872,0.0
10.106,-0.516,-0.887,0.0
9.63,-0.495,-0.901,0.0
9.181,-0.474,-0.912,0.0
8.76,-0.454,-0.921,0.0
11.176,-0.581,-0.861,0.0
10.596,-0.554,-0.876,0.0
10.041,-0.527,-0.888,0.0
9.554,-0.504,-0.9,0.0
9.135,-0.484,-0.913,0.0
8.731,-0.465,-0.923,0.0
11.135,-0.595,-0.864,0.0
10.521,-0.565,-0.876,0.0
10.005,-0.54,-0.89,0.0
9.521,-0.516,-0.902,0.0
9.11,-0.496,-0.916,0.0
8.717,-0.477,-0.926,0.0
11.068,-0.607,-0.865,0.0
10.486,-0.577,-0.879,0.0
9.935,-0.55,-0.889,0.0
9.452,-0.525,-0.901,0.0
9.049,-0.506,-0.914,0.0
8.606,-0.483,-0.919,0.0
11.014,-0.619,-0.866,0.0
10.423,-0.589,-0.879,0.0
9.911,-0.562,-0.892,0.0
9.417,-0.537,-0.902,0.0
8.999,-0.515,-0.913,0.0
8.568,-0.493,-0.919,0.0
10.96,-0.632,-0.866,0.0
10.39,-0.602,-0.88,0.0
9.827,-0.572,-0.888,0.0
9.395,-0.549,-0.904,0.0
8.985,-0.528,-0.916,0.0
8.576,-0.506,-0.923,0.0
10.949,-0.646,-0.87,0.0
10.347,-0.614,-0.881,0.0
9.821,-0.585,-0.892,0.0
9.374,-0.561,-0.905,0.0
8.97,-0.539,-0.918,0.0
8.535,-0.515,-0.922,0.0
10.922,-0.66,-0.872,0.0
10.314,-0.626,-0.882,0.0
9.819,-0.599,-0.895,0.0
9.339,-0.572,-0.905,0.0
8.868,-0.546,-0.91,0.0
8.542,-0.528,-0.925,0.0
10.897,-0.674,-0.873,0.0
10.292,-0.639,-0.883,0.0
9.769,-0.609,-0.893,0.0
9.301,-0.583,-0.904,0.0
8.919,-0.561,-0.918,0.0
8.502,-0.537,-0.923,0.0
10.87,-0.687,-0.874,0.0
10.278,-0.652,-0.884,0.0
9.755,-0.622,-0.895,0.0
9.334,-0.598,-0.91,0.0
8.965,-0.576,-0.925,0.0
8.469,-0.547,-0.922,0.0
10.872,-0.702,-0.877,0.0
10.263,-0.665,-0.885,0.0
9.728,-0.633,-0.894,0.0
9.307,-0.608,-0.909,0.0
8.894,-0.584,-0.919,0.0
8.471,-0.558,-0.924,0.0
10.836,-0.715,-0.876,0.0
10.242,-0.678,-0.885,0.0
9.727,-0.647,-0.896,0.0
9.276,-0.619,-0.908,0.0
8.906,-0.597,-0.922,0.0
8.5,-0.572,-0.928,0.0
10.839,-0.73,-0.878,0.0
10.234,-0.691,-0.886,0.0
9.711,-0.659,-0.896,0.0
9.291,-0.633,-0.91,0.0
8.907,-0.609,-0.923,0.0
8.5,-0.583,-0.929,0.0
10.836,-0.744,-0.878,0.0
10.224,-0.705,-0.886,0.0
9.688,-0.67,-0.894,0.0
9.29,-0.645,-0.911,0.0
8.886,-0.619,-0.921,0.0
8.446,-0.591,-0.924,0.0
10.848,-0.759,-0.88,0.0
10.235,-0.719,-0.888,0.0
9.716,-0.685,-0.897,0.0
9.274,-0.656,-0.909,0.0
8.855,-0.629,-0.918,0.0
8.435,-0.601,-0.922,0.0
10.837,-0.773,-0.879,0.0
10.251,-0.733,-0.889,0.0
9.716,-0.698,-0.897,0.0
9.251,-0.667,-0.907,0.0
8.932,-0.646,-0.926,0.0
8.434,-0.612,-0.922,0.0
10.861,-0.788,-0.881,0.0
10.232,-0.745,-0.887,0.0
9.73,-0.711,-0.898,0.0
9.276,-0.681,-0.909,0.0
8.87,-0.653,-0.919,0.0
8.455,-0.625,-0.924,0.0
10.844,-0.801,-0.879,0.0
10.247,-0.76,-0.887,0.0
9.751,-0.725,-0.899,0.0
9.31,-0.695,-0.912,0.0
8.889,-0.666,-0.92,0.0
8.483,-0.638,-0.926,0.0
10.853,-0.816,-0.878,0.0
10.247,-0.773,-0.886,0.0
9.771,-0.739,-0.9,0.0
9.264,-0.703,-0.906,0.0
8.858,-0.675,-0.916,0.0
8.497,-0.65,-0.926,0.0
10.882,-0.831,-0.879,0.0
10.27,-0.787,-0.886,0.0
9.769,-0.751,-0.898,0.0
9.285,-0.716,-0.906,0.0
8.934,-0.692,-0.922,0.0
0.0,0.0,0.0,0.0
10.909,-0.847,-0.879,0.0
10.282,-0.801,-0.885,0.0
9.788,-0.765,-0.897,0.0
9.32,-0.731,-0.907,0.0
8.926,-0.702,-0.919,0.0
8.461,-0.668,-0.919,0.0
10.929,-0.862,-0.877,0.0
10.322,-0.816,-0.886,0.0
9.79,-0.777,-0.895,0.0
9.34,-0.743,-0.907,0.0
8.958,-0.715,-0.92,0.0
8.573,-0.687,-0.928,0.0
10.967,-0.878,-0.877,0.0
10.357,-0.831,-0.886,0.0
9.82,-0.791,-0.895,0.0
9.402,-0.759,-0.91,0.0
9.003,-0.729,-0.922,0.0
8.494,-0.69,-0.917,0.0
10.987,-0.892,-0.876,0.0
10.394,-0.847,-0.886,0.0
9.846,-0.804,-0.894,0.0
9.389,-0.769,-0.906,0.0
8.988,-0.739,-0.917,0.0
8.575,-0.707,-0.923,0.0
11.036,-0.909,-0.875,0.0
10.441,-0.862,-0.886,0.0
9.916,-0.821,-0.896,0.0
9.456,-0.786,-0.908,0.0
9.009,-0.751,-0.915,0.0
8.64,-0.722,-0.926,0.0
11.084,-0.926,-0.875,0.0
10.507,-0.88,-0.887,0.0
9.94,-0.835,-0.894,0.0
9.492,-0.799,-0.908,0.0
9.056,-0.765,-0.916,0.0
8.618,-0.73,-0.92,0.0
11.137,-0.942,-0.874,0.0
10.541,-0.894,-0.885,0.0
10.019,-0.852,-0.897,0.0
9.503,-0.811,-0.904,0.0
9.053,-0.774,-0.912,0.0
8.609,-0.739,-0.915,0.0
11.186,-0.958,-0.872,0.0
10.596,-0.91,-0.885,0.0
10.039,-0.865,-0.894,0.0
9.561,-0.826,-0.905,0.0
9.12,-0.79,-0.914,0.0
8.694,-0.755,-0.919,0.0
11.271,-0.977,-0.873,0.0
10.679,-0.928,-0.886,0.0
10.113,-0.881,-0.895,0.0
9.601,-0.839,-0.904,0.0
9.161,-0.803,-0.913,0.0
8.774,-0.771,-0.923,0.0
26.338,1.998,-0.638,0.0
23.133,1.759,-0.693,0.0
20.351,1.551,-0.726,0.0
18.378,1.403,-0.763,0.0
16.731,1.281,-0.791,0.0
15.329,1.176,-0.812,0.0
25.468,1.96,-0.653,0.0
22.632,1.745,-0.709,0.0
20.028,1.547,-0.743,0.0
17.98,1.392,-0.772,0.0
16.338,1.268,-0.795,0.0
15.085,1.173,-0.821,0.0
24.688,1.925,-0.668,0.0
21.726,1.698,-0.712,0.0
19.477,1.525,-0.75,0.0
17.441,1.368,-0.773,0.0
16.029,1.26,-0.803,0.0
14.657,1.155,-0.818,0.0
23.828,1.882,-0.678,0.0
21.1,1.67,-0.721,0.0
18.799,1.491,-0.75,0.0
17.093,1.358,-0.782,0.0
15.693,1.249,-0.808,0.0
14.366,1.146,-0.823,0.0
23.054,1.843,-0.689,0.0
20.411,1.635,-0.727,0.0
18.331,1.471,-0.758,0.0
16.766,1.348,-0.791,0.0
15.332,1.235,-0.812,0.0
14.134,1.141,-0.83,0.0
22.385,1.81,-0.701,0.0
19.907,1.612,-0.738,0.0
17.915,1.454,-0.767,0.0
16.394,1.333,-0.797,0.0
15.078,1.228,-0.82,0.0
13.905,1.134,-0.836,0.0
21.615,1.767,-0.708,0.0
19.282,1.579,-0.742,0.0
17.447,1.431,-0.772,0.0
15.936,1.309,-0.798,0.0
14.651,1.206,-0.818,0.0
13.7,1.129,-0.844,0.0
21.064,1.739,-0.721,0.0
18.769,1.552,-0.75,0.0
17.084,1.415,-0.78,0.0
15.603,1.294,-0.804,0.0
14.442,1.2,-0.827,0.0
13.371,1.113,-0.843,0.0
20.32,1.694,-0.724,0.0
18.29,1.527,-0.757,0.0
16.63,1.39,-0.784,0.0
15.306,1.282,-0.811,0.0
14.091,1.182,-0.828,0.0
13.169,1.106,-0.85,0.0
19.761,1.662,-0.733,0.0
17.914,1.509,-0.768,0.0
16.31,1.376,-0.793,0.0
14.902,1.259,-0.811,0.0
13.82,1.169,-0.832,0.0
12.922,1.095,-0.853,0.0
19.277,1.635,-0.743,0.0
17.474,1.484,-0.774,0.0
15.879,1.35,-0.795,0.0
14.711,1.253,-0.823,0.0
13.662,1.165,-0.843,0.0
12.571,1.073,-0.848,0.0
18.772,1.604,-0.751,0.0
17.045,1.458,-0.78,0.0
15.564,1.333,-0.802,0.0
14.371,1.233,-0.825,0.0
13.375,1.149,-0.845,0.0
12.337,1.061,-0.85,0.0
18.282,1.573,-0.758,0.0
16.639,1.434,-0.786,0.0
15.232,1.314,-0.807,0.0
14.031,1.212,-0.826,0.0
13.132,1.136,-0.848,0.0
12.18,1.055,-0.857,0.0
17.857,1.547,-0.766,0.0
16.23,1.408,-0.79,0.0
14.97,1.3,-0.815,0.0
13.841,1.203,-0.835,0.0
12.886,1.122,-0.851,0.0
11.92,1.039,-0.856,0.0
17.388,1.516,-0.772,0.0
15.802,1.379,-0.792,0.0
14.645,1.279,-0.819,0.0
13.553,1.185,-0.837,0.0
12.672,1.109,-0.856,0.0
11.706,1.026,-0.858,0.0
16.947,1.485,-0.776,0.0
15.547,1.364,-0.802,0.0
14.309,1.256,-0.82,0.0
13.262,1.166,-0.838,0.0
12.307,1.083,-0.849,0.0
11.481,1.011,-0.858,0.0
0.0,0.0,0.0,0.0
28.354,-0.024,-0.648,0.0
24.576,-0.022,-0.689,0.0
21.654,-0.02,-0.721,0.0
19.584,-0.019,-0.753,0.0
17.762,-0.018,-0.775,0.0
34.944,-0.035,-0.546,0.0
29.625,-0.031,-0.615,0.0
26.205,-0.029,-0.679,0.0
22.881,-0.026,-0.713,0.0
20.511,-0.024,-0.745,0.0
18.711,-0.022,-0.776,0.0
37.786,-0.044,-0.511,0.0
31.595,-0.038,-0.59,0.0
0.0,0.0,0.0,0.0
23.841,-0.03,-0.693,0.0
21.418,-0.028,-0.733,0.0
19.348,-0.026,-0.762,0.0
40.45,-0.053,-0.462,0.0
34.662,-0.046,-0.574,0.0
28.942,-0.039,-0.628,0.0
0.0,0.0,0.0,0.0
22.407,-0.031,-0.719,0.0
20.02,-0.029,-0.746,0.0
45.521,-0.064,-0.424,1.0
0.0,0.0,0.0,0.0
30.558,-0.044,-0.599,0.0
26.422,-0.038,-0.656,0.0
23.504,-0.035,-0.705,0.0
20.913,-0.031,-0.735,0.0
0.0,0.0,0.0,0.0
39.845,-0.058,-0.491,0.0
32.937,-0.049,-0.575,0.0
28.729,-0.043,-0.653,0.0
24.573,-0.037,-0.685,0.0
21.93,-0.033,-0.724,0.0
0.0,0.0,0.0,0.0
45.379,-0.067,-0.462,0.0
35.703,-0.053,-0.547,0.0
30.269,-0.045,-0.623,0.0
26.161,-0.039,-0.673,0.0
22.953,-0.034,-0.709,0.0
0.0,0.0,0.0,0.0
45.481,-0.066,-0.367,1.0
0.0,0.0,0.0,0.0
0.0,0.0,0.0,0.0
27.957,-0.04,-0.66,0.0
24.071,-0.034,-0.692,0.0
0.0,0.0,0.0,0.0
0.0,0.0,0.0,0.0
0.0,0.0,0.0,0.0
35.014,-0.048,-0.572,0.0
29.093,-0.039,-0.625,0.0
0.0,0.0,0.0,0.0
0.0,0.0,0.0,0.0
0.0,0.0,0.0,0.0
45.416,-0.057,-0.407,1.0
0.0,0.0,0.0,0.0
31.007,-0.038,-0.6,0.0
26.696,-0.032,-0.654,0.0
99.232,-0.116,0.34,1.0
0.0,0.0,0.0,0.0
0.0,0.0,0.0,0.0
0.0,0.0,0.0,0.0
34.49,-0.037,-0.594,0.0
28.367,-0.029,-0.634,0.0
110.685,-0.11,0.617,8.0
0.0,0.0,0.0,0.0
55.501,-0.052,-0.26,1.0
45.079,-0.04,-0.447,1.0
35.562,-0.031,-0.536,0.0
30.655,-0.025,-0.619,0.0
111.308,-0.087,0.861,8.0
0.0,0.0,0.0,0.0
0.0,0.0,0.0,0.0
48.646,-0.033,-0.379,0.0
39.611,-0.025,-0.512,0.0
31.868,-0.018,-0.575,1.0
117.326,-0.063,1.158,14.0
110.499,-0.055,0.523,1.0
0.0,0.0,0.0,0.0
52.403,-0.021,-0.295,0.0
44.736,-0.016,-0.482,0.0
35.224,-0.011,-0.561,0.0
111.154,-0.028,1.337,15.0
110.964,-0.022,0.764,11.0
95.458,-0.014,0.166,1.0
0.0,0.0,0.0,0.0
45.519,-0.002,-0.393,1.0
37.706,0.0,-0.519,0.0
117.299,0.007,1.662,11.0
117.303,0.014,1.058,7.0
0.0,0.0,0.0,0.0
0.0,0.0,0.0,0.0
49.393,0.015,-0.321,0.0
0.0,0.0,0.0,0.0
40.382,2.11,3.73,43.0
41.221,2.163,3.581,30.0
40.644,2.142,3.307,36.0
40.406,2.138,3.063,43.0
40.829,2.17,2.871,43.0
40.945,2.185,2.655,41.0
41.115,2.21,3.828,39.0
40.791,2.202,3.573,48.0
40.533,2.197,3.327,35.0
40.469,2.202,3.096,42.0
40.831,2.231,2.899,38.0
40.987,2.249,2.686,39.0
41.185,2.275,3.863,38.0
41.033,2.276,3.622,39.0
40.457,2.253,3.348,34.0
40.48,2.263,3.124,41.0
41.09,2.307,2.945,35.0
40.977,2.31,2.712,32.0
41.309,2.345,3.901,23.0
41.454,2.362,3.685,42.0
40.556,2.319,3.382,36.0
40.529,2.327,3.152,37.0
41.371,2.384,2.991,26.0
41.307,2.39,2.759,36.0
41.279,2.405,3.923,31.0
41.446,2.424,3.71,40.0
0.0,0.0,0.0,0.0
40.906,2.41,3.205,31.0
41.321,2.444,3.01,39.0
41.843,2.484,2.818,24.0
44.714,2.673,4.275,37.0
41.759,2.505,3.761,17.0
40.957,2.465,3.462,56.0
41.194,2.488,3.25,38.0
41.31,2.505,3.031,40.0
41.772,2.542,2.835,29.0
45.178,2.768,4.343,30.0
42.141,2.591,3.816,17.0
41.668,2.571,3.543,43.0
41.682,2.581,3.309,35.0
41.611,2.585,3.074,31.0
41.599,2.594,2.843,30.0
52.32,3.285,5.054,8.0
42.152,2.655,3.837,31.0
42.027,2.656,3.593,33.0
41.854,2.654,3.342,11.0
41.666,2.651,3.096,37.0
41.641,2.658,2.864,29.0
52.311,3.362,5.075,12.0
42.449,2.737,3.882,23.0
41.935,2.713,3.602,24.0
44.202,2.868,3.547,5.0
41.637,2.711,3.11,29.0
41.593,2.717,2.877,31.0
42.476,2.793,4.138,1.0
42.101,2.777,3.866,34.0
41.92,2.773,3.616,36.0
41.901,2.781,3.377,27.0
41.686,2.775,3.129,31.0
41.484,2.771,2.884,25.0
41.959,2.821,4.102,7.0
42.028,2.834,3.873,39.0
41.867,2.832,3.625,27.0
41.878,2.841,3.389,12.0
46.005,3.131,3.467,5.0
41.518,2.834,2.899,37.0
42.128,2.895,4.131,31.0
42.018,2.895,3.885,35.0
41.628,2.876,3.616,26.0
41.658,2.887,3.383,11.0
41.862,2.909,3.166,32.0
41.819,2.915,2.93,16.0
41.452,2.909,4.075,25.0
41.476,2.918,3.845,16.0
41.427,2.923,3.609,34.0
41.77,2.955,3.401,19.0
41.683,2.957,3.162,36.0
45.989,3.272,3.232,6.0
41.525,2.975,4.091,35.0
41.327,2.968,3.84,38.0
41.323,2.976,3.608,34.0
41.453,2.993,3.383,40.0
41.572,3.01,3.161,43.0
45.942,3.335,3.237,11.0
46.039,3.364,4.543,7.0
41.25,3.022,3.839,41.0
41.38,3.039,3.619,42.0
41.396,3.049,3.385,47.0
41.641,3.075,3.172,38.0
41.687,3.086,2.943,43.0
41.266,3.075,4.077,40.0
41.273,3.083,3.846,39.0
41.219,3.086,3.61,41.0
41.566,3.12,3.403,30.0
41.595,3.13,3.172,30.0
41.766,3.151,2.952,32.0
45.886,3.684,1.119,35.0
45.913,3.676,0.86,33.0
45.92,3.666,0.6,35.0
45.88,3.653,0.335,33.0
45.714,3.629,0.075,28.0
44.537,3.526,-0.178,19.0
98.885,7.785,2.323,11.0
98.905,7.763,1.763,8.0
99.04,7.751,1.205,10.0
98.883,7.716,0.634,13.0
45.751,3.559,0.034,19.0
44.49,3.451,-0.217,19.0
99.786,7.696,2.255,9.0
99.909,7.681,1.693,8.0
99.978,7.661,1.128,9.0
77.886,5.951,0.431,4.0
45.812,3.489,-0.005,19.0
44.465,3.377,-0.255,7.0
100.735,7.605,2.191,9.0
100.853,7.588,1.623,9.0
100.87,7.565,1.054,8.0
52.336,3.912,0.246,5.0
45.781,3.412,-0.043,19.0
41.897,3.112,-0.276,14.0
101.884,7.521,2.131,6.0
101.995,7.504,1.557,8.0
101.99,7.478,0.981,8.0
52.16,3.812,0.202,14.0
45.686,3.327,-0.08,20.0
42.164,3.061,-0.312,6.0
102.082,7.362,2.052,50.0
52.276,3.756,0.756,21.0
52.239,3.741,0.461,22.0
52.032,3.713,0.16,16.0
45.629,3.244,-0.116,19.0
42.233,2.993,-0.345,5.0
52.225,3.677,1.01,33.0
52.202,3.661,0.715,30.0
52.209,3.648,0.421,25.0
51.91,3.614,0.12,21.0
45.64,3.166,-0.15,19.0
42.777,2.957,-0.381,6.0
52.194,3.583,0.97,41.0
52.206,3.57,0.676,38.0
52.191,3.556,0.382,25.0
51.839,3.518,0.083,18.0
45.339,3.065,-0.181,19.0
43.296,2.916,-0.417,7.0
52.236,3.493,0.933,44.0
52.239,3.479,0.64,36.0
52.219,3.463,0.346,25.0
51.72,3.417,0.047,16.0
45.186,2.974,-0.212,19.0
44.038,2.887,-0.454,0.0
52.38,3.408,0.901,12.0
52.358,3.393,0.606,12.0
52.344,3.378,0.312,25.0
51.582,3.315,0.012,19.0
45.258,2.896,-0.243,19.0
40.774,2.598,-0.447,0.0
110.887,7.012,1.835,7.0
111.084,6.994,1.214,10.0
52.422,3.286,0.278,3.0
51.572,3.219,-0.019,21.0
45.4,2.821,-0.272,12.0
39.832,2.464,-0.462,0.0
111.109,6.821,1.77,46.0
111.115,6.789,1.146,26.0
52.484,3.192,0.247,3.0
51.468,3.116,-0.051,24.0
45.889,2.765,-0.302,12.0
37.957,2.277,-0.463,0.0
47.662,2.836,0.731,49.0
114.709,6.792,1.116,7.0
59.262,3.492,0.245,3.0
51.377,3.014,-0.08,22.0
46.428,2.71,-0.332,9.0
0.0,0.0,0.0,0.0
47.845,2.756,0.707,28.0
47.754,2.737,0.438,10.0
59.321,3.383,0.213,14.0
51.303,2.911,-0.107,23.0
47.439,2.678,-0.365,1.0
37.503,2.107,-0.498,0.0
48.019,2.674,0.685,17.0
59.334,3.287,0.514,23.0
59.245,3.265,0.182,15.0
51.213,2.807,-0.133,21.0
46.073,2.512,-0.377,0.0
35.859,1.945,-0.494,0.0
48.206,2.591,0.664,15.0
59.331,3.172,0.486,32.0
59.236,3.149,0.154,17.0
51.298,2.712,-0.157,18.0
0.0,0.0,0.0,0.0
35.731,1.868,-0.508,0.0
48.447,2.51,0.645,12.0
59.473,3.062,0.46,22.0
59.266,3.034,0.128,17.0
51.357,2.614,-0.18,7.0
43.474,2.199,-0.395,1.0
34.98,1.759,-0.512,0.0
48.706,2.427,0.628,9.0
120.023,5.943,0.88,15.0
59.28,2.917,0.104,7.0
51.65,2.525,-0.202,5.0
43.613,2.119,-0.413,1.0
35.337,1.707,-0.531,0.0
120.008,5.74,1.502,12.0
119.989,5.701,0.834,11.0
58.904,2.78,0.081,8.0
52.194,2.448,-0.223,13.0
43.79,2.041,-0.43,0.0
34.627,1.603,-0.533,0.0
66.093,3.029,0.804,23.0
66.082,3.007,0.437,17.0
65.074,2.942,0.068,8.0
53.118,2.385,-0.244,13.0
0.0,0.0,0.0,0.0
34.732,1.538,-0.546,0.0
66.048,2.893,0.783,28.0
66.038,2.872,0.416,24.0
58.897,2.543,0.044,7.0
54.351,2.329,-0.266,3.0
40.669,1.731,-0.425,0.0
33.918,1.433,-0.542,0.0
62.472,2.608,0.724,7.0
66.084,2.739,0.399,21.0
58.912,2.423,0.028,7.0
54.881,2.24,-0.282,2.0
40.692,1.648,-0.435,0.0
33.866,1.361,-0.55,0.0
119.974,4.766,1.362,19.0
71.972,2.836,0.417,8.0
64.82,2.533,0.017,7.0
52.566,2.037,-0.282,0.0
40.549,1.559,-0.442,0.0
34.095,1.3,-0.561,0.0
72.483,2.73,0.808,14.0
71.974,2.687,0.404,14.0
59.072,2.186,0.004,7.0
54.166,1.987,-0.301,0.0
40.621,1.477,-0.45,0.0
0.0,0.0,0.0,0.0
72.353,2.574,0.794,31.0
71.888,2.534,0.391,16.0
64.772,2.262,-0.004,6.0
54.288,1.878,-0.309,1.0
40.488,1.388,-0.454,0.0
33.642,1.142,-0.563,0.0
72.368,2.423,0.785,31.0
71.992,2.387,0.383,16.0
64.945,2.131,-0.012,2.0
0.0,0.0,0.0,0.0
0.0,0.0,0.0,0.0
32.796,1.044,-0.552,0.0
119.928,3.764,1.29,11.0
72.001,2.236,0.377,12.0
64.407,1.979,-0.017,4.0
51.934,1.579,-0.305,0.0
40.898,1.229,-0.466,0.0
0.0,0.0,0.0,0.0
74.691,2.187,0.799,10.0
71.979,2.084,0.373,9.0
63.82,1.827,-0.02,3.0
0.0,0.0,0.0,0.0
41.02,1.147,-0.469,1.0
33.075,0.913,-0.56,0.0
78.805,2.141,0.842,17.0
71.934,1.93,0.372,7.0
65.536,1.736,-0.021,6.0
0.0,0.0,0.0,0.0
0.0,0.0,0.0,0.0
33.387,0.851,-0.565,0.0
85.295,2.136,0.913,25.0
78.877,1.949,0.411,8.0
67.229,1.639,-0.019,5.0
0.0,0.0,0.0,0.0
0.0,0.0,0.0,0.0
32.587,0.76,-0.549,0.0
85.241,1.952,0.917,34.0
84.762,1.912,0.447,7.0
69.083,1.535,-0.014,2.0
51.917,1.136,-0.301,0.0
0.0,0.0,0.0,0.0
33.163,0.702,-0.556,0.0
85.423,1.773,0.928,28.0
72.181,1.474,0.388,1.0
70.482,1.415,-0.007,5.0
0.0,0.0,0.0,0.0
40.659,0.789,-0.454,0.0
33.4,0.636,-0.556,0.0
91.881,1.711,1.01,10.0
84.751,1.549,0.468,10.0
72.955,1.309,0.003,4.0
0.0,0.0,0.0,0.0
41.622,0.718,-0.458,1.0
33.98,0.574,-0.559,0.0
91.892,1.517,1.026,33.0
85.153,1.376,0.485,7.0
52.42,0.828,0.012,2.0
0.0,0.0,0.0,0.0
41.399,0.626,-0.447,1.0
33.638,0.497,-0.547,0.0
98.612,1.419,1.122,30.0
85.385,1.198,0.505,9.0
75.003,1.026,0.034,1.0
0.0,0.0,0.0,0.0
43.896,0.569,-0.463,0.0
35.031,0.442,-0.561,0.0
98.536,1.206,1.146,32.0
97.905,1.164,0.604,5.0
80.251,0.927,0.057,0.0
0.0,0.0,0.0,0.0
41.235,0.447,-0.424,0.0
34.241,0.36,-0.539,0.0
98.691,0.998,1.176,26.0
98.135,0.959,0.634,13.0
0.0,0.0,0.0,0.0
0.0,0.0,0.0,0.0
42.924,0.374,-0.428,0.0
35.236,0.295,-0.543,0.0
0.0,0.0,0.0,0.0
104.702,0.802,0.711,8.0
59.307,0.433,0.08,5.0
54.754,0.381,-0.229,0.0
42.831,0.283,-0.412,0.0
34.787,0.217,-0.524,0.0
111.082,0.654,1.399,30.0
104.659,0.581,0.749,10.0
87.888,0.456,0.151,4.0
0.0,0.0,0.0,0.0
42.901,0.193,-0.396,0.0
0.0,0.0,0.0,0.0
119.763,0.452,1.556,10.0
110.837,0.38,0.838,8.0
0.0,0.0,0.0,0.0
0.0,0.0,0.0,0.0
45.149,0.107,-0.398,1.0
36.302,0.074,-0.517,0.0
111.053,0.186,1.491,24.0
110.898,0.147,0.888,8.0
95.661,0.093,0.247,4.0
0.0,0.0,0.0,0.0
45.218,0.012,-0.377,2.0
37.497,-0.002,-0.516,0.0
117.369,-0.047,1.631,12.0
117.272,-0.088,0.995,10.0
0.0,0.0,0.0,0.0
0.0,0.0,0.0,0.0
45.528,-0.082,-0.357,0.0
0.0,0.0,0.0,0.0
112.963,-0.283,1.628,4.0
119.722,-0.34,1.077,12.0
103.282,-0.33,0.371,3.0
0.0,0.0,0.0,0.0
0.0,0.0,0.0,0.0
0.0,0.0,0.0,0.0
119.801,-0.549,1.792,6.0
119.684,-0.591,1.143,17.0
0.0,0.0,0.0,0.0
0.0,0.0,0.0,0.0
49.149,-0.294,-0.331,1.0
40.141,-0.254,-0.487,0.0
119.812,-0.8,1.862,20.0
119.706,-0.841,1.214,16.0
0.0,0.0,0.0,0.0
0.0,0.0,0.0,0.0
0.0,0.0,0.0,0.0
40.888,-0.344,-0.471,0.0
119.74,-1.047,1.936,113.0
119.755,-1.088,1.29,114.0
119.729,-1.129,0.644,22.0
0.0,0.0,0.0,0.0
50.906,-0.516,-0.279,0.0
0.0,0.0,0.0,0.0
204.329,-2.205,3.437,6.0
139.456,-1.554,1.595,4.0
139.284,-1.601,0.843,3.0
0.0,0.0,0.0,0.0
51.202,-0.623,-0.246,0.0
0.0,0.0,0.0,0.0
204.256,-2.619,3.577,22.0
0.0,0.0,0.0,0.0
138.839,-1.876,0.938,16.0
0.0,0.0,0.0,0.0
0.0,0.0,0.0,0.0
46.759,-0.68,-0.442,0.0
194.442,-2.886,3.545,8.0
0.0,0.0,0.0,0.0
138.918,-2.154,1.039,10.0
0.0,0.0,0.0,0.0
0.0,0.0,0.0,0.0
46.071,-0.762,-0.401,0.0
193.843,-3.259,3.679,22.0
0.0,0.0,0.0,0.0
139.042,-2.434,1.147,22.0
0.0,0.0,0.0,0.0
0.0,0.0,0.0,0.0
46.162,-0.854,-0.366,0.0
193.315,-3.631,3.821,19.0
138.97,-2.658,2.002,6.0
138.963,-2.705,1.257,24.0
0.0,0.0,0.0,0.0
0.0,0.0,0.0,0.0
50.383,-1.032,-0.358,0.0
193.467,-4.012,3.983,19.0
138.871,-2.926,2.115,5.0
138.942,-2.974,1.372,16.0
0.0,0.0,0.0,0.0
0.0,0.0,0.0,0.0
50.133,-1.124,-0.314,0.0
0.0,0.0,0.0,0.0
193.051,-4.445,3.107,6.0
138.857,-3.243,1.493,10.0
138.8,-3.287,0.735,3.0
0.0,0.0,0.0,0.0
51.43,-1.252,-0.276,0.0
0.0,0.0,0.0,0.0
193.139,-4.817,3.281,9.0
0.0,0.0,0.0,0.0
138.699,-3.55,0.86,10.0
0.0,0.0,0.0,0.0
54.614,-1.434,-0.244,0.0
0.0,0.0,0.0,0.0
0.0,0.0,0.0,0.0
0.0,0.0,0.0,0.0
138.447,-3.808,0.989,22.0
0.0,0.0,0.0,0.0
0.0,0.0,0.0,0.0
194.665,-5.532,4.714,15.0
194.44,-5.588,3.671,16.0
138.625,-4.028,1.878,3.0
138.439,-4.067,1.123,17.0
0.0,0.0,0.0,0.0
0.0,0.0,0.0,0.0
194.093,-5.875,4.89,23.0
194.402,-5.948,3.862,15.0
138.618,-4.282,2.014,4.0
138.661,-4.329,1.263,23.0
0.0,0.0,0.0,0.0
0.0,0.0,0.0,0.0
194.112,-6.229,5.085,24.0
193.92,-6.287,4.05,9.0
138.396,-4.529,2.153,4.0
138.602,-4.581,1.406,23.0
0.0,0.0,0.0,0.0
0.0,0.0,0.0,0.0
193.207,-6.55,5.263,13.0
193.332,-6.615,4.238,19.0
193.185,-6.67,3.207,14.0
138.529,-4.825,1.55,8.0
138.59,-4.871,0.814,6.0
0.0,0.0,0.0,0.0
193.037,-6.887,5.463,21.0
193.344,-6.958,4.446,25.0
193.444,-7.019,3.42,20.0
0.0,0.0,0.0,0.0
138.436,-5.111,0.965,16.0
0.0,0.0,0.0,0.0
193.492,-7.242,5.688,17.0
192.65,-7.27,4.642,24.0
193.662,-7.369,3.639,14.0
0.0,0.0,0.0,0.0
138.469,-5.352,1.119,17.0
0.0,0.0,0.0,0.0
193.845,-7.59,5.916,23.0
192.757,-7.606,4.861,22.0
193.733,-7.703,3.858,19.0
138.178,-5.533,2.005,28.0
138.367,-5.583,1.275,23.0
0.0,0.0,0.0,0.0
193.979,-7.924,6.142,20.0
193.062,-7.944,5.091,22.0
193.514,-8.021,4.078,21.0
138.109,-5.763,2.165,127.0
138.179,-5.807,1.434,10.0
137.903,-5.838,0.702,4.0
117.41,-4.994,3.856,13.0
193.333,-8.277,5.326,21.0
194.299,-8.375,4.323,9.0
138.088,-5.993,2.329,65.0
194.815,-8.511,2.256,5.0
138.005,-6.069,0.868,11.0
20.124,-0.889,0.685,3.0
20.132,-0.895,0.579,2.0
20.164,-0.902,0.473,0.0
193.594,-8.72,3.503,21.0
194.574,-8.819,2.492,17.0
138.27,-6.308,1.041,15.0
20.101,-0.92,0.709,19.0
20.099,-0.926,0.603,17.0
20.123,-0.932,0.497,14.0
20.136,-0.939,0.389,15.0
20.174,-0.946,0.283,0.0
138.242,-6.526,1.213,22.0
20.088,-0.951,0.733,17.0
20.107,-0.958,0.628,24.0
20.113,-0.964,0.522,25.0
20.119,-0.969,0.414,20.0
20.149,-0.976,0.308,19.0
20.163,-0.983,0.202,13.0
20.099,-0.983,0.76,15.0
20.119,-0.989,0.654,22.0
20.138,-0.996,0.548,22.0
20.108,-1.0,0.439,20.0
20.139,-1.007,0.334,23.0
20.119,-1.011,0.228,23.0
20.06,-1.012,0.784,7.0
19.989,-1.014,0.676,13.0
19.974,-1.018,0.57,15.0
19.969,-1.023,0.463,13.0
19.964,-1.028,0.357,14.0
19.999,-1.035,0.253,30.0
20.075,-1.043,0.811,5.0
19.984,-1.043,0.702,17.0
19.977,-1.048,0.597,19.0
19.946,-1.051,0.489,19.0
19.949,-1.057,0.384,17.0
19.972,-1.063,0.279,20.0
20.071,-1.072,0.838,2.0
19.999,-1.073,0.73,18.0
19.982,-1.077,0.624,22.0
19.966,-1.081,0.516,21.0
19.96,-1.086,0.411,21.0
19.953,-1.091,0.306,20.0
20.031,-1.098,0.864,17.0
20.017,-1.102,0.758,20.0
19.963,-1.104,0.65,19.0
19.966,-1.109,0.543,21.0
19.952,-1.113,0.438,21.0
19.945,-1.117,0.333,21.0
19.982,-1.123,0.889,25.0
20.038,-1.13,0.786,21.0
19.96,-1.131,0.678,17.0
19.949,-1.135,0.571,23.0
19.952,-1.14,0.466,24.0
19.949,-1.145,0.361,23.0
19.977,-1.149,0.917,27.0
20.029,-1.157,0.814,28.0
19.967,-1.158,0.706,17.0
19.959,-1.162,0.599,24.0
19.949,-1.166,0.493,21.0
19.939,-1.17,0.389,23.0
19.98,-1.176,0.945,26.0
20.031,-1.183,0.842,20.0
19.975,-1.184,0.735,17.0
19.959,-1.188,0.627,22.0
19.94,-1.191,0.522,25.0
19.94,-1.196,0.417,22.0
19.977,-1.201,0.973,18.0
20.037,-1.209,0.871,14.0
19.992,-1.21,0.764,13.0
19.926,-1.211,0.654,18.0
19.943,-1.216,0.55,25.0
19.929,-1.22,0.446,22.0
20.045,-1.23,1.006,10.0
73.268,-4.513,3.292,13.0
20.005,-1.236,0.793,10.0
19.95,-1.237,0.684,17.0
19.948,-1.241,0.58,25.0
19.945,-1.244,0.475,22.0
70.985,-4.442,3.666,33.0
73.29,-4.601,3.4,27.0
20.033,-1.261,0.824,3.0
19.944,-1.26,0.713,15.0
19.954,-1.264,0.609,24.0
19.941,-1.268,0.504,22.0
70.394,-4.487,3.74,20.0
70.937,-4.535,3.395,26.0
72.392,-4.642,3.085,9.0
19.973,-1.284,0.744,12.0
19.938,-1.286,0.638,15.0
19.931,-1.289,0.534,16.0
70.462,-4.572,3.849,27.0
70.887,-4.612,3.5,7.0
78.993,-5.153,3.484,10.0
20.026,-1.31,0.776,6.0
19.998,-1.311,0.67,10.0
20.02,-1.317,0.565,12.0
70.595,-4.655,3.96,31.0
70.935,-4.69,3.606,15.0
70.757,-4.691,3.225,9.0
72.318,-4.807,2.91,37.0
19.993,-1.332,0.699,10.0
20.037,-1.339,0.596,9.0
71.103,-4.764,4.097,42.0
70.579,-4.74,3.695,22.0
70.773,-4.764,3.333,12.0
72.551,-4.896,3.029,25.0
20.003,-1.353,0.73,8.0
20.009,-1.357,0.625,11.0
71.367,-4.853,4.219,39.0
70.498,-4.805,3.798,34.0
67.873,-4.636,3.299,24.0
67.894,-4.648,2.937,54.0
67.887,-4.658,2.581,38.0
20.002,-1.375,0.655,12.0
71.699,-4.944,4.347,18.0
78.746,-5.442,4.361,6.0
67.89,-4.701,3.403,53.0
67.891,-4.711,3.039,47.0
67.903,-4.723,2.684,55.0
20.013,-1.395,0.686,9.0
71.682,-5.009,4.457,10.0
71.317,-4.993,4.058,22.0
67.895,-4.762,3.507,43.0
67.915,-4.774,3.145,59.0
67.909,-4.783,2.789,58.0
67.888,-4.791,2.432,16.0
76.08,-5.383,4.847,11.0
71.274,-5.052,4.166,19.0
71.501,-5.078,3.803,14.0
67.906,-4.831,3.249,62.0
67.924,-4.842,2.894,56.0
67.91,-4.85,2.537,50.0
76.596,-5.484,4.998,8.0
71.389,-5.119,4.283,40.0
71.211,-5.116,3.899,30.0
67.902,-4.886,3.354,51.0
67.913,-4.896,2.998,58.0
67.91,-4.904,2.642,52.0
71.836,-5.2,4.799,11.0
71.888,-5.211,4.423,11.0
71.33,-5.179,4.014,24.0
67.903,-4.938,3.457,48.0
67.924,-4.947,3.102,63.0
67.929,-4.956,2.747,58.0
71.852,-5.255,4.91,9.0
71.943,-5.269,4.538,11.0
71.408,-5.237,4.129,13.0
67.874,-4.986,3.561,21.0
67.909,-4.996,3.207,72.0
67.919,-5.003,2.851,60.0
71.886,-5.309,5.025,11.0
71.995,-5.324,4.653,15.0
71.192,-5.271,4.227,6.0
71.31,-5.287,3.851,23.0
67.92,-5.042,3.312,67.0
67.919,-5.049,2.956,59.0
76.211,-5.679,5.445,5.0
71.859,-5.361,4.756,37.0
72.169,-5.39,4.396,6.0
0.0,0.0,0.0,0.0
67.903,-5.084,3.415,51.0
67.937,-5.092,3.061,52.0
74.623,-5.607,5.447,10.0
71.351,-5.367,4.832,10.0
72.244,-5.439,4.512,19.0
71.595,-5.396,4.089,31.0
67.918,-5.125,3.521,29.0
67.932,-5.132,3.165,37.0
78.176,-5.921,5.828,18.0
70.93,-5.376,4.915,24.0
71.78,-5.446,4.595,18.0
71.762,-5.449,4.209,12.0
71.009,-5.397,3.792,8.0
71.195,-5.417,3.428,21.0
68.007,-5.187,5.176,19.0
67.975,-5.188,4.814,26.0
67.991,-5.193,4.457,32.0
67.96,-5.195,4.091,43.0
67.97,-5.201,3.735,50.0
67.951,-5.203,3.376,58.0
68.005,-5.221,5.281,78.0
67.981,-5.222,4.921,82.0
67.97,-5.225,4.561,78.0
67.95,-5.226,4.195,81.0
67.944,-5.23,3.837,85.0
67.946,-5.234,3.48,74.0
68.008,-5.252,5.386,74.0
67.987,-5.253,5.026,79.0
67.97,-5.254,4.666,76.0
67.959,-5.256,4.3,75.0
67.948,-5.258,3.942,82.0
67.946,-5.262,3.585,75.0
68.013,-5.28,5.492,26.0
68.007,-5.282,5.133,38.0
67.998,-5.284,4.773,40.0
67.968,-5.283,4.405,41.0
67.959,-5.285,4.046,40.0
67.956,-5.288,3.689,46.0
73.531,-5.736,6.051,43.0
72.697,-5.672,5.597,10.0
70.689,-5.517,5.069,38.0
67.97,-5.307,4.509,4.0
71.787,-5.606,4.384,10.0
67.969,-5.31,3.794,19.0
73.397,-5.749,6.152,20.0
74.643,-5.848,5.862,9.0
70.908,-5.556,5.193,12.0
70.814,-5.55,4.804,9.0
71.828,-5.631,4.495,12.0
72.538,-5.688,4.157,8.0
70.692,-5.557,6.032,20.0
73.168,-5.752,5.855,14.0
78.2,-6.149,5.844,10.0
70.628,-5.553,4.898,25.0
76.115,-5.985,4.877,8.0
71.529,-5.626,4.206,13.0
70.611,-5.567,6.131,16.0
73.503,-5.795,5.993,28.0
72.725,-5.734,5.544,9.0
70.53,-5.56,4.997,33.0
76.202,-6.008,4.995,8.0
71.591,-5.644,4.315,19.0
70.754,-5.593,6.25,13.0
73.445,-5.804,6.097,11.0
74.751,-5.907,5.81,5.0
70.627,-5.58,5.107,31.0
70.986,-5.607,4.758,8.0
71.672,-5.661,4.425,12.0
70.939,-5.618,6.371,19.0
70.801,-5.605,5.982,18.0
73.186,-5.793,5.795,8.0
78.568,-6.217,5.797,10.0
70.948,-5.613,4.859,14.0
75.798,-5.995,4.791,8.0
70.903,-5.623,6.472,25.0
70.686,-5.604,6.075,18.0
73.209,-5.801,5.904,24.0
72.695,-5.758,5.469,7.0
70.533,-5.586,4.932,13.0
76.029,-6.018,4.915,7.0
70.909,-5.628,6.576,14.0
70.657,-5.605,6.176,18.0
73.369,-5.817,6.022,19.0
72.687,-5.76,5.573,9.0
70.508,-5.586,5.031,32.0
75.709,-5.995,5.002,9.0
70.953,-5.633,6.682,8.0
70.92,-5.627,6.301,13.0
70.763,-5.611,5.91,9.0
70.957,-5.624,5.542,8.0
70.663,-5.597,5.143,12.0
71.005,-5.621,4.792,10.0
71.851,-5.704,6.868,9.0
70.914,-5.625,6.4,23.0
70.763,-5.609,6.008,19.0
73.136,-5.793,5.813,16.0
78.504,-6.214,5.823,12.0
70.843,-5.604,4.879,14.0
71.702,-5.687,6.955,26.0
70.885,-5.618,6.496,20.0
70.654,-5.595,6.097,18.0
73.241,-5.795,5.923,26.0
72.74,-5.751,5.495,9.0
70.507,-5.571,4.951,24.0
71.696,-5.679,7.053,40.0
70.955,-5.615,6.6,9.0
70.674,-5.588,6.196,11.0
73.475,-5.805,6.042,16.0
72.731,-5.741,5.593,8.0
70.624,-5.57,5.055,38.0
71.923,-5.687,7.173,40.0
70.993,-5.608,6.699,10.0
70.934,-5.598,6.314,13.0
70.765,-5.579,5.913,16.0
74.667,-5.881,5.841,7.0
70.901,-5.58,5.169,17.0
71.991,-5.68,7.275,27.0
71.228,-5.613,6.816,10.0
70.838,-5.577,6.399,11.0
70.688,-5.558,6.001,18.0
73.131,-5.745,5.817,10.0
78.093,-6.128,5.796,10.0
71.732,-5.644,7.345,18.0
71.622,-5.627,6.949,15.0
70.813,-5.557,6.491,16.0
70.585,-5.533,6.084,33.0
73.405,-5.747,5.935,21.0
72.669,-5.683,5.487,10.0
71.608,-5.615,7.426,8.0
71.485,-5.598,7.028,27.0
