X,Y,Z,Reflectivity
66.322,7.804,1.119,48.0
66.361,7.817,0.742,34.0
66.464,7.837,0.363,22.0
66.333,7.846,2.2,32.0
66.407,7.861,1.824,22.0
66.496,7.878,1.446,16.0
66.474,7.883,1.06,15.0
66.393,7.881,0.68,16.0
66.333,7.881,0.301,12.0
66.384,7.911,2.139,16.0
66.265,7.903,1.756,14.0
66.203,7.902,1.377,15.0
66.125,7.899,0.991,16.0
66.077,7.9,0.613,17.0
65.994,7.898,0.237,13.0
66.048,7.927,2.065,15.0
65.971,7.923,1.685,17.0
65.921,7.923,1.308,15.0
65.821,7.917,0.923,14.0
65.737,7.914,0.546,15.0
65.693,7.915,0.171,11.0
65.734,7.942,1.991,15.0
65.671,7.94,1.613,17.0
65.593,7.936,1.236,14.0
65.531,7.934,0.854,14.0
65.456,7.931,0.48,18.0
65.396,7.931,0.106,12.0
65.452,7.958,1.917,14.0
65.372,7.953,1.541,15.0
65.298,7.949,1.165,14.0
65.227,7.946,0.784,15.0
65.174,7.945,0.411,20.0
65.116,7.945,0.039,11.0
65.141,7.967,1.841,16.0
65.091,7.965,1.467,16.0
65.02,7.961,1.094,15.0
64.976,7.961,0.715,17.0
64.911,7.958,0.343,18.0
64.831,7.955,-0.027,11.0
64.911,7.983,1.768,16.0
64.877,7.983,1.396,16.0
64.786,7.976,1.023,16.0
64.725,7.973,0.646,17.0
64.652,7.969,0.275,21.0
64.636,7.972,-0.094,4.0
64.664,7.992,1.694,16.0
64.642,7.993,1.324,17.0
64.537,7.984,0.953,17.0
64.497,7.984,0.576,20.0
64.436,7.981,0.207,19.0
45.644,5.657,-0.114,3.0
64.456,8.004,1.621,19.0
64.4,8.001,1.251,17.0
64.342,7.997,0.881,17.0
64.288,7.995,0.505,18.0
64.233,7.993,0.137,13.0
0.0,0.0,0.0,0.0
64.262,8.015,1.547,16.0
64.21,8.012,1.177,17.0
64.139,8.006,0.809,17.0
64.098,8.005,0.435,18.0
64.046,8.002,0.068,8.0
45.431,5.679,-0.211,11.0
64.059,8.022,1.473,17.0
64.021,8.019,1.105,17.0
63.971,8.016,0.738,17.0
63.932,8.015,0.365,21.0
63.857,8.009,0.0,8.0
41.966,5.266,-0.241,17.0
63.901,8.03,1.399,16.0
63.832,8.024,1.031,16.0
63.819,8.025,0.665,17.0
63.763,8.021,0.293,21.0
59.818,7.528,-0.066,5.0
40.771,5.133,-0.279,16.0
63.754,8.038,1.325,15.0
63.697,8.033,0.958,17.0
63.683,8.033,0.594,19.0
63.619,8.028,0.223,19.0
59.883,7.559,-0.133,5.0
39.898,5.038,-0.317,16.0
63.634,8.045,1.253,16.0
63.592,8.042,0.887,16.0
63.518,8.034,0.522,18.0
63.509,8.035,0.152,19.0
45.595,5.771,-0.152,16.0
39.353,4.983,-0.356,15.0
63.515,8.05,1.18,15.0
63.486,8.048,0.814,16.0
63.43,8.042,0.451,17.0
63.39,8.039,0.081,16.0
45.461,5.767,-0.202,11.0
38.887,4.935,-0.396,15.0
63.41,8.053,1.107,15.0
63.397,8.053,0.743,17.0
63.342,8.047,0.379,19.0
63.276,8.04,0.009,13.0
41.812,5.314,-0.233,17.0
38.556,4.902,-0.436,10.0
63.346,8.059,1.033,14.0
63.292,8.053,0.669,16.0
63.271,8.051,0.307,20.0
60.832,7.742,-0.059,13.0
40.927,5.21,-0.274,16.0
38.408,4.89,-0.477,7.0
63.263,8.059,0.96,18.0
63.236,8.056,0.597,17.0
63.197,8.052,0.235,21.0
60.542,7.715,-0.127,21.0
40.075,5.107,-0.314,16.0
38.403,4.895,-0.521,4.0
63.218,8.062,0.889,17.0
63.191,8.058,0.526,19.0
63.154,8.054,0.163,18.0
45.588,5.814,-0.147,12.0
39.324,5.016,-0.352,24.0
30.082,3.838,-0.442,13.0
63.173,8.061,0.817,15.0
63.177,8.061,0.454,17.0
63.132,8.055,0.092,17.0
0.0,0.0,0.0,0.0
38.915,4.966,-0.393,14.0
29.702,3.791,-0.47,8.0
63.159,8.061,0.744,15.0
63.157,8.06,0.381,19.0
63.099,8.052,0.02,8.0
41.677,5.318,-0.23,17.0
38.538,4.918,-0.433,13.0
29.068,3.71,-0.493,2.0
63.159,8.06,0.672,16.0
63.164,8.06,0.31,19.0
60.9,7.77,-0.051,10.0
40.819,5.208,-0.272,16.0
38.4,4.899,-0.476,9.0
29.056,3.707,-0.527,2.0
63.19,8.06,0.599,17.0
63.181,8.058,0.237,22.0
60.627,7.731,-0.118,19.0
39.973,5.097,-0.312,16.0
38.402,4.896,-0.519,4.0
29.05,3.704,-0.559,2.0
63.23,8.058,0.529,16.0
63.194,8.052,0.166,19.0
45.522,5.799,-0.141,14.0
39.289,5.005,-0.35,22.0
30.127,3.837,-0.441,8.0
29.012,3.695,-0.591,3.0
63.298,8.057,0.458,17.0
63.275,8.052,0.095,16.0
0.0,0.0,0.0,0.0
38.848,4.942,-0.39,14.0
29.691,3.776,-0.468,8.0
28.941,3.681,-0.622,3.0
63.346,8.05,0.388,18.0
63.322,8.045,0.024,15.0
41.902,5.322,-0.223,17.0
38.523,4.892,-0.43,13.0
29.186,3.706,-0.493,3.0
27.229,3.457,-0.616,0.0
63.439,8.047,0.317,19.0
63.266,8.022,-0.045,8.0
40.953,5.191,-0.264,16.0
38.419,4.869,-0.471,9.0
29.184,3.698,-0.525,3.0
26.814,3.397,-0.636,1.0
63.548,8.042,0.247,19.0
59.903,7.578,-0.109,6.0
40.047,5.064,-0.303,16.0
38.427,4.858,-0.514,3.0
29.235,3.695,-0.559,4.0
26.11,3.299,-0.649,0.0
63.659,8.034,0.177,15.0
45.663,5.76,-0.134,20.0
39.455,4.975,-0.342,24.0
30.363,3.828,-0.44,9.0
29.259,3.687,-0.592,5.0
25.5,3.213,-0.662,0.0
63.812,8.029,0.108,12.0
0.0,0.0,0.0,0.0
39.03,4.906,-0.381,23.0
29.803,3.745,-0.464,7.0
29.157,3.663,-0.621,3.0
24.855,3.121,-0.672,0.0
63.925,8.016,0.038,9.0
41.964,5.259,-0.215,17.0
38.652,4.842,-0.419,14.0
29.453,3.688,-0.491,2.0
27.558,3.449,-0.617,0.0
24.288,3.039,-0.683,0.0
64.09,8.006,-0.03,7.0
41.043,5.124,-0.254,17.0
38.465,4.8,-0.457,10.0
29.512,3.681,-0.523,3.0
27.022,3.369,-0.633,0.0
23.673,2.95,-0.69,0.0
64.226,7.99,-0.097,3.0
40.248,5.004,-0.291,16.0
38.457,4.779,-0.498,7.0
29.415,3.653,-0.552,6.0
26.265,3.26,-0.643,1.0
23.128,2.87,-0.699,0.0
45.737,5.664,-0.117,10.0
39.417,4.878,-0.326,15.0
38.488,4.76,-0.538,4.0
29.437,3.639,-0.583,5.0
25.743,3.18,-0.658,0.0
22.638,2.796,-0.708,0.0
45.567,5.615,-0.164,20.0
39.147,4.821,-0.365,14.0
29.989,3.691,-0.45,4.0
29.575,3.637,-0.616,2.0
25.129,3.089,-0.667,0.0
22.024,2.706,-0.711,0.0
42.284,5.183,-0.195,17.0
38.837,4.757,-0.401,14.0
29.944,3.665,-0.48,2.0
27.739,3.393,-0.606,0.0
24.525,2.998,-0.676,0.0
21.606,2.64,-0.72,0.0
41.417,5.048,-0.233,18.0
38.546,4.694,-0.436,8.0
30.035,3.655,-0.512,3.0
27.252,3.314,-0.623,0.0
23.934,2.909,-0.684,0.0
21.033,2.555,-0.721,0.0
40.35,4.888,-0.267,16.0
38.533,4.664,-0.475,9.0
30.013,3.63,-0.541,11.0
26.768,3.235,-0.638,1.0
23.327,2.817,-0.689,0.0
20.686,2.497,-0.729,0.0
39.605,4.767,-0.3,24.0
38.566,4.638,-0.512,8.0
30.069,3.613,-0.571,11.0
26.107,3.135,-0.647,0.0
22.961,2.755,-0.7,0.0
20.264,2.43,-0.734,0.0
39.408,4.711,-0.336,28.0
38.583,4.608,-0.548,6.0
30.147,3.598,-0.601,8.0
25.571,3.049,-0.658,0.0
22.564,2.688,-0.709,0.0
19.917,2.371,-0.74,0.0
39.188,4.651,-0.37,15.0
38.613,4.578,-0.585,0.0
29.12,3.449,-0.607,1.0
24.988,2.957,-0.666,0.0
21.882,2.587,-0.708,0.0
19.552,2.31,-0.744,0.0
38.885,4.58,-0.403,14.0
32.711,3.849,-0.525,0.0
28.263,3.322,-0.615,0.0
24.467,2.873,-0.674,0.0
21.49,2.521,-0.715,0.0
19.287,2.261,-0.751,0.0
38.649,4.516,-0.435,8.0
32.311,3.771,-0.548,0.0
27.486,3.205,-0.622,0.0
23.802,2.772,-0.676,0.0
21.226,2.47,-0.725,0.0
18.836,2.19,-0.75,0.0
38.677,4.481,-0.469,8.0
31.246,3.616,-0.556,0.0
26.887,3.108,-0.632,0.0
23.48,2.711,-0.688,0.0
20.841,2.404,-0.729,0.0
18.577,2.141,-0.756,0.0
38.704,4.444,-0.502,9.0
30.744,3.526,-0.573,1.0
26.392,3.023,-0.642,0.0
23.046,2.637,-0.694,0.0
20.46,2.339,-0.733,0.0
18.3,2.09,-0.76,0.0
38.705,4.403,-0.534,5.0
30.138,3.425,-0.586,1.0
25.905,2.94,-0.651,0.0
22.705,2.574,-0.702,0.0
20.144,2.281,-0.738,0.0
18.087,2.046,-0.765,0.0
38.706,4.361,-0.564,2.0
29.192,3.285,-0.591,0.0
25.39,2.853,-0.659,0.0
22.291,2.502,-0.707,0.0
19.832,2.223,-0.742,0.0
17.779,1.991,-0.766,0.0
38.735,4.32,-0.594,0.0
28.808,3.208,-0.605,0.0
24.954,2.776,-0.666,0.0
21.894,2.432,-0.711,0.0
19.667,2.182,-0.75,0.0
17.586,1.949,-0.771,0.0
0.0,0.0,0.0,0.0
28.181,3.106,-0.613,0.0
24.522,2.699,-0.673,0.0
21.496,2.363,-0.714,0.0
19.253,2.113,-0.749,0.0
17.358,1.903,-0.773,0.0
32.076,3.501,-0.539,1.0
27.689,3.018,-0.622,0.0
24.233,2.637,-0.682,0.0
21.213,2.306,-0.719,0.0
18.991,2.061,-0.751,0.0
17.087,1.852,-0.773,0.0
31.969,3.45,-0.559,2.0
27.146,2.925,-0.628,0.0
23.737,2.554,-0.684,0.0
20.924,2.248,-0.723,0.0
18.687,2.005,-0.752,0.0
16.963,1.817,-0.779,0.0
31.262,3.334,-0.567,1.0
26.666,2.839,-0.635,0.0
23.305,2.477,-0.686,0.0
20.605,2.187,-0.726,0.0
18.482,1.959,-0.756,0.0
16.828,1.781,-0.784,0.0
30.549,3.217,-0.574,1.0
26.273,2.762,-0.642,0.0
23.037,2.418,-0.693,0.0
20.32,2.13,-0.728,0.0
18.333,1.919,-0.761,0.0
16.746,1.75,-0.79,0.0
30.179,3.138,-0.584,0.0
25.966,2.696,-0.65,0.0
22.799,2.363,-0.699,0.0
20.102,2.08,-0.732,0.0
18.058,1.865,-0.76,0.0
16.504,1.702,-0.788,0.0
29.606,3.038,-0.59,0.0
25.622,2.625,-0.655,0.0
22.474,2.298,-0.701,0.0
20.008,2.042,-0.739,0.0
17.941,1.828,-0.765,0.0
16.403,1.669,-0.792,0.0
29.098,2.945,-0.595,0.0
25.315,2.558,-0.661,0.0
22.146,2.233,-0.703,0.0
19.709,1.984,-0.739,0.0
17.87,1.796,-0.771,0.0
16.361,1.641,-0.798,0.0
28.684,2.862,-0.602,0.0
25.01,2.491,-0.665,0.0
21.887,2.175,-0.705,0.0
19.566,1.941,-0.743,0.0
17.752,1.758,-0.774,0.0
16.199,1.601,-0.798,0.0
28.322,2.785,-0.607,0.0
24.748,2.428,-0.67,0.0
21.736,2.128,-0.711,0.0
19.395,1.896,-0.745,0.0
17.603,1.717,-0.776,0.0
16.095,1.567,-0.8,0.0
28.058,2.717,-0.614,0.0
24.315,2.349,-0.668,0.0
21.552,2.078,-0.714,0.0
19.185,1.846,-0.745,0.0
17.463,1.677,-0.777,0.0
16.048,1.538,-0.804,0.0
27.675,2.637,-0.617,0.0
24.227,2.304,-0.676,0.0
21.336,2.024,-0.715,0.0
19.006,1.8,-0.746,0.0
17.312,1.636,-0.777,0.0
15.851,1.495,-0.8,0.0
27.466,2.575,-0.622,0.0
24.088,2.253,-0.681,0.0
21.211,1.98,-0.718,0.0
18.987,1.768,-0.752,0.0
17.193,1.598,-0.777,0.0
15.768,1.462,-0.801,0.0
27.145,2.503,-0.624,0.0
23.671,2.177,-0.676,0.0
21.136,1.94,-0.722,0.0
18.741,1.716,-0.748,0.0
17.078,1.56,-0.777,0.0
15.76,1.436,-0.806,0.0
26.898,2.437,-0.626,0.0
23.62,2.135,-0.682,0.0
21.006,1.894,-0.724,0.0
18.737,1.686,-0.753,0.0
17.053,1.531,-0.781,0.0
15.69,1.405,-0.806,0.0
26.796,2.384,-0.63,0.0
23.431,2.08,-0.682,0.0
20.943,1.854,-0.727,0.0
18.663,1.649,-0.754,0.0
17.055,1.503,-0.785,0.0
15.682,1.379,-0.809,0.0
26.637,2.327,-0.633,0.0
23.312,2.031,-0.684,0.0
20.83,1.81,-0.727,0.0
18.561,1.609,-0.754,0.0
16.958,1.466,-0.784,0.0
15.593,1.345,-0.808,0.0
26.546,2.275,-0.635,0.0
23.185,1.982,-0.684,0.0
20.811,1.774,-0.73,0.0
18.556,1.578,-0.757,0.0
16.915,1.434,-0.784,0.0
15.593,1.319,-0.81,0.0
26.596,2.235,-0.641,0.0
23.153,1.94,-0.687,0.0
20.464,1.71,-0.721,0.0
18.565,1.547,-0.76,0.0
16.876,1.402,-0.785,0.0
15.529,1.287,-0.809,0.0
26.332,2.168,-0.637,0.0
23.226,1.907,-0.691,0.0
20.605,1.687,-0.728,0.0
18.444,1.505,-0.756,0.0
16.856,1.372,-0.785,0.0
15.466,1.255,-0.807,0.0
26.382,2.127,-0.64,0.0
23.1,1.857,-0.689,0.0
20.389,1.634,-0.722,0.0
18.42,1.472,-0.756,0.0
16.856,1.343,-0.786,0.0
15.461,1.228,-0.807,0.0
26.44,2.086,-0.643,0.0
23.062,1.813,-0.689,0.0
20.456,1.604,-0.724,0.0
18.487,1.445,-0.759,0.0
16.865,1.314,-0.786,0.0
15.493,1.203,-0.809,0.0
26.07,2.011,-0.633,0.0
23.223,1.785,-0.693,0.0
20.445,1.567,-0.724,0.0
18.469,1.411,-0.758,0.0
16.873,1.285,-0.786,0.0
15.454,1.173,-0.806,0.0
26.211,1.975,-0.636,0.0
23.036,1.73,-0.686,0.0
20.529,1.537,-0.725,0.0
18.533,1.383,-0.759,0.0
16.888,1.256,-0.786,0.0
15.492,1.149,-0.807,0.0
26.371,1.941,-0.638,0.0
23.238,1.705,-0.69,0.0
20.64,1.509,-0.727,0.0
18.516,1.349,-0.757,0.0
16.975,1.232,-0.788,0.0
15.561,1.126,-0.809,0.0
26.516,1.904,-0.638,0.0
23.311,1.668,-0.69,0.0
20.616,1.47,-0.724,0.0
18.591,1.321,-0.757,0.0
16.951,1.2,-0.784,0.0
15.629,1.103,-0.81,0.0
26.407,1.849,-0.631,0.0
23.385,1.631,-0.688,0.0
20.747,1.442,-0.725,0.0
18.579,1.286,-0.753,0.0
16.997,1.172,-0.783,0.0
15.588,1.071,-0.804,0.0
26.593,1.814,-0.63,0.0
23.426,1.591,-0.684,0.0
20.757,1.405,-0.721,0.0
18.714,1.262,-0.755,0.0
17.04,1.144,-0.781,0.0
15.571,1.041,-0.8,0.0
26.806,1.779,-0.629,0.0
23.669,1.565,-0.685,0.0
20.871,1.374,-0.719,0.0
18.755,1.23,-0.752,0.0
17.152,1.12,-0.782,0.0
15.663,1.019,-0.8,0.0
27.037,1.745,-0.626,0.0
23.699,1.523,-0.679,0.0
21.118,1.351,-0.721,0.0
19.029,1.212,-0.757,0.0
17.31,1.098,-0.783,0.0
15.862,1.002,-0.805,0.0
27.33,1.713,-0.625,0.0
23.974,1.496,-0.679,0.0
21.465,1.334,-0.726,0.0
19.218,1.189,-0.758,0.0
17.449,1.075,-0.784,0.0
15.991,0.981,-0.806,0.0
27.846,1.694,-0.626,0.0
24.337,1.474,-0.681,0.0
21.352,1.287,-0.714,0.0
19.257,1.155,-0.752,0.0
17.495,1.045,-0.779,0.0
15.996,0.951,-0.8,0.0
28.265,1.667,-0.625,0.0
24.374,1.431,-0.672,0.0
21.713,1.269,-0.717,0.0
19.463,1.132,-0.752,0.0
17.665,1.023,-0.779,0.0
16.152,0.931,-0.801,0.0
28.522,1.63,-0.618,0.0
24.833,1.412,-0.673,0.0
21.92,1.24,-0.714,0.0
19.526,1.099,-0.745,0.0
17.822,0.998,-0.778,0.0
16.243,0.906,-0.798,0.0
0.0,0.0,0.0,0.0
25.016,1.375,-0.666,0.0
22.19,1.214,-0.712,0.0
19.769,1.076,-0.744,0.0
17.909,0.97,-0.772,0.0
16.389,0.883,-0.796,0.0
29.432,1.571,-0.608,0.0
25.182,1.337,-0.657,0.0
22.395,1.183,-0.706,0.0
19.906,1.046,-0.739,0.0
18.01,0.941,-0.766,0.0
16.616,0.864,-0.798,0.0
29.451,1.517,-0.592,0.0
25.898,1.327,-0.661,0.0
22.566,1.15,-0.699,0.0
20.146,1.021,-0.736,0.0
18.122,0.913,-0.761,0.0
16.762,0.84,-0.795,0.0
30.223,1.501,-0.589,0.0
26.337,1.3,-0.656,0.0
22.885,1.123,-0.695,0.0
20.477,0.999,-0.735,0.0
18.631,0.904,-0.77,0.0
16.955,0.818,-0.793,0.0
30.66,1.465,-0.578,0.0
26.689,1.268,-0.648,0.0
23.295,1.1,-0.692,0.0
20.747,0.974,-0.731,0.0
18.576,0.867,-0.755,0.0
17.088,0.793,-0.788,0.0
31.537,1.449,-0.573,0.0
26.92,1.229,-0.635,0.0
23.553,1.068,-0.683,0.0
21.102,0.951,-0.729,0.0
18.907,0.847,-0.756,0.0
17.235,0.767,-0.782,0.0
0.0,0.0,0.0,0.0
0.0,0.0,0.0,0.0
24.128,1.049,-0.682,0.0
21.436,0.925,-0.724,0.0
19.166,0.822,-0.751,0.0
17.507,0.746,-0.781,0.0
0.0,0.0,0.0,0.0
28.182,1.181,-0.623,0.0
24.701,1.028,-0.679,0.0
21.632,0.894,-0.714,0.0
19.551,0.803,-0.751,0.0
17.698,0.721,-0.775,0.0
33.875,1.367,-0.538,0.0
28.799,1.154,-0.613,0.0
25.311,1.007,-0.675,0.0
22.182,0.876,-0.714,0.0
19.879,0.779,-0.747,0.0
18.066,0.703,-0.776,0.0
35.569,1.369,-0.536,0.0
29.675,1.134,-0.607,0.0
25.556,0.969,-0.66,0.0
22.629,0.852,-0.709,0.0
20.187,0.754,-0.741,0.0
18.306,0.678,-0.771,0.0
36.108,1.324,-0.512,0.0
30.118,1.095,-0.589,0.0
26.058,0.94,-0.65,0.0
22.867,0.818,-0.696,0.0
20.45,0.726,-0.732,0.0
18.416,0.649,-0.758,0.0
36.809,1.282,-0.489,0.0
31.405,1.085,-0.585,0.0
26.677,0.914,-0.641,0.0
23.645,0.803,-0.697,0.0
20.986,0.707,-0.732,0.0
18.813,0.628,-0.757,0.0
0.0,0.0,0.0,0.0
31.989,1.047,-0.566,0.0
28.579,0.927,-0.659,0.0
23.968,0.771,-0.684,0.0
21.407,0.682,-0.726,0.0
19.19,0.606,-0.753,0.0
0.0,0.0,0.0,0.0
0.0,0.0,0.0,0.0
28.564,0.875,-0.63,3.0
24.66,0.748,-0.678,0.0
21.88,0.658,-0.719,0.0
19.682,0.586,-0.752,0.0
0.0,0.0,0.0,0.0
34.594,1.007,-0.542,0.0
28.62,0.825,-0.601,1.0
25.272,0.721,-0.669,0.0
22.432,0.634,-0.714,0.0
20.057,0.561,-0.745,0.0
43.971,1.214,-0.407,0.0
35.679,0.975,-0.521,0.0
28.55,0.772,-0.569,0.0
26.086,0.698,-0.662,0.0
22.747,0.602,-0.699,0.0
20.416,0.534,-0.736,0.0
44.655,1.153,-0.364,0.0
0.0,0.0,0.0,0.0
31.141,0.786,-0.586,0.0
26.623,0.664,-0.645,0.0
23.538,0.581,-0.696,0.0
21.087,0.515,-0.736,0.0
0.0,0.0,0.0,0.0
38.382,0.913,-0.474,0.0
32.032,0.752,-0.566,0.0
27.532,0.639,-0.636,0.0
24.143,0.553,-0.686,0.0
21.562,0.488,-0.728,0.0
0.0,0.0,0.0,0.0
40.096,0.883,-0.448,0.0
33.741,0.734,-0.556,0.0
28.253,0.606,-0.619,3.0
24.878,0.527,-0.677,0.0
22.15,0.463,-0.721,0.0
0.0,0.0,0.0,0.0
41.946,0.852,-0.418,1.0
35.214,0.705,-0.538,0.0
0.0,0.0,0.0,0.0
25.85,0.503,-0.672,0.0
22.787,0.437,-0.713,0.0
57.998,1.095,-0.198,0.0
45.874,0.854,-0.4,0.0
0.0,0.0,0.0,0.0
30.505,0.55,-0.593,0.0
26.595,0.472,-0.657,0.0
23.364,0.408,-0.702,0.0
0.0,0.0,0.0,0.0
46.995,0.794,-0.35,0.0
37.941,0.631,-0.484,0.0
0.0,0.0,0.0,0.0
27.684,0.446,-0.649,0.0
23.861,0.377,-0.686,0.0
0.0,0.0,0.0,0.0
0.0,0.0,0.0,0.0
41.432,0.62,-0.474,0.0
33.427,0.491,-0.562,0.0
28.757,0.415,-0.636,0.0
24.984,0.354,-0.685,0.0
77.451,1.074,0.036,0.0
0.0,0.0,0.0,0.0
43.972,0.585,-0.443,1.0
34.978,0.456,-0.541,0.0
29.611,0.378,-0.614,0.0
25.982,0.325,-0.676,0.0
79.534,0.972,0.146,3.0
0.0,0.0,0.0,0.0
46.271,0.54,-0.402,0.0
0.0,0.0,0.0,0.0
31.0,0.345,-0.6,0.0
26.421,0.287,-0.651,0.0
82.957,0.88,0.269,3.0
0.0,0.0,0.0,0.0
46.688,0.47,-0.34,0.0
38.821,0.38,-0.491,0.0
0.0,0.0,0.0,0.0
27.628,0.256,-0.64,0.0
91.426,0.823,0.427,5.0
0.0,0.0,0.0,0.0
52.745,0.448,-0.309,0.0
42.67,0.351,-0.478,0.0
33.848,0.269,-0.558,0.0
29.365,0.226,-0.638,0.0
98.012,0.729,0.601,7.0
85.674,0.616,0.074,1.0
0.0,0.0,0.0,0.0
42.812,0.286,-0.417,0.0
35.735,0.229,-0.536,0.0
30.689,0.189,-0.622,0.0
104.897,0.62,0.797,9.0
88.013,0.498,0.206,5.0
0.0,0.0,0.0,0.0
0.0,0.0,0.0,0.0
37.888,0.185,-0.511,0.0
31.344,0.145,-0.587,0.0
111.059,0.488,1.011,17.0
94.718,0.392,0.366,3.0
0.0,0.0,0.0,0.0
0.0,0.0,0.0,0.0
0.0,0.0,0.0,0.0
33.852,0.106,-0.583,0.0
111.098,0.322,1.183,11.0
104.074,0.276,0.562,5.0
0.0,0.0,0.0,0.0
54.904,0.118,-0.283,0.0
42.855,0.082,-0.446,1.0
35.346,0.059,-0.552,0.0
111.146,0.159,1.358,21.0
110.764,0.132,0.773,10.0
0.0,0.0,0.0,0.0
0.0,0.0,0.0,0.0
45.52,0.021,-0.401,2.0
37.476,0.008,-0.526,0.0
111.113,0.0,1.534,11.0
117.265,-0.028,1.007,7.0
0.0,0.0,0.0,0.0
0.0,0.0,0.0,0.0
0.0,0.0,0.0,0.0
40.363,-0.047,-0.501,0.0
114.703,-0.161,1.769,6.0
119.728,-0.197,1.222,16.0
110.667,-0.207,0.551,2.0
0.0,0.0,0.0,0.0
0.0,0.0,0.0,0.0
44.763,-0.114,-0.483,0.0
119.841,-0.333,2.044,91.0
119.719,-0.36,1.416,7.0
111.1,-0.359,0.734,6.0
0.0,0.0,0.0,0.0
0.0,0.0,0.0,0.0
45.19,-0.177,-0.412,0.0
119.828,-0.496,2.245,42.0
119.778,-0.523,1.618,16.0
119.707,-0.549,0.993,12.0
95.155,-0.458,0.284,1.0
0.0,0.0,0.0,0.0
44.492,-0.233,-0.331,0.0
193.796,-1.059,3.957,23.0
119.817,-0.68,1.82,16.0
119.686,-0.705,1.195,16.0
110.727,-0.677,0.518,2.0
0.0,0.0,0.0,0.0
0.0,0.0,0.0,0.0
194.034,-1.311,4.292,16.0
193.835,-1.349,3.276,18.0
119.7,-0.858,1.4,16.0
114.348,-0.845,0.732,8.0
0.0,0.0,0.0,0.0
0.0,0.0,0.0,0.0
119.743,-0.96,2.857,88.0
119.743,-0.985,2.233,96.0
119.75,-1.01,1.611,65.0
119.671,-1.033,0.974,19.0
0.0,0.0,0.0,0.0
0.0,0.0,0.0,0.0
119.73,-1.106,3.064,150.0
119.739,-1.131,2.442,150.0
119.754,-1.155,1.82,151.0
119.746,-1.178,1.185,150.0
119.766,-1.203,0.564,28.0
0.0,0.0,0.0,0.0
209.343,-2.188,5.731,12.0
210.426,-2.239,4.667,11.0
204.206,-2.212,3.467,8.0
0.0,0.0,0.0,0.0
139.253,-1.561,0.902,10.0
0.0,0.0,0.0,0.0
209.411,-2.432,6.107,10.0
208.807,-2.463,5.004,7.0
0.0,0.0,0.0,0.0
139.188,-1.693,1.875,3.0
139.201,-1.719,1.153,21.0
0.0,0.0,0.0,0.0
209.724,-2.673,6.495,15.0
206.151,-2.665,5.314,9.0
0.0,0.0,0.0,0.0
139.192,-1.849,2.13,3.0
139.207,-1.874,1.408,10.0
127.475,-1.74,0.629,8.0
210.411,-2.912,6.899,10.0
113.137,-1.586,3.123,12.0
206.155,-2.926,4.62,17.0
204.273,-2.935,3.5,9.0
138.923,-2.019,1.659,3.0
138.833,-2.042,0.939,24.0
112.732,-1.679,3.903,2.0
112.537,-1.696,3.313,2.0
0.0,0.0,0.0,0.0
194.134,-2.989,3.68,5.0
139.097,-2.165,1.917,8.0
139.097,-2.189,1.198,12.0
112.801,-1.797,4.114,8.0
112.996,-1.818,3.535,2.0
112.609,-1.83,2.939,21.0
0.0,0.0,0.0,0.0
193.541,-3.206,3.026,5.0
139.295,-2.33,1.456,4.0
106.598,-1.803,4.086,13.0
112.739,-1.924,3.737,21.0
112.903,-1.944,3.157,20.0
206.359,-3.586,4.68,17.0
193.625,-3.394,3.389,22.0
0.0,0.0,0.0,0.0
106.743,-1.907,4.291,18.0
112.715,-2.03,3.947,25.0
113.184,-2.055,3.377,17.0
113.079,-2.071,2.778,9.0
193.43,-3.571,3.752,18.0
138.919,-2.586,1.977,6.0
106.676,-2.004,4.491,5.0
112.738,-2.135,4.162,12.0
112.791,-2.152,3.581,23.0
112.876,-2.169,2.988,20.0
193.489,-3.745,4.121,16.0
192.864,-3.76,3.11,13.0
95.391,-1.877,4.198,26.0
106.727,-2.115,4.144,10.0
112.758,-2.249,3.795,23.0
112.663,-2.262,3.197,12.0
205.537,-4.155,4.771,18.0
192.988,-3.926,3.482,20.0
81.712,-1.677,3.752,10.0
106.592,-2.202,4.343,13.0
113.323,-2.355,4.03,22.0
112.576,-2.353,3.41,27.0
0.0,0.0,0.0,0.0
193.991,-4.102,3.868,7.0
81.031,-1.728,3.876,14.0
95.991,-2.059,4.095,10.0
106.555,-2.299,3.994,9.0
112.528,-2.44,3.624,24.0
0.0,0.0,0.0,0.0
0.0,0.0,0.0,0.0
0.0,0.0,0.0,0.0
96.066,-2.134,4.282,16.0
96.587,-2.156,3.806,8.0
113.209,-2.54,3.863,20.0
207.31,-4.674,6.003,9.0
118.19,-2.678,2.813,16.0
74.364,-1.698,3.845,34.0
80.976,-1.858,3.767,30.0
96.52,-2.224,3.989,15.0
113.14,-2.619,4.08,9.0
120.975,-2.813,3.738,5.0
118.176,-2.759,3.04,8.0
74.154,-1.745,3.977,30.0
81.027,-1.914,3.926,15.0
82.072,-1.947,3.552,10.0
96.688,-2.303,3.674,10.0
120.68,-2.886,3.963,8.0
207.482,-4.982,5.74,7.0
73.974,-1.789,4.111,32.0
74.162,-1.8,3.737,23.0
82.013,-1.998,3.708,10.0
96.638,-2.363,3.86,14.0
106.292,-2.609,3.697,8.0
120.85,-2.976,3.578,7.0
65.802,-1.632,3.785,8.0
74.176,-1.846,3.883,14.0
94.678,-2.363,4.465,7.0
96.827,-2.425,4.056,7.0
106.064,-2.665,3.894,12.0
120.738,-3.042,3.809,24.0
51.85,-1.316,3.083,5.0
78.777,-2.005,4.276,22.0
81.2,-2.073,3.988,12.0
96.812,-2.478,4.242,12.0
106.181,-2.726,4.105,9.0
120.774,-3.109,4.045,13.0
51.566,-1.336,3.167,20.0
78.539,-2.04,4.415,13.0
74.127,-1.931,3.784,15.0
81.515,-2.129,3.731,12.0
101.711,-2.663,4.13,15.0
116.925,-3.068,4.143,10.0
51.729,-1.366,3.278,28.0
78.015,-2.066,4.539,11.0
84.51,-2.243,4.48,11.0
81.07,-2.155,3.869,38.0
101.622,-2.708,4.324,8.0
106.119,-2.834,3.967,9.0
56.968,-1.531,3.722,18.0
57.316,-1.543,3.447,5.0
65.647,-1.771,3.607,5.0
81.487,-2.202,4.048,21.0
81.428,-2.205,3.623,10.0
105.987,-2.874,4.166,16.0
56.802,-1.55,3.821,16.0
62.619,-1.712,3.887,8.0
65.691,-1.798,3.736,10.0
85.674,-2.349,4.42,9.0
81.146,-2.228,3.766,31.0
94.636,-2.602,3.902,10.0
45.987,-1.272,3.182,14.0
57.24,-1.586,3.663,31.0
71.479,-1.982,4.202,13.0
65.998,-1.833,3.532,10.0
81.475,-2.265,3.938,22.0
81.478,-2.268,3.517,7.0
45.821,-1.283,3.259,13.0
56.796,-1.592,3.744,13.0
57.008,-1.6,3.462,31.0
66.004,-1.853,3.659,27.0
80.502,-2.263,4.045,6.0
81.32,-2.288,3.665,19.0
45.474,-1.287,3.321,21.0
56.836,-1.61,3.856,8.0
56.914,-1.613,3.565,30.0
57.151,-1.62,3.277,11.0
85.442,-2.424,4.457,15.0
81.09,-2.303,3.809,38.0
44.781,-1.279,3.357,34.0
46.066,-1.316,3.214,18.0
56.953,-1.628,3.676,22.0
57.007,-1.63,3.378,31.0
66.019,-1.889,3.57,26.0
81.258,-2.325,3.972,17.0
44.294,-1.275,3.405,43.0
45.835,-1.319,3.285,20.0
62.631,-1.803,4.162,9.0
56.827,-1.636,3.475,31.0
65.938,-1.899,3.69,20.0
80.488,-2.318,4.087,12.0
43.945,-1.273,3.462,44.0
45.229,-1.31,3.327,20.0
56.934,-1.648,3.891,14.0
56.975,-1.649,3.592,31.0
71.519,-2.07,4.137,10.0
66.101,-1.913,3.48,25.0
43.809,-1.275,3.534,46.0
44.784,-1.303,3.379,31.0
46.677,-1.357,3.278,17.0
56.834,-1.652,3.689,26.0
56.948,-1.654,3.4,30.0
66.013,-1.917,3.599,24.0
43.847,-1.281,3.62,41.0
44.333,-1.294,3.428,23.0
45.898,-1.338,3.309,20.0
56.835,-1.656,3.795,18.0
56.856,-1.656,3.501,30.0
65.919,-1.918,3.716,11.0
43.72,-1.28,3.691,49.0
43.913,-1.284,3.477,47.0
45.051,-1.316,3.332,28.0
56.893,-1.66,3.905,17.0
56.952,-1.66,3.612,30.0
57.061,-1.662,3.322,12.0
43.66,-1.279,3.766,40.0
43.875,-1.284,3.555,43.0
44.733,-1.307,3.391,22.0
46.524,-1.357,3.278,20.0
56.772,-1.655,3.704,22.0
56.878,-1.656,3.415,30.0
43.743,-1.28,3.854,41.0
43.826,-1.281,3.631,42.0
44.232,-1.291,3.433,31.0
45.676,-1.331,3.302,20.0
56.867,-1.655,3.813,16.0
56.872,-1.652,3.516,29.0
43.738,-1.278,3.932,36.0
43.68,-1.274,3.698,47.0
43.837,-1.276,3.481,48.0
44.934,-1.306,3.328,31.0
56.976,-1.654,3.922,8.0
57.002,-1.651,3.626,24.0
43.963,-1.28,4.032,27.0
43.594,-1.267,3.769,37.0
43.937,-1.275,3.568,34.0
44.512,-1.289,3.377,34.0
46.143,-1.333,3.259,15.0
62.641,-1.807,4.097,8.0
43.592,-1.264,4.076,34.0
43.817,-1.268,3.866,31.0
43.758,-1.263,3.631,45.0
44.015,-1.267,3.417,41.0
45.717,-1.314,3.309,26.0
56.912,-1.632,3.821,7.0
43.572,-1.257,4.151,27.0
43.637,-1.255,3.927,41.0
43.694,-1.253,3.703,47.0
43.869,-1.255,3.483,41.0
44.822,-1.28,3.323,27.0
45.97,-1.309,3.167,15.0
43.645,-1.25,4.235,36.0
43.784,-1.25,4.018,18.0
43.676,-1.244,3.777,36.0
43.872,-1.246,3.558,23.0
44.322,-1.255,3.362,38.0
45.824,-1.294,3.235,11.0
43.655,-1.239,4.311,30.0
43.542,-1.232,4.071,38.0
43.573,-1.229,3.843,40.0
43.934,-1.236,3.639,38.0
43.983,-1.233,3.411,41.0
45.318,-1.267,3.277,20.0
44.748,-1.258,4.496,29.0
43.592,-1.221,4.149,30.0
43.517,-1.215,3.912,36.0
43.785,-1.218,3.701,40.0
43.888,-1.217,3.479,43.0
44.815,-1.239,3.316,45.0
44.18,-1.228,4.514,27.0
43.591,-1.207,4.223,25.0
43.517,-1.201,3.985,41.0
43.512,-1.196,3.75,41.0
43.967,-1.205,3.557,49.0
44.604,-1.218,3.374,30.0
43.73,-1.2,4.541,41.0
43.646,-1.193,4.3,21.0
43.515,-1.185,4.056,39.0
43.592,-1.182,3.828,39.0
43.776,-1.183,3.613,43.0
44.193,-1.19,3.415,35.0
43.792,-1.185,4.619,42.0
0.0,0.0,0.0,0.0
43.564,-1.169,4.132,30.0
43.581,-1.164,3.899,31.0
43.564,-1.159,3.666,41.0
44.038,-1.167,3.474,42.0
43.703,-1.164,4.68,43.0
0.0,0.0,0.0,0.0
43.575,-1.151,4.203,18.0
43.438,-1.142,3.954,35.0
43.502,-1.138,3.729,44.0
43.742,-1.14,3.518,42.0
43.676,-1.144,4.746,46.0
43.734,-1.14,4.519,41.0
45.605,-1.183,4.469,5.0
43.49,-1.123,4.026,36.0
43.538,-1.119,3.799,43.0
43.73,-1.118,3.585,39.0
43.61,-1.121,4.806,44.0
43.645,-1.116,4.577,45.0
45.669,-1.162,4.546,28.0
43.624,-1.105,4.105,29.0
43.61,-1.098,3.872,38.0
43.603,-1.092,3.64,46.0
43.937,-1.106,4.91,22.0
43.368,-1.086,4.614,47.0
43.81,-1.091,4.427,16.0
43.725,-1.083,4.181,21.0
43.302,-1.067,3.909,28.0
43.816,-1.074,3.723,18.0
44.793,-1.103,5.072,20.0
43.597,-1.068,4.703,30.0
43.678,-1.063,4.478,38.0
45.787,-1.109,4.445,3.0
43.239,-1.041,3.967,20.0
43.476,-1.04,3.757,37.0
0.0,0.0,0.0,0.0
43.311,-1.035,4.736,41.0
43.608,-1.036,4.534,41.0
43.559,-1.028,4.292,31.0
43.434,-1.02,4.047,19.0
43.38,-1.012,3.811,18.0
45.184,-1.059,5.248,22.0
43.679,-1.017,4.838,30.0
43.245,-1.001,4.558,45.0
43.412,-0.998,4.338,44.0
43.448,-0.992,4.109,18.0
42.879,-0.973,3.826,40.0
50.119,-1.142,5.891,6.0
44.177,-1.0,4.955,19.0
43.336,-0.975,4.627,40.0
43.372,-0.968,4.393,38.0
43.606,-0.967,4.183,40.0
42.758,-0.942,3.873,41.0
50.059,-1.107,5.952,35.0
44.208,-0.971,5.018,19.0
43.311,-0.945,4.683,39.0
43.363,-0.939,4.45,45.0
43.467,-0.934,4.227,42.0
42.79,-0.913,3.932,40.0
48.336,-1.036,5.811,6.0
44.997,-0.957,5.167,21.0
43.639,-0.921,4.775,37.0
43.487,-0.91,4.52,42.0
43.29,-0.899,4.267,43.0
43.328,-0.893,4.038,23.0
44.369,-0.918,5.393,21.0
45.152,-0.926,5.243,20.0
43.333,-0.882,4.797,36.0
43.506,-0.878,4.577,40.0
43.296,-0.867,4.322,43.0
43.121,-0.857,4.072,25.0
48.042,-0.958,5.899,13.0
44.883,-0.887,5.268,15.0
43.539,-0.853,4.874,18.0
43.245,-0.84,4.603,35.0
43.255,-0.833,4.37,43.0
43.489,-0.83,4.16,39.0
48.024,-0.92,5.956,6.0
48.332,-0.917,5.731,4.0
43.962,-0.827,4.975,18.0
43.305,-0.807,4.661,42.0
43.228,-0.798,4.419,42.0
0.0,0.0,0.0,0.0
44.373,-0.814,5.556,24.0
50.361,-0.915,6.031,9.0
44.284,-0.797,5.063,17.0
43.488,-0.775,4.731,37.0
43.289,-0.764,4.475,42.0
41.844,-0.731,4.1,42.0
45.154,-0.791,5.706,22.0
48.003,-0.832,5.804,13.0
0.0,0.0,0.0,0.0
43.635,-0.741,4.797,35.0
43.255,-0.727,4.52,42.0
41.819,-0.695,4.144,31.0
47.725,-0.795,6.084,3.0
47.902,-0.789,5.845,5.0
48.304,-0.787,5.631,18.0
43.873,-0.706,4.871,35.0
43.232,-0.689,4.564,43.0
42.671,-0.671,4.274,33.0
44.552,-0.702,5.728,20.0
41.427,-0.646,5.099,14.0
41.379,-0.637,4.867,35.0
41.277,-0.628,4.626,40.0
43.24,-0.65,4.61,34.0
41.827,-0.621,4.232,34.0
44.386,-0.66,5.753,19.0
46.05,-0.676,5.716,8.0
41.35,-0.599,4.906,37.0
41.243,-0.59,4.664,26.0
41.332,-0.583,4.449,23.0
43.464,-0.605,4.442,3.0
44.36,-0.618,5.794,19.0
45.575,-0.626,5.702,10.0
41.359,-0.56,4.948,25.0
41.215,-0.551,4.701,43.0
41.303,-0.543,4.485,34.0
0.0,0.0,0.0,0.0
43.358,-0.563,5.705,19.0
45.228,-0.578,5.702,4.0
41.357,-0.521,4.987,26.0
41.018,-0.508,4.717,35.0
41.277,-0.504,4.521,32.0
41.503,-0.499,4.319,40.0
43.168,-0.518,5.72,43.0
41.211,-0.486,5.233,11.0
48.265,-0.56,5.863,7.0
40.975,-0.468,4.748,41.0
41.244,-0.463,4.553,36.0
41.385,-0.457,4.342,38.0
43.047,-0.474,5.741,40.0
41.206,-0.446,5.268,13.0
48.324,-0.513,5.912,5.0
40.952,-0.427,4.78,41.0
41.306,-0.423,4.595,26.0
41.274,-0.414,4.365,40.0
42.37,-0.424,5.686,45.0
43.781,-0.43,5.633,6.0
43.124,-0.414,5.311,4.0
41.078,-0.387,4.828,37.0
41.141,-0.38,4.609,36.0
41.328,-0.373,4.403,39.0
42.115,-0.379,5.685,47.0
41.214,-0.362,5.335,25.0
41.188,-0.354,5.104,24.0
40.983,-0.344,4.848,39.0
41.08,-0.337,4.633,39.0
41.282,-0.331,4.429,37.0
42.116,-0.335,5.717,45.0
41.21,-0.319,5.365,30.0
41.159,-0.311,5.13,35.0
40.958,-0.302,4.874,39.0
41.335,-0.296,4.691,46.0
41.414,-0.288,4.472,36.0
42.086,-0.29,5.742,45.0
41.176,-0.276,5.389,23.0
41.099,-0.267,5.151,38.0
41.196,-0.26,4.93,42.0
41.535,-0.253,4.741,31.0
41.352,-0.245,4.492,19.0
42.098,-0.245,5.772,34.0
41.218,-0.232,5.421,31.0
41.079,-0.223,5.174,45.0
41.185,-0.216,4.955,33.0
41.397,-0.209,4.751,23.0
41.186,-0.2,4.499,28.0
42.064,-0.2,5.793,40.0
41.452,-0.189,5.477,16.0
41.215,-0.179,5.216,37.0
0.0,0.0,0.0,0.0
41.09,-0.162,4.739,37.0
41.105,-0.155,4.514,35.0
42.16,-0.155,5.83,38.0
0.0,0.0,0.0,0.0
41.215,-0.134,5.238,25.0
0.0,0.0,0.0,0.0
41.091,-0.118,4.761,40.0
41.166,-0.11,4.542,34.0
42.058,-0.107,5.838,41.0
47.961,-0.113,6.388,7.0
45.126,-0.098,5.758,13.0
41.008,-0.081,5.0,44.0
41.118,-0.073,4.784,40.0
41.13,-0.064,4.557,34.0
42.153,-0.061,5.871,35.0
53.968,-0.067,7.213,7.0
41.211,-0.043,5.277,12.0
41.041,-0.035,5.022,35.0
41.159,-0.027,4.807,34.0
41.347,-0.019,4.599,35.0
42.233,-0.014,5.9,34.0
42.438,-0.006,5.69,30.0
41.272,0.001,5.302,34.0
41.117,0.01,5.048,25.0
40.975,0.018,4.802,39.0
41.415,0.026,4.622,13.0
42.26,0.032,5.92,31.0
42.245,0.041,5.68,42.0
41.466,0.048,5.342,36.0
41.085,0.055,5.058,34.0
40.954,0.063,4.813,39.0
41.1,0.072,4.601,16.0
42.303,0.08,5.94,30.0
42.181,0.088,5.685,52.0
41.343,0.095,5.339,30.0
41.102,0.102,5.073,36.0
41.049,0.11,4.837,29.0
51.769,0.149,5.811,6.0
42.465,0.129,5.975,12.0
42.249,0.136,5.706,40.0
42.293,0.144,5.473,22.0
41.076,0.148,5.081,33.0
41.217,0.157,4.867,28.0
41.259,0.165,4.641,29.0
51.888,0.216,7.313,5.0
42.268,0.184,5.718,30.0
42.352,0.193,5.491,31.0
40.847,0.193,5.061,36.0
41.078,0.202,4.859,15.0
41.24,0.211,4.647,22.0
42.341,0.224,5.976,33.0
42.258,0.232,5.725,40.0
48.728,0.277,6.326,7.0
40.711,0.239,5.051,42.0
41.119,0.249,4.87,37.0
41.243,0.257,4.654,37.0
42.487,0.274,6.003,20.0
42.235,0.28,5.728,35.0
48.56,0.331,6.311,7.0
40.675,0.285,5.052,42.0
40.803,0.294,4.838,44.0
41.052,0.303,4.637,27.0
42.496,0.322,6.008,4.0
41.934,0.326,5.691,38.0
40.808,0.325,5.306,10.0
40.659,0.331,5.053,45.0
40.635,0.339,4.821,45.0
40.987,0.349,4.632,37.0
41.967,0.367,5.936,18.0
41.266,0.368,5.602,43.0
40.982,0.373,5.331,15.0
40.67,0.378,5.056,41.0
40.744,0.386,4.835,47.0
41.204,0.398,4.657,48.0
41.502,0.41,5.87,45.0
40.881,0.412,5.55,38.0
40.974,0.42,5.329,23.0
40.596,0.423,5.046,42.0
40.724,0.432,4.831,40.0
41.503,0.448,4.689,39.0
41.578,0.458,5.879,25.0
40.577,0.455,5.506,45.0
40.774,0.465,5.301,36.0
40.568,0.469,5.04,41.0
40.703,0.478,4.826,43.0
41.655,0.497,4.703,42.0
41.355,0.504,5.844,42.0
40.631,0.502,5.51,42.0
40.678,0.51,5.284,39.0
40.815,0.518,5.066,50.0
40.627,0.523,4.812,43.0
41.379,0.54,4.667,32.0
41.32,0.55,5.834,40.0
40.673,0.548,5.51,31.0
40.78,0.557,5.292,27.0
40.667,0.562,5.041,33.0
40.533,0.567,4.794,39.0
40.8,0.578,4.595,41.0
40.855,0.59,5.761,41.0
40.477,0.591,5.476,47.0
40.796,0.603,5.286,38.0
40.591,0.607,5.023,39.0
40.494,0.612,4.781,41.0
40.722,0.622,4.577,34.0
40.708,0.633,5.731,45.0
40.717,0.64,5.499,44.0
40.888,0.65,5.288,40.0
40.591,0.652,5.013,34.0
40.497,0.657,4.771,50.0
40.639,0.667,4.557,36.0
40.952,0.683,5.754,36.0
40.527,0.682,5.461,40.0
40.858,0.695,5.272,36.0
41.105,0.706,5.065,22.0
40.535,0.703,4.763,43.0
40.555,0.71,4.535,39.0
40.894,0.728,5.733,43.0
40.558,0.728,5.452,46.0
40.62,0.736,5.228,41.0
40.452,0.739,4.97,42.0
40.781,0.752,4.778,26.0
40.473,0.753,4.512,41.0
40.826,0.771,5.708,45.0
40.809,0.777,5.471,44.0
40.695,0.782,5.222,36.0
40.483,0.784,4.958,35.0
40.555,0.792,4.736,29.0
40.52,0.798,4.501,42.0
41.107,0.821,5.73,38.0
40.856,0.823,5.46,41.0
40.586,0.823,5.19,38.0
40.571,0.829,4.952,43.0
40.352,0.831,4.694,46.0
40.587,0.842,4.49,42.0
40.856,0.86,5.677,41.0
40.77,0.864,5.429,40.0
40.428,0.863,5.151,40.0
40.335,0.867,4.904,43.0
40.896,0.885,4.738,30.0
40.54,0.883,4.465,43.0
41.103,0.909,5.69,48.0
40.765,0.908,5.408,40.0
40.523,0.908,5.142,40.0
40.258,0.908,4.873,42.0
40.407,0.917,4.66,30.0
40.536,0.926,4.443,40.0
40.957,0.949,5.647,39.0
40.882,0.952,5.401,42.0
40.273,0.944,5.088,40.0
40.313,0.951,4.857,38.0
40.256,0.955,4.619,39.0
40.573,0.968,4.424,42.0
40.866,0.989,5.61,43.0
40.859,0.994,5.373,42.0
40.261,0.985,5.062,39.0
40.221,0.989,4.822,35.0
40.281,0.996,4.598,37.0
40.71,1.013,4.413,36.0
40.779,1.028,5.572,45.0
40.934,1.037,5.357,39.0
40.383,1.029,5.051,39.0
40.253,1.031,4.799,35.0
40.334,1.038,4.577,38.0
40.695,1.053,4.385,38.0
40.812,1.07,5.549,49.0
40.82,1.075,5.314,39.0
40.4,1.069,5.026,35.0
40.485,1.077,4.798,34.0
40.534,1.083,4.571,36.0
40.718,1.093,4.358,41.0
41.375,1.125,5.596,28.0
40.647,1.11,5.262,42.0
40.425,1.109,4.999,36.0
40.499,1.116,4.771,38.0
40.58,1.123,4.547,39.0
40.99,1.139,4.357,40.0
41.464,1.167,5.576,25.0
40.777,1.152,5.247,37.0
40.474,1.149,4.974,35.0
40.451,1.152,4.733,37.0
40.704,1.165,4.528,28.0
40.916,1.176,4.317,35.0
41.485,1.206,5.545,17.0
40.955,1.196,5.237,30.0
40.668,1.192,4.964,18.0
40.558,1.193,4.713,45.0
40.585,1.199,4.482,31.0
40.804,1.21,4.271,39.0
40.941,1.228,5.438,16.0
41.195,1.241,5.232,30.0
41.27,1.247,5.002,26.0
40.618,1.232,4.684,42.0
40.704,1.239,4.46,34.0
40.847,1.248,4.24,37.0
40.675,1.257,5.366,32.0
40.972,1.27,5.167,29.0
41.016,1.276,4.935,16.0
40.605,1.267,4.646,35.0
40.697,1.274,4.422,34.0
40.883,1.284,4.207,37.0
40.596,1.29,5.318,46.0
40.989,1.306,5.131,33.0
40.629,1.299,4.85,26.0
40.703,1.305,4.619,27.0
40.726,1.31,4.386,33.0
40.777,1.316,4.157,38.0
40.71,1.328,5.293,37.0
41.397,1.354,5.142,33.0
40.836,1.34,4.835,24.0
41.833,1.376,4.706,39.0
40.594,1.339,4.332,37.0
40.697,1.347,4.109,40.0
40.647,1.359,5.244,40.0
41.091,1.378,5.062,32.0
41.289,1.388,4.847,16.0
41.717,1.406,4.651,32.0
40.591,1.372,4.291,34.0
40.67,1.378,4.064,40.0
40.92,1.401,5.236,44.0
40.822,1.401,4.986,39.0
41.4,1.424,4.816,26.0
41.14,1.419,4.543,35.0
40.655,1.406,4.254,43.0
40.586,1.407,4.013,38.0
41.557,1.455,5.273,34.0
40.951,1.437,4.957,29.0
41.196,1.449,4.747,26.0
40.758,1.437,4.457,38.0
40.621,1.435,4.206,39.0
40.521,1.435,3.962,40.0
41.539,1.485,5.224,37.0
40.952,1.467,4.912,40.0
41.763,1.499,4.766,18.0
40.797,1.468,4.414,35.0
40.775,1.47,4.176,38.0
40.456,1.462,3.909,39.0
41.161,1.501,5.129,16.0
41.04,1.5,4.875,40.0
0.0,0.0,0.0,0.0
40.583,1.488,4.345,36.0
40.499,1.488,4.101,39.0
40.367,1.486,3.854,46.0
40.995,1.523,5.06,9.0
43.052,1.602,5.063,6.0
40.657,1.516,4.544,30.0
40.531,1.513,4.291,36.0
40.788,1.526,4.081,31.0
40.564,1.52,3.824,34.0
40.894,1.547,4.997,35.0
42.693,1.617,4.968,17.0
40.718,1.545,4.501,31.0
40.475,1.538,4.234,40.0
40.55,1.543,4.007,39.0
40.41,1.54,3.759,36.0
40.9,1.573,4.946,30.0
42.566,1.639,4.899,33.0
40.648,1.567,4.442,36.0
40.572,1.566,4.193,39.0
40.493,1.565,3.95,37.0
40.524,1.569,3.719,33.0
41.025,1.602,4.908,6.0
42.461,1.66,4.832,41.0
40.603,1.589,4.384,40.0
40.558,1.589,4.139,37.0
40.421,1.586,3.89,38.0
40.422,1.588,3.656,40.0
45.241,1.792,5.353,14.0
40.697,1.614,4.577,20.0
40.59,1.612,4.328,32.0
40.545,1.611,4.083,24.0
40.434,1.609,3.837,37.0
40.36,1.607,3.597,42.0
44.976,1.806,5.259,19.0
40.666,1.635,4.517,38.0
40.658,1.636,4.279,17.0
41.096,1.655,4.082,17.0
40.446,1.63,3.783,40.0
40.464,1.633,3.55,36.0
45.272,1.841,5.231,13.0
40.658,1.655,4.46,39.0
40.511,1.65,4.208,36.0
40.645,1.656,3.981,23.0
40.76,1.662,3.755,22.0
40.59,1.657,3.504,30.0
42.404,1.744,4.839,4.0
40.625,1.672,4.399,29.0
40.473,1.667,4.146,47.0
40.564,1.671,3.915,33.0
40.304,1.662,3.656,39.0
40.605,1.675,3.448,34.0
0.0,0.0,0.0,0.0
35.448,-3.468,-0.368,12.0
23.684,-2.324,-0.374,0.0
23.03,-2.267,-0.491,25.0
20.234,-1.998,-0.542,19.0
18.418,-1.824,-0.594,16.0
0.0,0.0,0.0,0.0
35.421,-3.518,-0.345,21.0
29.552,-2.943,-0.448,7.0
23.229,-2.32,-0.481,22.0
20.768,-2.081,-0.543,19.0
18.439,-1.853,-0.582,17.0
43.041,-4.324,-0.158,19.0
35.779,-3.605,-0.325,12.0
0.0,0.0,0.0,0.0
23.557,-2.387,-0.472,33.0
21.006,-2.134,-0.535,20.0
18.744,-1.91,-0.579,17.0
43.892,-4.472,-0.131,19.0
36.537,-3.733,-0.307,14.0
29.254,-2.997,-0.404,12.0
23.527,-2.417,-0.455,20.0
21.246,-2.188,-0.526,23.0
18.924,-1.955,-0.571,18.0
33.136,-3.422,-0.075,19.0
33.115,-3.428,-0.255,72.0
29.824,-3.096,-0.391,27.0
23.523,-2.448,-0.438,2.0
21.389,-2.232,-0.514,19.0
19.261,-2.015,-0.567,22.0
33.104,-3.463,-0.05,76.0
33.093,-3.47,-0.23,92.0
30.221,-3.177,-0.374,25.0
23.557,-2.483,-0.421,0.0
21.655,-2.288,-0.504,19.0
19.235,-2.038,-0.552,20.0
33.1,-3.506,-0.025,87.0
33.093,-3.514,-0.204,80.0
30.986,-3.298,-0.359,10.0
24.779,-2.644,-0.423,12.0
22.074,-2.361,-0.497,22.0
19.479,-2.089,-0.544,17.0
33.107,-3.549,0.0,73.0
33.108,-3.557,-0.178,42.0
31.666,-3.41,-0.342,12.0
24.842,-2.682,-0.405,16.0
22.37,-2.421,-0.485,21.0
19.653,-2.132,-0.533,20.0
33.135,-3.593,0.027,5.0
0.0,0.0,0.0,0.0
32.207,-3.508,-0.321,13.0
25.545,-2.789,-0.395,12.0
22.49,-2.461,-0.469,21.0
19.712,-2.162,-0.518,18.0
48.664,-5.336,0.08,15.0
0.0,0.0,0.0,0.0
35.584,-3.918,-0.324,9.0
27.656,-3.052,-0.404,13.0
22.884,-2.531,-0.458,22.0
20.428,-2.264,-0.519,31.0
50.736,-5.622,0.127,17.0
42.077,-4.672,-0.12,17.0
35.845,-3.988,-0.296,20.0
28.314,-3.157,-0.389,18.0
23.118,-2.583,-0.442,21.0
20.536,-2.299,-0.504,20.0
63.163,-7.07,0.214,4.0
42.849,-4.806,-0.084,10.0
36.598,-4.113,-0.269,13.0
28.873,-3.251,-0.371,26.0
23.458,-2.647,-0.428,20.0
20.794,-2.351,-0.491,18.0
63.122,-7.135,0.272,0.0
0.0,0.0,0.0,0.0
37.401,-4.243,-0.241,18.0
29.737,-3.38,-0.354,25.0
24.105,-2.745,-0.417,24.0
21.154,-2.414,-0.48,19.0
75.156,-8.574,0.394,14.0
46.464,-5.31,-0.006,21.0
38.292,-4.384,-0.211,20.0
30.591,-3.509,-0.336,25.0
24.323,-2.795,-0.398,18.0
21.53,-2.479,-0.468,20.0
75.205,-8.656,0.466,20.0
47.487,-5.475,0.038,21.0
38.833,-4.485,-0.177,14.0
31.066,-3.594,-0.311,11.0
24.909,-2.886,-0.384,19.0
21.974,-2.551,-0.457,20.0
75.202,-8.729,0.538,24.0
50.52,-5.873,0.09,24.0
39.149,-4.558,-0.14,14.0
35.417,-4.131,-0.321,12.0
25.24,-2.948,-0.364,15.0
22.375,-2.618,-0.443,19.0
75.209,-8.799,0.612,18.0
51.102,-5.988,0.141,25.0
41.916,-4.919,-0.108,17.0
35.592,-4.183,-0.287,23.0
0.0,0.0,0.0,0.0
22.827,-2.691,-0.429,20.0
89.795,-10.585,0.821,4.0
52.461,-6.193,0.198,6.0
45.931,-5.43,-0.072,7.0
36.218,-4.288,-0.255,13.0
0.0,0.0,0.0,0.0
23.183,-2.753,-0.412,21.0
91.299,-10.84,0.929,15.0
78.002,-9.274,0.375,3.0
46.126,-5.491,-0.025,21.0
37.388,-4.457,-0.224,19.0
29.591,-3.533,-0.336,23.0
23.858,-2.852,-0.399,22.0
100.927,-12.065,1.132,5.0
83.632,-10.01,0.491,9.0
46.719,-5.599,0.023,20.0
38.269,-4.592,-0.19,21.0
30.388,-3.651,-0.313,19.0
24.566,-2.956,-0.385,22.0
100.983,-12.148,1.239,7.0
84.584,-10.187,0.584,14.0
51.014,-6.151,0.079,4.0
38.734,-4.676,-0.151,14.0
35.336,-4.271,-0.327,5.0
25.088,-3.036,-0.367,19.0
73.213,-8.86,0.976,11.0
85.277,-10.331,0.68,9.0
49.972,-6.06,0.131,6.0
0.0,0.0,0.0,0.0
35.625,-4.33,-0.292,21.0
25.84,-3.145,-0.35,10.0
73.245,-8.913,1.056,3.0
90.278,-10.997,0.818,6.0
52.59,-6.412,0.194,16.0
45.709,-5.579,-0.08,4.0
36.133,-4.415,-0.257,20.0
0.0,0.0,0.0,0.0
73.485,-8.988,1.14,14.0
90.707,-11.105,0.921,9.0
63.199,-7.745,0.303,3.0
45.556,-5.588,-0.029,20.0
37.302,-4.58,-0.224,19.0
29.603,-3.638,-0.336,22.0
73.579,-9.043,1.223,22.0
94.013,-11.564,1.059,10.0
83.516,-10.282,0.494,6.0
46.53,-5.733,0.02,21.0
38.191,-4.71,-0.187,23.0
0.0,0.0,0.0,0.0
76.68,-9.466,1.359,13.0
73.242,-9.048,0.906,22.0
83.691,-10.346,0.587,5.0
47.356,-5.859,0.074,11.0
38.712,-4.794,-0.146,14.0
35.457,-4.394,-0.324,4.0
76.682,-9.504,1.445,24.0
73.289,-9.089,0.988,28.0
85.193,-10.572,0.693,3.0
0.0,0.0,0.0,0.0
0.0,0.0,0.0,0.0
35.728,-4.444,-0.286,23.0
76.659,-9.535,1.531,26.0
76.624,-9.536,1.121,12.0
76.624,-9.542,0.71,16.0
52.446,-6.535,0.2,5.0
0.0,0.0,0.0,0.0
36.226,-4.52,-0.249,15.0
76.687,-9.569,1.619,15.0
76.638,-9.568,1.208,18.0
76.613,-9.57,0.797,14.0
62.701,-7.836,0.311,4.0
0.0,0.0,0.0,0.0
37.411,-4.681,-0.214,17.0
76.728,-9.602,1.706,6.0
76.655,-9.597,1.294,21.0
73.249,-9.174,0.846,14.0
76.541,-9.591,0.467,12.0
46.693,-5.854,0.035,20.0
38.268,-4.8,-0.175,20.0
86.61,-10.865,2.026,4.0
76.625,-9.616,1.382,16.0
76.591,-9.615,0.972,11.0
76.589,-9.618,0.554,22.0
50.661,-6.365,0.096,4.0
38.764,-4.872,-0.133,14.0
70.715,-8.89,1.735,2.0
76.662,-9.64,1.471,9.0
76.612,-9.636,1.06,21.0
76.569,-9.634,0.641,26.0
0.0,0.0,0.0,0.0
0.0,0.0,0.0,0.0
46.463,0.51,-0.319,0.0
0.0,0.0,0.0,0.0
31.03,0.349,-0.574,0.0
26.519,0.302,-0.648,0.0
23.211,0.267,-0.702,0.0
20.357,0.237,-0.734,0.0
43.935,0.517,-0.388,1.0
0.0,0.0,0.0,0.0
29.369,0.353,-0.601,0.0
25.055,0.305,-0.661,0.0
22.051,0.271,-0.71,0.0
19.708,0.245,-0.75,0.0
41.057,0.514,-0.443,0.0
0.0,0.0,0.0,0.0
27.875,0.356,-0.625,0.0
23.715,0.306,-0.672,0.0
21.239,0.277,-0.726,0.0
18.794,0.247,-0.752,0.0
0.0,0.0,0.0,0.0
30.807,0.412,-0.573,0.0
26.318,0.355,-0.643,0.0
22.825,0.311,-0.692,0.0
20.186,0.277,-0.73,0.0
18.271,0.253,-0.767,1.0
35.136,0.489,-0.519,0.0
29.37,0.412,-0.605,0.0
25.084,0.355,-0.663,0.0
22.043,0.315,-0.713,0.0
19.418,0.279,-0.741,0.0
17.606,0.255,-0.775,2.0
32.038,0.467,-0.538,0.0
27.792,0.408,-0.628,0.0
23.852,0.353,-0.677,0.0
20.948,0.312,-0.719,0.0
18.491,0.278,-0.743,0.0
17.071,0.258,-0.785,0.0
30.559,0.464,-0.574,0.0
26.061,0.398,-0.641,0.0
22.728,0.35,-0.691,0.0
20.028,0.31,-0.728,0.0
17.962,0.28,-0.758,0.0
16.508,0.259,-0.793,0.0
29.037,0.457,-0.603,0.0
24.895,0.394,-0.662,0.0
21.888,0.349,-0.71,0.0
19.357,0.311,-0.742,0.0
17.61,0.284,-0.778,2.0
15.901,0.258,-0.795,0.0
27.641,0.45,-0.63,0.0
23.47,0.384,-0.672,0.0
0.0,0.0,0.0,0.0
18.655,0.309,-0.753,0.0
16.952,0.282,-0.783,0.0
15.52,0.26,-0.808,0.0
26.221,0.44,-0.65,0.0
22.764,0.384,-0.697,0.0
19.964,0.338,-0.727,0.0
17.704,0.301,-0.75,0.0
16.517,0.283,-0.796,0.0
15.119,0.26,-0.817,0.0
24.539,0.422,-0.657,0.0
21.485,0.372,-0.701,0.0
19.483,0.339,-0.749,0.0
17.579,0.307,-0.78,1.0
15.963,0.28,-0.801,0.0
14.594,0.257,-0.818,0.0
23.674,0.417,-0.681,0.0
20.706,0.367,-0.717,0.0
18.567,0.33,-0.751,0.0
16.908,0.302,-0.784,0.0
15.391,0.276,-0.804,0.0
14.206,0.256,-0.825,0.0
22.626,0.407,-0.696,0.0
19.906,0.36,-0.729,0.0
17.763,0.322,-0.754,0.0
16.374,0.298,-0.792,0.0
15.016,0.275,-0.814,0.0
13.9,0.255,-0.835,0.0
21.625,0.396,-0.709,0.0
19.247,0.354,-0.743,0.0
17.512,0.323,-0.778,0.0
15.88,0.294,-0.8,0.0
14.595,0.272,-0.821,0.0
13.562,0.253,-0.842,0.0
20.716,0.386,-0.721,0.0
18.555,0.347,-0.753,0.0
16.829,0.316,-0.782,0.0
15.343,0.289,-0.804,0.0
14.118,0.267,-0.822,0.0
13.181,0.25,-0.845,0.0
19.829,0.375,-0.73,0.0
17.891,0.339,-0.763,0.0
16.327,0.31,-0.791,0.0
14.928,0.285,-0.812,0.0
13.849,0.265,-0.834,0.0
12.766,0.245,-0.844,0.0
14.139,-0.769,-0.833,0.0
13.317,-0.724,-0.854,0.0
12.315,-0.67,-0.854,0.0
11.561,-0.629,-0.864,0.0
10.953,-0.595,-0.876,0.0
10.429,-0.567,-0.889,0.0
14.481,-0.784,-0.829,0.0
13.527,-0.732,-0.845,0.0
12.539,-0.678,-0.848,0.0
11.813,-0.639,-0.862,0.0
11.157,-0.603,-0.873,0.0
10.6,-0.573,-0.885,0.0
14.878,-0.801,-0.826,0.0
13.812,-0.743,-0.839,0.0
13.0,-0.699,-0.857,0.0
12.09,-0.649,-0.862,0.0
11.374,-0.61,-0.87,0.0
10.807,-0.58,-0.884,0.0
15.17,-0.811,-0.816,0.0
14.131,-0.755,-0.834,0.0
13.328,-0.711,-0.856,0.0
12.341,-0.658,-0.858,0.0
11.573,-0.617,-0.866,0.0
10.966,-0.584,-0.878,0.0
15.581,-0.826,-0.811,0.0
14.454,-0.766,-0.828,0.0
13.509,-0.715,-0.844,0.0
19.957,-1.056,-1.354,0.0
11.812,-0.624,-0.863,0.0
11.171,-0.59,-0.875,0.0
15.983,-0.841,-0.805,0.0
14.801,-0.778,-0.823,0.0
13.872,-0.728,-0.843,0.0
20.006,-1.049,-1.323,0.0
12.081,-0.633,-0.862,0.0
11.33,-0.593,-0.868,0.0
16.449,-0.857,-0.8,0.0
15.156,-0.789,-0.816,0.0
14.116,-0.734,-0.834,0.0
13.226,-0.686,-0.852,0.0
12.334,-0.639,-0.859,0.0
11.579,-0.599,-0.867,0.0
20.087,-1.036,-0.943,0.0
20.015,-1.031,-1.044,0.0
14.499,-0.746,-0.832,0.0
13.454,-0.691,-0.843,0.0
20.021,-1.027,-1.36,0.0
11.823,-0.605,-0.864,0.0
20.095,-1.025,-0.908,0.0
20.088,-1.023,-1.013,0.0
14.82,-0.753,-0.824,0.0
13.733,-0.697,-0.837,0.0
20.018,-1.014,-1.324,0.0
12.103,-0.612,-0.864,0.0
17.874,-0.901,-0.777,0.0
20.076,-1.01,-0.977,0.0
15.236,-0.765,-0.82,0.0
14.127,-0.708,-0.836,0.0
19.949,-0.998,-1.285,0.0
12.364,-0.617,-0.861,0.0
20.088,-0.999,-0.838,0.0
20.09,-0.997,-0.943,0.0
20.051,-0.993,-1.045,0.0
14.48,-0.716,-0.831,0.0
13.57,-0.669,-0.85,0.0
12.583,-0.619,-0.854,0.0
19.468,-0.955,-0.778,0.0
17.394,-0.851,-0.786,0.0
20.051,-0.979,-1.01,0.0
14.821,-0.722,-0.825,0.0
13.826,-0.672,-0.842,0.0
20.015,-0.971,-1.323,0.0
19.778,-0.955,-0.756,1.0
17.848,-0.86,-0.775,0.0
16.454,-0.791,-0.8,0.0
15.228,-0.73,-0.821,0.0
14.148,-0.677,-0.837,0.0
13.243,-0.632,-0.852,0.0
19.852,-0.943,-0.725,3.0
18.31,-0.868,-0.763,0.0
16.905,-0.799,-0.793,0.0
15.497,-0.731,-0.809,0.0
14.491,-0.681,-0.832,0.0
13.539,-0.635,-0.848,0.0
0.0,0.0,0.0,0.0
19.096,-0.889,-0.763,0.0
17.373,-0.807,-0.785,0.0
16.019,-0.742,-0.808,0.0
14.915,-0.689,-0.831,0.0
13.858,-0.638,-0.844,0.0
21.878,-1.003,-0.723,0.0
19.701,-0.9,-0.753,0.0
17.877,-0.814,-0.777,0.0
16.475,-0.748,-0.803,0.0
15.214,-0.689,-0.821,0.0
14.168,-0.639,-0.838,0.0
22.55,-1.014,-0.706,0.0
20.19,-0.904,-0.737,0.0
18.356,-0.819,-0.766,0.0
16.866,-0.75,-0.793,0.0
15.533,-0.689,-0.811,0.0
14.505,-0.641,-0.833,0.0
23.347,-1.027,-0.691,0.0
20.916,-0.917,-0.728,0.0
19.041,-0.832,-0.762,0.0
17.428,-0.759,-0.79,0.0
15.916,-0.69,-0.804,0.0
14.889,-0.644,-0.83,0.0
24.48,-1.054,-0.684,0.0
21.588,-0.925,-0.715,0.0
19.52,-0.833,-0.748,0.0
17.899,-0.761,-0.781,0.0
16.559,-0.702,-0.809,0.0
15.146,-0.639,-0.819,0.0
0.0,0.0,0.0,0.0
22.895,-0.958,-0.72,0.0
20.459,-0.852,-0.749,0.0
18.379,-0.763,-0.771,0.0
16.832,-0.695,-0.793,0.0
15.502,-0.638,-0.812,0.0
26.739,-1.095,-0.656,0.0
23.356,-0.953,-0.695,0.0
20.999,-0.853,-0.734,0.0
18.891,-0.764,-0.76,0.0
17.347,-0.698,-0.789,0.0
15.9,-0.637,-0.806,0.0
27.876,-1.112,-0.638,0.0
24.375,-0.968,-0.685,0.0
21.638,-0.855,-0.72,0.0
19.559,-0.769,-0.755,0.0
17.796,-0.696,-0.78,0.0
16.453,-0.641,-0.807,0.0
29.224,-1.132,-0.62,0.0
0.0,0.0,0.0,0.0
22.716,-0.871,-0.719,0.0
20.217,-0.771,-0.747,0.0
18.361,-0.697,-0.774,0.0
16.835,-0.636,-0.798,0.0
30.572,-1.149,-0.598,0.0
26.678,-0.997,-0.661,0.0
23.489,-0.873,-0.704,0.0
21.002,-0.777,-0.741,0.0
18.868,-0.694,-0.764,0.0
17.339,-0.634,-0.793,0.0
31.501,-1.146,-0.565,0.0
27.836,-1.007,-0.644,0.0
0.0,0.0,0.0,0.0
21.638,-0.773,-0.728,0.0
19.466,-0.692,-0.757,0.0
17.719,-0.626,-0.782,0.0
0.0,0.0,0.0,0.0
29.152,-1.018,-0.628,0.0
25.504,-0.885,-0.682,0.0
22.302,-0.769,-0.715,0.0
20.163,-0.691,-0.752,0.0
18.258,-0.622,-0.776,0.0
0.0,0.0,0.0,0.0
30.478,-1.026,-0.608,0.0
26.145,-0.874,-0.658,0.0
23.286,-0.773,-0.71,0.0
20.637,-0.681,-0.737,0.0
18.812,-0.616,-0.77,0.0
38.089,-1.241,-0.501,0.0
0.0,0.0,0.0,0.0
27.501,-0.883,-0.649,0.0
23.928,-0.763,-0.692,0.0
21.894,-0.693,-0.748,2.0
19.37,-0.609,-0.763,0.0
41.374,-1.293,-0.48,1.0
34.523,-1.07,-0.581,0.0
28.966,-0.891,-0.638,0.0
21.869,-0.668,-0.598,2.0
21.874,-0.663,-0.713,10.0
21.909,-0.659,-0.829,0.0
44.41,-1.327,-0.447,1.0
0.0,0.0,0.0,0.0
0.0,0.0,0.0,0.0
21.895,-0.638,-0.566,155.0
21.876,-0.632,-0.68,70.0
21.838,-0.626,-0.793,12.0
48.109,-1.368,-0.409,0.0
38.032,-1.072,-0.522,0.0
21.947,-0.613,-0.416,0.0
21.871,-0.606,-0.531,195.0
21.879,-0.601,-0.646,150.0
21.86,-0.595,-0.76,8.0
50.207,-1.356,-0.351,0.0
41.236,-1.104,-0.505,0.0
0.0,0.0,0.0,0.0
21.909,-0.575,-0.5,150.0
21.895,-0.569,-0.614,153.0
18.133,-0.467,-0.604,154.0
0.0,0.0,0.0,0.0
43.318,-1.095,-0.466,1.0
35.049,-0.877,-0.561,0.0
0.0,0.0,0.0,0.0
21.896,-0.536,-0.582,6.0
18.123,-0.439,-0.577,155.0
0.0,0.0,0.0,0.0
44.307,-1.053,-0.412,0.0
0.0,0.0,0.0,0.0
30.368,-0.706,-0.604,0.0
26.616,-0.612,-0.669,0.0
18.154,-0.412,-0.552,52.0
0.0,0.0,0.0,0.0
0.0,0.0,0.0,0.0
0.0,0.0,0.0,0.0
31.054,-0.673,-0.573,0.0
27.929,-0.598,-0.662,0.0
23.887,-0.505,-0.691,0.0
0.0,0.0,0.0,0.0
0.0,0.0,0.0,0.0
42.667,-0.869,-0.499,0.0
33.67,-0.677,-0.574,0.0
29.155,-0.578,-0.65,0.0
24.881,-0.486,-0.685,0.0
0.0,0.0,0.0,0.0
0.0,0.0,0.0,0.0
45.071,-0.845,-0.463,1.0
34.57,-0.639,-0.541,0.0
30.076,-0.547,-0.629,0.0
26.042,-0.466,-0.681,0.0
0.0,0.0,0.0,0.0
0.0,0.0,0.0,0.0
45.258,-0.775,-0.404,0.0
0.0,0.0,0.0,0.0
0.0,0.0,0.0,0.0
26.512,-0.431,-0.658,0.0
98.011,-1.57,0.288,1.0
0.0,0.0,0.0,0.0
0.0,0.0,0.0,0.0
0.0,0.0,0.0,0.0
0.0,0.0,0.0,0.0
27.84,-0.407,-0.655,0.0
127.592,-1.832,0.542,2.0
0.0,0.0,0.0,0.0
0.0,0.0,0.0,0.0
40.947,-0.552,-0.477,0.0
33.936,-0.447,-0.575,0.0
28.723,-0.37,-0.638,0.0
127.61,-1.614,0.707,2.0
0.0,0.0,0.0,0.0
0.0,0.0,0.0,0.0
41.82,-0.492,-0.434,0.0
35.327,-0.405,-0.553,0.0
29.787,-0.333,-0.624,0.0
119.771,-1.305,0.817,38.0
0.0,0.0,0.0,0.0
0.0,0.0,0.0,0.0
0.0,0.0,0.0,0.0
36.295,-0.352,-0.523,0.0
30.844,-0.29,-0.608,0.0
119.702,-1.094,0.964,14.0
0.0,0.0,0.0,0.0
0.0,0.0,0.0,0.0
0.0,0.0,0.0,0.0
0.0,0.0,0.0,0.0
31.784,-0.243,-0.588,0.0
119.734,-0.884,1.106,19.0
110.86,-0.785,0.438,4.0
0.0,0.0,0.0,0.0
0.0,0.0,0.0,0.0
40.642,-0.251,-0.49,0.0
0.0,0.0,0.0,0.0
119.707,-0.668,1.247,16.0
111.028,-0.585,0.568,5.0
0.0,0.0,0.0,0.0
53.635,-0.25,-0.299,0.0
0.0,0.0,0.0,0.0
35.364,-0.143,-0.573,0.0
119.685,-0.451,1.383,9.0
111.257,-0.384,0.696,9.0
0.0,0.0,0.0,0.0
0.0,0.0,0.0,0.0
45.092,-0.114,-0.441,1.0
35.824,-0.079,-0.54,0.0
0.0,0.0,0.0,0.0
111.266,-0.18,0.818,9.0
0.0,0.0,0.0,0.0
0.0,0.0,0.0,0.0
45.234,-0.031,-0.393,1.0
37.304,-0.013,-0.523,0.0
111.115,-0.008,1.527,9.0
111.209,0.027,0.937,6.0
95.636,0.054,0.297,2.0
0.0,0.0,0.0,0.0
49.77,0.059,-0.38,0.0
38.415,0.057,-0.498,0.0
111.156,0.202,1.645,12.0
111.136,0.238,1.053,16.0
94.441,0.23,0.39,3.0
0.0,0.0,0.0,0.0
49.932,0.153,-0.33,0.0
