X,Y,Z,Reflectivity
13.642,-0.364,-0.831,0.0
12.645,-0.34,-0.845,0.0
11.71,-0.317,-0.851,0.0
11.041,-0.301,-0.866,0.0
21.867,-0.602,-1.11,1.0
14.433,-0.4,-0.816,0.0
13.462,-0.376,-0.839,0.0
12.403,-0.349,-0.847,0.0
11.513,-0.326,-0.853,0.0
10.932,-0.312,-0.873,0.0
15.31,-0.441,-0.799,0.0
14.183,-0.412,-0.822,0.0
13.236,-0.387,-0.844,0.0
12.206,-0.359,-0.85,0.0
11.378,-0.338,-0.859,0.0
10.751,-0.321,-0.874,0.0
15.096,-0.455,-0.808,0.0
13.877,-0.421,-0.823,0.0
12.886,-0.394,-0.839,0.0
11.948,-0.368,-0.848,0.0
11.212,-0.347,-0.861,0.0
10.626,-0.332,-0.878,0.0
14.804,-0.465,-0.812,0.0
13.67,-0.433,-0.829,0.0
12.595,-0.401,-0.836,0.0
11.766,-0.377,-0.85,0.0
11.097,-0.358,-0.866,0.0
10.453,-0.34,-0.877,0.0
14.546,-0.476,-0.816,0.0
13.483,-0.445,-0.834,0.0
12.492,-0.415,-0.845,0.0
11.575,-0.387,-0.851,0.0
10.979,-0.369,-0.871,0.0
10.349,-0.351,-0.881,0.0
14.332,-0.489,-0.822,0.0
13.243,-0.455,-0.836,0.0
12.313,-0.426,-0.848,0.0
11.44,-0.398,-0.856,0.0
10.833,-0.38,-0.873,0.0
10.253,-0.362,-0.886,0.0
14.067,-0.499,-0.824,0.0
13.09,-0.467,-0.842,0.0
12.115,-0.435,-0.849,0.0
11.298,-0.409,-0.858,0.0
10.702,-0.39,-0.875,0.0
10.135,-0.372,-0.887,0.0
13.739,-0.507,-0.821,0.0
12.882,-0.478,-0.844,0.0
11.928,-0.445,-0.85,0.0
11.153,-0.419,-0.86,0.0
10.576,-0.4,-0.877,0.0
10.024,-0.381,-0.889,0.0
39.021,-3.461,-0.329,4.0
29.861,-2.642,-0.41,38.0
25.596,-2.258,-0.488,27.0
23.32,-2.052,-0.571,5.0
21.815,-1.914,-0.65,1.0
22.015,-1.927,-0.773,0.0
41.587,-3.636,-0.303,16.0
29.893,-2.606,-0.377,46.0
27.049,-2.351,-0.485,26.0
23.786,-2.062,-0.555,4.0
22.717,-1.964,-0.651,1.0
22.91,-1.975,-0.779,0.0
42.711,-3.679,-0.264,19.0
35.64,-3.061,-0.41,1.0
28.116,-2.407,-0.473,25.0
24.494,-2.091,-0.545,2.0
23.669,-2.014,-0.653,1.0
23.935,-2.031,-0.787,0.0
44.467,-3.769,-0.226,19.0
35.663,-3.014,-0.371,27.0
28.876,-2.432,-0.454,27.0
25.399,-2.133,-0.537,2.0
24.818,-2.078,-0.657,1.0
22.653,-1.891,-0.72,0.0
0.0,0.0,0.0,0.0
35.664,-2.964,-0.333,20.0
29.88,-2.475,-0.438,28.0
26.303,-2.172,-0.528,3.0
26.035,-2.142,-0.661,1.0
22.827,-1.872,-0.702,1.0
49.474,-4.054,-0.145,24.0
40.612,-3.316,-0.336,1.0
31.444,-2.559,-0.428,18.0
27.503,-2.23,-0.523,2.0
27.524,-2.225,-0.67,0.0
23.451,-1.889,-0.696,0.0
50.667,-4.077,-0.096,23.0
40.619,-3.257,-0.294,22.0
32.896,-2.629,-0.413,10.0
29.117,-2.318,-0.524,2.0
27.945,-2.217,-0.652,0.0
0.0,0.0,0.0,0.0
55.297,-4.367,-0.049,4.0
40.65,-3.198,-0.253,9.0
35.652,-2.795,-0.412,12.0
30.804,-2.406,-0.524,1.0
0.0,0.0,0.0,0.0
24.801,-1.923,-0.687,0.0
56.961,-4.411,0.005,3.0
40.635,-3.135,-0.213,2.0
37.162,-2.856,-0.393,3.0
33.231,-2.544,-0.533,1.0
29.307,-2.235,-0.626,0.0
25.419,-1.931,-0.679,0.0
62.793,-4.765,0.065,7.0
0.0,0.0,0.0,0.0
37.402,-2.816,-0.36,1.0
35.645,-2.672,-0.537,0.0
30.762,-2.297,-0.628,0.0
0.0,0.0,0.0,0.0
67.445,-5.012,0.133,2.0
45.149,-3.34,-0.152,3.0
39.289,-2.894,-0.342,1.0
0.0,0.0,0.0,0.0
30.819,-2.252,-0.601,0.0
0.0,0.0,0.0,0.0
82.467,-5.994,0.238,2.0
48.737,-3.526,-0.119,0.0
42.692,-3.076,-0.333,2.0
0.0,0.0,0.0,0.0
0.0,0.0,0.0,0.0
27.319,-1.943,-0.655,0.0
82.253,-5.842,0.31,4.0
0.0,0.0,0.0,0.0
47.513,-3.344,-0.329,1.0
40.665,-2.849,-0.504,0.0
32.876,-2.293,-0.584,0.0
0.0,0.0,0.0,0.0
95.404,-6.615,0.442,2.0
20.0,-1.38,-0.014,2.0
20.007,-1.374,-0.122,15.0
20.011,-1.368,-0.231,17.0
20.05,-1.364,-0.339,15.0
20.076,-1.359,-0.447,13.0
20.011,-1.353,0.109,18.0
20.003,-1.346,0.001,12.0
19.993,-1.338,-0.105,26.0
20.009,-1.333,-0.215,28.0
20.054,-1.33,-0.323,24.0
20.06,-1.324,-0.431,30.0
19.993,-1.317,0.125,24.0
20.0,-1.311,0.017,24.0
19.991,-1.304,-0.089,31.0
20.009,-1.298,-0.199,31.0
20.041,-1.294,-0.307,25.0
20.062,-1.289,-0.415,30.0
111.088,0.138,1.507,19.0
110.989,0.178,0.888,10.0
92.712,0.182,0.226,1.0
0.0,0.0,0.0,0.0
44.567,0.118,-0.391,0.0
0.0,0.0,0.0,0.0
111.199,0.374,1.464,10.0
110.896,0.413,0.842,11.0
87.847,0.357,0.177,1.0
0.0,0.0,0.0,0.0
45.779,0.217,-0.421,1.0
35.76,0.182,-0.528,0.0
111.044,0.608,1.413,28.0
104.829,0.61,0.749,16.0
86.251,0.532,0.135,4.0
0.0,0.0,0.0,0.0
42.894,0.294,-0.415,0.0
35.338,0.255,-0.539,0.0
100.153,0.759,1.226,5.0
98.307,0.78,0.655,16.0
83.301,0.69,0.09,1.0
0.0,0.0,0.0,0.0
42.815,0.383,-0.435,0.0
35.019,0.325,-0.552,0.0
98.611,0.953,1.157,25.0
98.216,0.982,0.604,8.0
80.58,0.833,0.045,3.0
0.0,0.0,0.0,0.0
42.19,0.464,-0.451,2.0
34.721,0.393,-0.565,0.0
98.528,1.155,1.102,30.0
85.42,1.03,0.478,7.0
75.365,0.933,0.001,1.0
0.0,0.0,0.0,0.0
41.087,0.537,-0.463,0.0
33.339,0.447,-0.562,0.0
98.629,1.36,1.046,22.0
85.129,1.202,0.426,11.0
75.673,1.093,-0.044,0.0
53.588,0.792,-0.336,0.0
41.592,0.628,-0.494,0.0
0.0,0.0,0.0,0.0
91.891,1.454,0.918,24.0
78.358,1.266,0.344,9.0
73.608,1.213,-0.089,1.0
0.0,0.0,0.0,0.0
39.913,0.683,-0.499,0.0
31.919,0.557,-0.578,0.0
91.873,1.639,0.858,23.0
77.948,1.417,0.291,5.0
0.0,0.0,0.0,0.0
47.938,0.902,-0.363,1.0
0.0,0.0,0.0,0.0
31.77,0.619,-0.597,0.0
85.351,1.698,0.738,27.0
72.394,1.463,0.22,3.0
0.0,0.0,0.0,0.0
0.0,0.0,0.0,0.0
0.0,0.0,0.0,0.0
30.475,0.654,-0.594,0.0
85.187,1.864,0.675,22.0
71.947,1.597,0.166,12.0
0.0,0.0,0.0,0.0
44.634,1.019,-0.402,0.0
35.743,0.828,-0.523,0.0
29.81,0.699,-0.604,0.0
85.122,2.032,0.61,14.0
71.437,1.727,0.111,6.0
0.0,0.0,0.0,0.0
0.0,0.0,0.0,0.0
35.466,0.891,-0.547,0.0
28.612,0.727,-0.602,1.0
78.78,2.034,0.503,15.0
66.107,1.729,0.05,6.0
0.0,0.0,0.0,0.0
41.353,1.106,-0.438,0.0
34.516,0.934,-0.56,0.0
28.568,0.782,-0.624,1.0
78.696,2.187,0.437,6.0
64.796,1.82,-0.004,6.0
0.0,0.0,0.0,0.0
0.0,0.0,0.0,0.0
33.647,0.976,-0.574,0.0
28.465,0.835,-0.646,1.0
71.875,2.137,0.337,13.0
62.111,1.866,-0.058,2.0
49.008,1.487,-0.322,0.0
39.064,1.196,-0.481,0.0
31.868,0.986,-0.572,0.0
27.185,0.849,-0.641,0.0
71.632,2.267,0.273,12.0
60.68,1.938,-0.111,5.0
0.0,0.0,0.0,0.0
0.0,0.0,0.0,0.0
0.0,0.0,0.0,0.0
26.716,0.885,-0.655,0.0
71.072,2.384,0.205,8.0
59.334,2.008,-0.163,5.0
46.572,1.59,-0.391,0.0
0.0,0.0,0.0,0.0
0.0,0.0,0.0,0.0
25.788,0.903,-0.656,0.0
65.5,2.318,0.127,9.0
57.915,2.067,-0.214,1.0
44.48,1.6,-0.416,0.0
0.0,0.0,0.0,0.0
29.82,1.09,-0.619,0.0
25.318,0.932,-0.669,0.0
65.08,2.423,0.063,9.0
54.128,2.03,-0.253,1.0
44.722,1.69,-0.462,0.0
33.943,1.292,-0.546,0.0
28.717,1.102,-0.625,0.0
24.828,0.959,-0.68,0.0
57.236,2.234,-0.001,3.0
52.901,2.079,-0.3,0.0
39.978,1.583,-0.453,0.0
33.312,1.328,-0.57,0.0
27.948,1.122,-0.636,0.0
24.171,0.977,-0.687,0.0
58.757,2.399,-0.063,15.0
0.0,0.0,0.0,0.0
39.417,1.631,-0.488,0.0
31.718,1.321,-0.576,0.0
27.167,1.139,-0.647,0.0
23.733,1.001,-0.7,0.0
58.476,2.49,-0.124,1.0
0.0,0.0,0.0,0.0
0.0,0.0,0.0,0.0
30.678,1.331,-0.59,0.0
26.461,1.155,-0.659,0.0
22.891,1.005,-0.7,0.0
53.242,2.359,-0.171,7.0
44.448,1.981,-0.395,1.0
35.719,1.601,-0.52,0.0
29.534,1.332,-0.6,0.0
25.646,1.163,-0.667,0.0
22.456,1.025,-0.712,0.0
52.216,2.403,-0.226,12.0
43.675,2.021,-0.437,0.0
34.094,1.586,-0.534,0.0
28.624,1.339,-0.614,0.0
24.807,1.167,-0.673,0.0
21.873,1.035,-0.718,0.0
51.277,2.445,-0.28,1.0
40.401,1.936,-0.45,2.0
32.933,1.587,-0.554,0.0
27.886,1.351,-0.631,0.0
24.289,1.183,-0.687,0.0
21.394,1.047,-0.727,0.0
50.321,2.483,-0.335,15.0
0.0,0.0,0.0,0.0
31.845,1.587,-0.574,0.0
26.931,1.348,-0.641,0.0
23.431,1.179,-0.691,0.0
20.767,1.05,-0.731,0.0
0.0,0.0,0.0,0.0
0.0,0.0,0.0,0.0
30.665,1.577,-0.589,0.0
26.171,1.352,-0.654,0.0
22.786,1.183,-0.699,0.0
20.384,1.063,-0.742,0.0
42.62,2.238,-0.385,1.0
35.636,1.879,-0.525,0.0
29.402,1.558,-0.6,0.0
25.476,1.356,-0.668,0.0
22.343,1.194,-0.713,0.0
19.865,1.067,-0.747,0.0
42.446,2.295,-0.437,2.0
33.52,1.82,-0.536,0.0
28.313,1.544,-0.614,0.0
24.646,1.35,-0.677,0.0
21.722,1.195,-0.721,0.0
19.459,1.075,-0.757,0.0
39.452,2.193,-0.456,0.0
32.622,1.82,-0.563,0.0
27.599,1.546,-0.633,0.0
23.853,1.342,-0.686,0.0
21.067,1.19,-0.726,0.0
18.953,1.075,-0.761,0.0
37.538,2.142,-0.482,0.0
31.117,1.782,-0.577,0.0
26.62,1.531,-0.645,0.0
23.078,1.332,-0.693,0.0
20.549,1.191,-0.735,0.0
18.492,1.076,-0.767,0.0
35.805,2.095,-0.506,0.0
0.0,0.0,0.0,0.0
25.74,1.517,-0.658,0.0
22.581,1.336,-0.708,0.0
20.05,1.191,-0.743,0.0
17.968,1.071,-0.769,0.0
34.738,2.082,-0.537,0.0
28.67,1.724,-0.607,0.0
24.942,1.505,-0.67,0.0
21.682,1.313,-0.709,0.0
19.47,1.183,-0.748,0.0
17.625,1.075,-0.778,0.0
32.355,1.983,-0.543,0.0
27.555,1.694,-0.62,0.0
24.068,1.485,-0.679,0.0
21.235,1.314,-0.723,0.0
19.065,1.184,-0.758,0.0
17.195,1.072,-0.782,0.0
31.415,1.967,-0.57,0.0
26.741,1.68,-0.638,0.0
23.488,1.48,-0.695,0.0
20.541,1.299,-0.727,0.0
18.43,1.169,-0.758,0.0
16.803,1.069,-0.787,0.0
30.218,1.932,-0.59,0.0
25.918,1.661,-0.654,0.0
22.636,1.456,-0.701,0.0
19.963,1.288,-0.734,0.0
18.06,1.168,-0.767,0.0
16.496,1.071,-0.796,0.0
28.873,1.882,-0.603,0.0
25.034,1.636,-0.666,0.0
22.105,1.449,-0.715,0.0
19.602,1.289,-0.748,0.0
17.653,1.164,-0.775,0.0
16.199,1.071,-0.804,0.0
28.035,1.861,-0.625,0.0
24.141,1.607,-0.676,0.0
21.022,1.404,-0.71,0.0
18.922,1.267,-0.749,0.0
17.181,1.153,-0.779,0.0
15.9,1.071,-0.812,0.0
26.655,1.801,-0.632,0.0
23.425,1.587,-0.69,0.0
20.671,1.404,-0.727,0.0
18.495,1.26,-0.758,0.0
16.86,1.151,-0.788,0.0
15.331,1.05,-0.805,0.0
25.89,1.779,-0.651,0.0
22.697,1.564,-0.701,0.0
20.22,1.397,-0.74,0.0
18.05,1.25,-0.766,0.0
16.542,1.149,-0.797,0.0
15.141,1.054,-0.817,0.0
25.028,1.748,-0.666,0.0
21.896,1.533,-0.708,0.0
19.482,1.367,-0.742,0.0
17.675,1.243,-0.776,0.0
16.143,1.138,-0.802,0.0
14.719,1.041,-0.816,0.0
24.148,1.712,-0.677,0.0
21.373,1.519,-0.722,0.0
18.978,1.352,-0.75,0.0
17.136,1.223,-0.777,0.0
15.765,1.128,-0.806,0.0
14.53,1.042,-0.826,0.0
23.261,1.673,-0.686,0.0
20.587,1.484,-0.725,0.0
18.467,1.334,-0.757,0.0
16.801,1.216,-0.787,0.0
15.357,1.114,-0.807,0.0
14.3,1.04,-0.834,0.0
22.517,1.642,-0.698,0.0
20.03,1.463,-0.736,0.0
18.032,1.32,-0.766,0.0
16.431,1.206,-0.794,0.0
15.02,1.104,-0.812,0.0
13.939,1.027,-0.834,0.0
21.83,1.612,-0.709,0.0
19.501,1.443,-0.745,0.0
17.634,1.307,-0.775,0.0
16.095,1.196,-0.801,0.0
14.651,1.091,-0.814,0.0
13.677,1.02,-0.839,0.0
21.059,1.574,-0.715,0.0
18.905,1.416,-0.75,0.0
17.169,1.288,-0.78,0.0
15.676,1.179,-0.804,0.0
14.446,1.088,-0.824,0.0
13.411,1.012,-0.843,0.0
20.508,1.551,-0.727,0.0
18.411,1.395,-0.758,0.0
16.794,1.274,-0.788,0.0
15.422,1.173,-0.814,0.0
14.09,1.073,-0.825,0.0
13.182,1.006,-0.848,0.0
19.841,1.516,-0.733,0.0
17.938,1.373,-0.766,0.0
16.376,1.256,-0.793,0.0
15.03,1.155,-0.816,0.0
13.885,1.069,-0.834,0.0
12.884,0.993,-0.848,0.0
19.291,1.489,-0.741,0.0
17.467,1.351,-0.772,0.0
16.076,1.245,-0.803,0.0
14.658,1.137,-0.818,0.0
13.64,1.06,-0.84,0.0
12.535,0.976,-0.844,0.0
18.725,1.459,-0.748,0.0
16.974,1.325,-0.775,0.0
15.581,1.218,-0.801,0.0
14.332,1.122,-0.821,0.0
13.345,1.047,-0.842,0.0
12.309,0.967,-0.847,0.0
18.319,1.44,-0.759,0.0
16.655,1.311,-0.786,0.0
15.332,1.209,-0.812,0.0
14.146,1.117,-0.832,0.0
13.098,1.036,-0.846,0.0
12.104,0.959,-0.852,0.0
17.754,1.407,-0.762,0.0
16.296,1.293,-0.793,0.0
15.01,1.193,-0.817,0.0
13.741,1.094,-0.829,0.0
12.83,1.023,-0.848,0.0
11.879,0.948,-0.854,0.0
17.33,1.384,-0.77,0.0
15.968,1.277,-0.802,0.0
14.591,1.168,-0.817,0.0
13.572,1.088,-0.839,0.0
12.564,1.009,-0.849,0.0
11.703,0.941,-0.859,0.0
16.966,1.364,-0.78,0.0
15.551,1.252,-0.804,0.0
14.395,1.161,-0.827,0.0
13.377,1.08,-0.847,0.0
12.265,0.991,-0.848,0.0
11.423,0.925,-0.856,0.0
16.583,1.342,-0.787,0.0
15.244,1.235,-0.811,0.0
13.979,1.134,-0.825,0.0
13.081,1.063,-0.848,0.0
12.057,0.981,-0.852,0.0
11.249,0.916,-0.86,0.0
16.229,1.321,-0.794,0.0
14.883,1.213,-0.814,0.0
13.865,1.131,-0.838,0.0
12.922,1.056,-0.857,0.0
11.865,0.97,-0.856,0.0
11.079,0.907,-0.863,0.0
15.763,1.29,-0.795,0.0
14.515,1.189,-0.816,0.0
13.488,1.106,-0.836,0.0
12.472,1.024,-0.846,0.0
11.635,0.956,-0.857,0.0
10.898,0.897,-0.865,0.0
15.515,1.276,-0.805,0.0
14.277,1.175,-0.824,0.0
13.178,1.086,-0.836,0.0
12.332,1.017,-0.855,0.0
11.428,0.943,-0.858,0.0
10.749,0.888,-0.87,0.0
15.13,1.249,-0.808,0.0
13.942,1.152,-0.825,0.0
13.079,1.082,-0.849,0.0
11.986,0.992,-0.849,0.0
11.221,0.93,-0.859,0.0
10.597,0.879,-0.873,0.0
14.821,1.228,-0.813,0.0
13.733,1.139,-0.833,0.0
12.767,1.06,-0.848,0.0
11.793,0.98,-0.853,0.0
11.063,0.92,-0.864,0.0
10.466,0.871,-0.878,0.0
14.568,1.211,-0.821,0.0
13.501,1.123,-0.838,0.0
12.464,1.038,-0.846,0.0
11.612,0.967,-0.856,0.0
10.859,0.906,-0.864,0.0
10.332,0.862,-0.882,0.0
14.262,1.189,-0.824,0.0
13.212,1.102,-0.84,0.0
12.313,1.028,-0.854,0.0
11.352,0.948,-0.854,0.0
10.723,0.896,-0.869,0.0
10.189,0.852,-0.884,0.0
13.992,1.168,-0.829,0.0
12.985,1.085,-0.844,0.0
12.033,1.006,-0.852,0.0
11.223,0.939,-0.86,0.0
10.583,0.886,-0.873,0.0
10.084,0.845,-0.89,0.0
13.658,1.142,-0.829,0.0
12.816,1.072,-0.852,0.0
11.789,0.987,-0.851,0.0
11.031,0.924,-0.862,0.0
10.459,0.877,-0.877,0.0
9.935,0.833,-0.891,0.0
13.521,1.132,-0.84,0.0
12.45,1.043,-0.845,0.0
11.623,0.974,-0.856,0.0
10.863,0.911,-0.864,0.0
10.332,0.867,-0.881,0.0
9.811,0.824,-0.894,0.0
13.283,1.113,-0.843,0.0
12.323,1.032,-0.853,0.0
11.36,0.952,-0.852,0.0
10.741,0.901,-0.869,0.0
10.197,0.856,-0.884,0.0
9.678,0.812,-0.895,0.0
12.981,1.087,-0.842,0.0
11.998,1.005,-0.848,0.0
11.259,0.944,-0.86,0.0
10.591,0.888,-0.872,0.0
10.058,0.844,-0.886,0.0
9.601,0.806,-0.901,0.0
12.749,1.067,-0.845,0.0
11.856,0.993,-0.854,0.0
11.069,0.927,-0.861,0.0
10.467,0.877,-0.876,0.0
9.931,0.832,-0.888,0.0
9.522,0.798,-0.907,0.0
12.453,1.041,-0.842,0.0
11.613,0.971,-0.852,0.0
10.921,0.914,-0.864,0.0
10.293,0.861,-0.875,0.0
9.882,0.827,-0.897,0.0
9.353,0.783,-0.904,0.0
12.391,1.035,-0.854,0.0
11.421,0.954,-0.853,0.0
10.764,0.899,-0.866,0.0
10.19,0.851,-0.88,0.0
9.751,0.815,-0.898,0.0
9.262,0.774,-0.907,0.0
12.081,1.007,-0.849,0.0
11.248,0.937,-0.855,0.0
10.634,0.886,-0.87,0.0
10.019,0.835,-0.878,0.0
9.646,0.804,-0.902,0.0
9.118,0.76,-0.905,0.0
11.87,0.987,-0.849,0.0
11.095,0.922,-0.858,0.0
10.492,0.872,-0.872,0.0
10.005,0.832,-0.89,0.0
9.493,0.789,-0.899,0.0
9.09,0.756,-0.914,0.0
11.674,0.967,-0.85,0.0
10.94,0.906,-0.86,0.0
10.379,0.86,-0.875,0.0
9.889,0.819,-0.892,0.0
9.439,0.782,-0.906,0.0
8.942,0.741,-0.91,0.0
11.5,0.95,-0.852,0.0
10.817,0.893,-0.863,0.0
10.303,0.851,-0.882,0.0
9.783,0.808,-0.895,0.0
9.302,0.768,-0.905,0.0
8.858,0.731,-0.913,0.0
11.336,0.932,-0.853,0.0
10.69,0.879,-0.866,0.0
10.189,0.838,-0.884,0.0
9.64,0.792,-0.893,0.0
9.246,0.76,-0.911,0.0
8.798,0.723,-0.918,0.0
11.186,0.916,-0.856,0.0
10.553,0.864,-0.868,0.0
10.058,0.823,-0.885,0.0
9.57,0.783,-0.899,0.0
9.075,0.742,-0.905,0.0
8.697,0.711,-0.917,0.0
11.068,0.902,-0.86,0.0
10.446,0.851,-0.872,0.0
9.987,0.813,-0.891,0.0
9.522,0.775,-0.905,0.0
9.084,0.739,-0.916,0.0
8.611,0.701,-0.918,0.0
10.932,0.886,-0.862,0.0
10.343,0.838,-0.875,0.0
9.909,0.802,-0.895,0.0
9.415,0.762,-0.906,0.0
8.958,0.725,-0.914,0.0
8.586,0.695,-0.926,0.0
10.786,0.869,-0.862,0.0
10.277,0.827,-0.881,0.0
9.751,0.785,-0.892,0.0
0.0,0.0,0.0,0.0
8.859,0.712,-0.913,0.0
8.513,0.684,-0.927,0.0
10.672,0.854,-0.865,0.0
10.189,0.815,-0.884,0.0
9.699,0.775,-0.898,0.0
0.0,0.0,0.0,0.0
8.812,0.704,-0.918,0.0
8.411,0.672,-0.925,0.0
10.558,0.839,-0.867,0.0
10.113,0.803,-0.888,0.0
9.616,0.763,-0.9,0.0
0.0,0.0,0.0,0.0
8.722,0.692,-0.918,0.0
8.366,0.663,-0.929,0.0
10.485,0.827,-0.872,0.0
9.927,0.783,-0.882,0.0
9.524,0.75,-0.901,0.0
9.025,0.711,-0.907,0.0
8.684,0.683,-0.923,0.0
8.275,0.651,-0.927,0.0
10.357,0.811,-0.871,0.0
9.912,0.775,-0.891,0.0
9.44,0.738,-0.903,0.0
8.971,0.701,-0.911,0.0
8.538,0.666,-0.916,0.0
8.213,0.641,-0.929,0.0
10.292,0.799,-0.876,0.0
9.849,0.764,-0.895,0.0
9.396,0.728,-0.908,0.0
8.948,0.693,-0.917,0.0
8.479,0.656,-0.918,0.0
8.15,0.63,-0.929,0.0
10.23,0.787,-0.88,0.0
9.73,0.748,-0.893,0.0
9.249,0.71,-0.902,0.0
8.852,0.679,-0.915,0.0
0.0,0.0,0.0,0.0
8.106,0.621,-0.932,0.0
10.153,0.774,-0.883,0.0
9.634,0.733,-0.893,0.0
9.14,0.695,-0.9,0.0
8.799,0.668,-0.918,0.0
8.395,0.637,-0.924,0.0
8.067,0.612,-0.935,0.0
10.086,0.761,-0.886,0.0
9.687,0.73,-0.906,0.0
0.0,0.0,0.0,0.0
8.714,0.655,-0.916,0.0
8.31,0.624,-0.922,0.0
7.982,0.599,-0.932,0.0
9.961,0.743,-0.883,0.0
9.568,0.713,-0.903,0.0
9.088,0.677,-0.91,0.0
8.653,0.644,-0.917,0.0
8.283,0.616,-0.926,0.0
7.941,0.59,-0.933,0.0
9.919,0.732,-0.887,0.0
9.575,0.706,-0.911,0.0
8.999,0.663,-0.908,0.0
8.631,0.635,-0.922,0.0
8.241,0.606,-0.927,0.0
7.862,0.577,-0.93,0.0
9.856,0.719,-0.889,0.0
9.337,0.681,-0.896,0.0
8.914,0.649,-0.906,0.0
8.599,0.625,-0.925,0.0
8.186,0.595,-0.927,0.0
7.854,0.57,-0.935,0.0
9.784,0.705,-0.89,0.0
9.362,0.674,-0.905,0.0
8.928,0.642,-0.914,0.0
0.0,0.0,0.0,0.0
8.163,0.585,-0.931,0.0
7.808,0.559,-0.935,0.0
9.772,0.696,-0.896,0.0
9.325,0.663,-0.908,0.0
8.798,0.625,-0.907,0.0
8.459,0.6,-0.921,0.0
8.144,0.577,-0.934,0.0
7.806,0.552,-0.94,0.0
9.656,0.679,-0.891,0.0
9.224,0.647,-0.904,0.0
8.826,0.618,-0.916,0.0
8.464,0.592,-0.927,0.0
8.065,0.563,-0.93,0.0
7.784,0.543,-0.942,0.0
9.618,0.667,-0.894,0.0
9.182,0.636,-0.906,0.0
8.78,0.607,-0.916,0.0
8.378,0.578,-0.923,0.0
8.076,0.556,-0.936,0.0
7.719,0.531,-0.939,0.0
9.59,0.655,-0.897,0.0
9.128,0.623,-0.906,0.0
8.695,0.592,-0.912,0.0
0.0,0.0,0.0,0.0
8.041,0.546,-0.936,0.0
7.681,0.521,-0.939,0.0
9.556,0.644,-0.899,0.0
9.038,0.608,-0.901,0.0
8.702,0.584,-0.917,0.0
0.0,0.0,0.0,0.0
7.988,0.534,-0.934,0.0
7.597,0.507,-0.932,0.0
9.544,0.633,-0.902,0.0
9.019,0.597,-0.904,0.0
8.687,0.574,-0.92,0.0
0.0,0.0,0.0,0.0
7.968,0.524,-0.936,0.0
7.592,0.499,-0.935,0.0
9.476,0.619,-0.9,0.0
9.058,0.59,-0.912,0.0
8.599,0.559,-0.915,0.0
8.261,0.536,-0.927,0.0
7.908,0.512,-0.932,0.0
7.6,0.491,-0.94,0.0
9.446,0.606,-0.901,0.0
9.013,0.577,-0.911,0.0
8.638,0.552,-0.922,0.0
8.22,0.524,-0.925,0.0
7.895,0.503,-0.934,0.0
7.619,0.484,-0.945,0.0
9.41,0.594,-0.901,0.0
8.979,0.565,-0.911,0.0
8.586,0.539,-0.92,0.0
0.0,0.0,0.0,0.0
7.857,0.491,-0.932,0.0
7.575,0.473,-0.942,0.0
9.402,0.583,-0.904,0.0
8.915,0.551,-0.907,0.0
0.0,0.0,0.0,0.0
8.176,0.503,-0.926,0.0
7.871,0.483,-0.936,0.0
7.529,0.461,-0.938,0.0
9.365,0.57,-0.903,0.0
8.937,0.543,-0.912,0.0
8.506,0.515,-0.916,0.0
8.231,0.497,-0.934,0.0
7.88,0.475,-0.939,0.0
7.511,0.452,-0.938,0.0
9.346,0.558,-0.903,0.0
8.918,0.531,-0.912,0.0
8.577,0.51,-0.926,0.0
8.151,0.483,-0.927,0.0
7.793,0.461,-0.931,0.0
7.553,0.446,-0.945,0.0
9.307,0.545,-0.901,0.0
8.939,0.522,-0.916,0.0
8.505,0.496,-0.92,0.0
0.0,0.0,0.0,0.0
7.852,0.455,-0.939,0.0
7.506,0.434,-0.94,0.0
9.344,0.536,-0.906,0.0
8.874,0.508,-0.911,0.0
8.574,0.489,-0.928,0.0
0.0,0.0,0.0,0.0
7.82,0.444,-0.936,0.0
7.474,0.423,-0.937,0.0
9.292,0.522,-0.902,0.0
8.909,0.499,-0.915,0.0
8.488,0.474,-0.92,0.0
0.0,0.0,0.0,0.0
7.803,0.434,-0.935,0.0
7.521,0.417,-0.944,0.0
9.257,0.509,-0.899,0.0
8.908,0.489,-0.916,0.0
8.501,0.465,-0.922,0.0
0.0,0.0,0.0,0.0
7.828,0.425,-0.938,0.0
7.493,0.406,-0.94,0.0
9.338,0.502,-0.908,0.0
8.908,0.478,-0.916,0.0
8.459,0.452,-0.917,0.0
0.0,0.0,0.0,0.0
7.794,0.414,-0.934,0.0
7.523,0.398,-0.944,0.0
9.302,0.489,-0.904,0.0
8.934,0.468,-0.918,0.0
8.484,0.443,-0.92,0.0
0.0,0.0,0.0,0.0
7.791,0.404,-0.933,0.0
7.506,0.388,-0.942,0.0
9.346,0.48,-0.908,0.0
8.905,0.456,-0.915,0.0
8.476,0.432,-0.918,0.0
0.0,0.0,0.0,0.0
7.811,0.395,-0.935,0.0
7.505,0.379,-0.941,0.0
9.33,0.468,-0.905,0.0
8.905,0.445,-0.914,0.0
8.527,0.424,-0.923,0.0
0.0,0.0,0.0,0.0
7.788,0.385,-0.931,0.0
7.543,0.371,-0.944,0.0
9.315,0.455,-0.902,0.0
8.906,0.434,-0.912,0.0
8.496,0.412,-0.918,0.0
0.0,0.0,0.0,0.0
7.831,0.377,-0.935,0.0
7.541,0.362,-0.943,0.0
9.354,0.445,-0.904,0.0
8.981,0.426,-0.918,0.0
8.517,0.402,-0.918,0.0
0.0,0.0,0.0,0.0
7.847,0.368,-0.935,0.0
7.548,0.352,-0.942,0.0
9.38,0.435,-0.904,0.0
8.933,0.412,-0.911,0.0
8.532,0.392,-0.918,0.0
0.0,0.0,0.0,0.0
7.856,0.358,-0.934,0.0
7.554,0.343,-0.94,0.0
9.401,0.424,-0.904,0.0
8.997,0.404,-0.915,0.0
8.579,0.383,-0.92,0.0
0.0,0.0,0.0,0.0
7.878,0.349,-0.934,0.0
7.577,0.334,-0.941,0.0
9.404,0.412,-0.901,0.0
8.992,0.392,-0.911,0.0
8.632,0.375,-0.923,0.0
8.252,0.357,-0.929,0.0
7.911,0.34,-0.935,0.0
7.603,0.326,-0.941,0.0
9.427,0.401,-0.899,0.0
9.028,0.382,-0.911,0.0
8.693,0.366,-0.926,0.0
8.212,0.344,-0.921,0.0
7.934,0.331,-0.934,0.0
7.638,0.317,-0.942,0.0
9.488,0.391,-0.901,0.0
9.094,0.373,-0.914,0.0
8.653,0.353,-0.918,0.0
8.3,0.337,-0.927,0.0
7.929,0.321,-0.93,0.0
7.609,0.306,-0.935,0.0
9.49,0.379,-0.897,0.0
9.073,0.361,-0.907,0.0
8.704,0.344,-0.919,0.0
8.345,0.329,-0.928,0.0
7.982,0.313,-0.932,0.0
7.682,0.299,-0.94,0.0
9.533,0.369,-0.896,0.0
9.135,0.352,-0.909,0.0
8.717,0.334,-0.916,0.0
8.311,0.317,-0.92,0.0
8.062,0.305,-0.937,0.0
7.699,0.29,-0.938,0.0
9.638,0.361,-0.9,0.0
9.205,0.343,-0.911,0.0
8.747,0.324,-0.914,0.0
8.336,0.307,-0.918,0.0
8.067,0.295,-0.933,0.0
7.752,0.282,-0.939,0.0
9.679,0.35,-0.898,0.0
9.214,0.331,-0.906,0.0
8.758,0.313,-0.909,0.0
8.438,0.3,-0.924,0.0
8.112,0.287,-0.933,0.0
7.772,0.273,-0.937,0.0
9.738,0.34,-0.897,0.0
9.369,0.325,-0.915,0.0
8.841,0.305,-0.912,0.0
8.469,0.29,-0.921,0.0
8.129,0.277,-0.929,0.0
7.84,0.265,-0.939,0.0
9.804,0.329,-0.897,0.0
9.385,0.313,-0.91,0.0
8.917,0.296,-0.913,0.0
8.544,0.282,-0.923,0.0
8.216,0.269,-0.933,0.0
7.884,0.257,-0.939,0.0
9.852,0.319,-0.894,0.0
9.436,0.303,-0.907,0.0
8.946,0.286,-0.909,0.0
8.627,0.274,-0.925,0.0
8.295,0.261,-0.935,0.0
7.92,0.248,-0.937,0.0
9.923,0.308,-0.892,0.0
9.433,0.291,-0.9,0.0
9.064,0.278,-0.914,0.0
0.0,0.0,0.0,0.0
8.307,0.251,-0.93,0.0
7.908,0.238,-0.929,0.0
9.998,0.298,-0.891,0.0
9.487,0.281,-0.897,0.0
9.086,0.267,-0.909,0.0
0.0,0.0,0.0,0.0
8.354,0.242,-0.928,0.0
7.989,0.23,-0.931,0.0
10.052,0.288,-0.887,0.0
9.655,0.274,-0.904,0.0
9.219,0.26,-0.914,0.0
8.815,0.247,-0.923,0.0
8.425,0.234,-0.928,0.0
8.065,0.223,-0.933,0.0
10.116,0.277,-0.883,0.0
9.691,0.264,-0.899,0.0
9.278,0.25,-0.911,0.0
8.834,0.237,-0.917,0.0
8.464,0.225,-0.925,0.0
8.105,0.214,-0.93,0.0
10.232,0.268,-0.883,0.0
9.79,0.254,-0.898,0.0
9.329,0.24,-0.907,0.0
8.883,0.227,-0.913,0.0
8.549,0.217,-0.925,0.0
8.196,0.206,-0.932,0.0
10.32,0.258,-0.881,0.0
9.822,0.244,-0.892,0.0
9.396,0.231,-0.904,0.0
8.964,0.219,-0.912,0.0
8.629,0.209,-0.925,0.0
8.242,0.198,-0.929,0.0
10.392,0.248,-0.876,0.0
9.921,0.234,-0.89,0.0
9.499,0.222,-0.904,0.0
9.089,0.211,-0.915,0.0
8.69,0.2,-0.922,0.0
8.353,0.19,-0.932,0.0
10.484,0.238,-0.873,0.0
10.038,0.225,-0.89,0.0
9.593,0.213,-0.902,0.0
9.212,0.203,-0.917,0.0
8.818,0.192,-0.926,0.0
8.392,0.181,-0.927,0.0
10.639,0.229,-0.873,0.0
10.152,0.216,-0.888,0.0
9.694,0.204,-0.901,0.0
9.274,0.194,-0.913,0.0
8.84,0.183,-0.918,0.0
8.476,0.173,-0.926,0.0
10.776,0.219,-0.872,0.0
10.229,0.206,-0.883,0.0
9.76,0.195,-0.895,0.0
9.325,0.184,-0.907,0.0
8.893,0.174,-0.913,0.0
8.583,0.166,-0.927,0.0
10.925,0.21,-0.871,0.0
10.343,0.197,-0.88,0.0
9.863,0.186,-0.893,0.0
9.45,0.176,-0.907,0.0
9.06,0.167,-0.919,0.0
8.66,0.158,-0.925,0.0
11.115,0.201,-0.873,0.0
10.412,0.187,-0.873,0.0
9.971,0.177,-0.89,0.0
9.574,0.168,-0.907,0.0
9.18,0.159,-0.919,0.0
8.693,0.149,-0.917,0.0
11.227,0.191,-0.867,0.0
10.592,0.178,-0.875,0.0
10.156,0.169,-0.893,0.0
9.626,0.158,-0.899,0.0
9.237,0.15,-0.913,0.0
8.838,0.142,-0.921,0.0
11.36,0.182,-0.862,0.0
10.715,0.169,-0.871,0.0
10.249,0.16,-0.888,0.0
9.778,0.15,-0.9,0.0
9.335,0.142,-0.91,0.0
8.934,0.134,-0.919,0.0
11.447,0.171,-0.853,0.0
10.897,0.161,-0.87,0.0
10.325,0.15,-0.88,0.0
9.878,0.142,-0.896,0.0
9.472,0.134,-0.91,0.0
9.021,0.126,-0.915,0.0
11.623,0.162,-0.85,0.0
11.122,0.153,-0.873,0.0
10.455,0.141,-0.876,0.0
9.996,0.133,-0.892,0.0
9.607,0.126,-0.909,0.0
9.168,0.119,-0.917,0.0
11.821,0.152,-0.848,0.0
11.259,0.143,-0.867,0.0
10.612,0.133,-0.874,0.0
10.147,0.125,-0.891,0.0
9.738,0.118,-0.907,0.0
9.248,0.111,-0.911,0.0
12.077,0.144,-0.848,0.0
11.383,0.133,-0.86,0.0
10.753,0.124,-0.87,0.0
10.26,0.117,-0.886,0.0
9.847,0.11,-0.903,0.0
9.382,0.103,-0.91,0.0
12.391,0.136,-0.852,0.0
11.546,0.124,-0.855,0.0
11.001,0.117,-0.873,0.0
10.395,0.108,-0.881,0.0
9.943,0.102,-0.896,0.0
9.52,0.096,-0.909,0.0
12.643,0.127,-0.85,0.0
11.729,0.115,-0.85,0.0
11.2,0.108,-0.871,0.0
10.548,0.1,-0.878,0.0
10.1,0.094,-0.894,0.0
9.687,0.089,-0.909,0.0
12.918,0.118,-0.848,0.0
11.983,0.107,-0.85,0.0
11.337,0.1,-0.864,0.0
10.709,0.092,-0.874,0.0
10.237,0.086,-0.89,0.0
9.757,0.081,-0.9,0.0
13.137,0.108,-0.842,0.0
12.232,0.099,-0.848,0.0
11.472,0.091,-0.856,0.0
10.904,0.084,-0.873,0.0
10.361,0.079,-0.884,0.0
9.939,0.074,-0.901,0.0
13.493,0.1,-0.842,0.0
12.556,0.091,-0.85,0.0
11.668,0.083,-0.852,0.0
11.134,0.077,-0.873,0.0
10.526,0.071,-0.881,0.0
10.056,0.066,-0.895,0.0
13.797,0.091,-0.839,0.0
12.89,0.083,-0.851,0.0
11.932,0.075,-0.851,0.0
11.316,0.069,-0.868,0.0
10.715,0.064,-0.879,0.0
10.242,0.059,-0.894,0.0
14.102,0.082,-0.834,0.0
13.085,0.074,-0.842,0.0
12.28,0.067,-0.855,0.0
11.457,0.061,-0.859,0.0
10.883,0.056,-0.874,0.0
10.365,0.052,-0.887,0.0
14.427,0.072,-0.828,0.0
13.408,0.065,-0.84,0.0
12.555,0.059,-0.852,0.0
11.661,0.053,-0.854,0.0
11.099,0.049,-0.872,0.0
10.506,0.045,-0.881,0.0
14.726,0.063,-0.819,0.0
13.742,0.057,-0.837,0.0
12.881,0.052,-0.852,0.0
11.916,0.046,-0.852,0.0
11.302,0.042,-0.867,0.0
10.718,0.038,-0.879,0.0
15.187,0.054,-0.818,0.0
14.099,0.049,-0.833,0.0
13.241,0.044,-0.852,0.0
12.278,0.039,-0.856,0.0
11.491,0.035,-0.861,0.0
10.905,0.032,-0.875,0.0
15.469,0.045,-0.806,0.0
14.445,0.04,-0.828,0.0
13.529,0.036,-0.846,0.0
12.534,0.031,-0.851,0.0
11.694,0.028,-0.855,0.0
11.182,0.025,-0.876,0.0
16.007,0.036,-0.804,0.0
14.801,0.031,-0.821,0.0
13.802,0.028,-0.838,0.0
12.888,0.024,-0.851,0.0
11.993,0.021,-0.855,0.0
11.328,0.018,-0.867,0.0
16.481,0.027,-0.798,0.0
15.216,0.023,-0.816,0.0
14.116,0.02,-0.831,0.0
13.229,0.017,-0.849,0.0
12.35,0.014,-0.857,0.0
11.553,0.012,-0.862,0.0
16.983,0.018,-0.79,0.0
15.682,0.015,-0.811,0.0
14.541,0.012,-0.828,0.0
13.6,0.01,-0.847,0.0
12.635,0.008,-0.853,0.0
11.755,0.006,-0.855,0.0
17.545,0.009,-0.783,0.0
16.254,0.007,-0.81,0.0
14.966,0.004,-0.824,0.0
13.859,0.003,-0.836,0.0
13.017,0.001,-0.854,0.0
12.104,0.0,-0.857,0.0
18.019,0.0,-0.77,0.0
16.646,-0.001,-0.798,0.0
15.296,-0.002,-0.813,0.0
14.286,-0.003,-0.835,0.0
13.379,-0.004,-0.852,0.0
12.417,-0.005,-0.855,0.0
18.756,-0.008,-0.765,0.0
17.069,-0.009,-0.785,0.0
15.867,-0.01,-0.812,0.0
14.588,-0.01,-0.824,0.0
13.689,-0.011,-0.845,0.0
12.73,-0.011,-0.852,0.0
19.431,-0.017,-0.755,0.0
17.706,-0.017,-0.78,1.0
16.368,-0.017,-0.806,0.0
15.048,-0.017,-0.82,0.0
14.102,-0.017,-0.842,0.0
13.162,-0.017,-0.855,0.0
20.168,-0.026,-0.744,0.0
18.302,-0.025,-0.77,0.0
16.9,-0.024,-0.799,0.0
15.51,-0.024,-0.815,0.0
14.442,-0.023,-0.834,0.0
13.505,-0.023,-0.85,0.0
20.834,-0.034,-0.727,0.0
19.051,-0.033,-0.764,0.0
17.554,-0.032,-0.794,0.0
15.978,-0.03,-0.807,0.0
14.802,-0.029,-0.825,0.0
13.804,-0.028,-0.841,0.0
21.8,-0.043,-0.717,0.0
19.654,-0.04,-0.748,0.0
17.884,-0.038,-0.773,0.0
16.553,-0.036,-0.803,0.0
15.252,-0.034,-0.819,0.0
14.255,-0.033,-0.84,0.0
22.755,-0.052,-0.703,0.0
20.424,-0.048,-0.736,0.0
18.651,-0.045,-0.769,0.0
16.963,-0.042,-0.789,0.0
15.655,-0.04,-0.809,0.0
14.604,-0.038,-0.83,0.0
23.809,-0.061,-0.687,0.0
21.582,-0.057,-0.734,0.0
19.306,-0.052,-0.757,0.0
17.541,-0.048,-0.78,0.0
16.221,-0.045,-0.805,0.0
15.057,-0.043,-0.825,0.0
25.294,-0.071,-0.678,0.0
22.087,-0.063,-0.706,0.0
20.032,-0.058,-0.744,0.0
18.274,-0.054,-0.775,0.0
16.785,-0.05,-0.798,0.0
15.516,-0.047,-0.819,0.0
26.472,-0.079,-0.655,0.0
23.445,-0.071,-0.701,0.0
21.038,-0.065,-0.737,0.0
18.94,-0.059,-0.764,0.0
17.432,-0.055,-0.793,0.0
16.05,-0.051,-0.813,0.0
27.656,-0.087,-0.627,0.0
24.572,-0.078,-0.684,0.0
21.975,-0.071,-0.725,1.0
19.659,-0.064,-0.752,0.0
17.97,-0.059,-0.78,0.0
16.599,-0.055,-0.806,0.0
29.915,-0.098,-0.616,0.0
25.801,-0.085,-0.664,0.0
22.288,-0.074,-0.688,0.0
20.438,-0.069,-0.739,0.0
18.646,-0.063,-0.77,0.0
17.053,-0.058,-0.793,0.0
31.991,-0.108,-0.591,0.0
26.999,-0.091,-0.638,0.0
23.823,-0.081,-0.686,0.0
21.828,-0.075,-0.743,0.0
19.414,-0.067,-0.761,0.0
17.633,-0.061,-0.782,0.0
0.0,0.0,0.0,0.0
0.0,0.0,0.0,0.0
25.508,-0.088,-0.681,0.0
22.08,-0.076,-0.705,1.0
20.116,-0.07,-0.746,0.0
18.353,-0.064,-0.776,0.0
0.0,0.0,0.0,0.0
30.763,-0.105,-0.598,0.0
26.555,-0.091,-0.654,0.0
23.393,-0.081,-0.698,0.0
21.071,-0.073,-0.738,0.0
19.142,-0.066,-0.769,0.0
0.0,0.0,0.0,0.0
0.0,0.0,0.0,0.0
28.216,-0.096,-0.635,0.0
24.806,-0.084,-0.689,0.0
22.021,-0.075,-0.724,2.0
19.81,-0.067,-0.754,0.0
45.096,-0.15,-0.455,1.0
0.0,0.0,0.0,0.0
30.281,-0.1,-0.617,0.0
25.969,-0.086,-0.665,0.0
22.813,-0.075,-0.702,0.0
20.687,-0.068,-0.743,0.0
0.0,0.0,0.0,0.0
0.0,0.0,0.0,0.0
32.135,-0.103,-0.587,0.0
27.361,-0.087,-0.643,0.0
0.0,0.0,0.0,0.0
21.931,-0.069,-0.741,0.0
0.0,0.0,0.0,0.0
0.0,0.0,0.0,0.0
35.278,-0.107,-0.569,0.0
29.561,-0.089,-0.632,0.0
25.666,-0.077,-0.681,0.0
22.296,-0.066,-0.706,0.0
0.0,0.0,0.0,0.0
45.141,-0.13,-0.399,1.0
0.0,0.0,0.0,0.0
30.852,-0.087,-0.593,0.0
26.703,-0.074,-0.651,0.0
23.697,-0.065,-0.7,0.0
0.0,0.0,0.0,0.0
0.0,0.0,0.0,0.0
0.0,0.0,0.0,0.0
33.818,-0.087,-0.578,0.0
28.568,-0.073,-0.635,0.0
24.919,-0.062,-0.682,0.0
0.0,0.0,0.0,0.0
0.0,0.0,0.0,0.0
44.924,-0.106,-0.437,1.0
36.36,-0.084,-0.544,0.0
30.52,-0.069,-0.614,0.0
26.478,-0.058,-0.669,0.0
0.0,0.0,0.0,0.0
0.0,0.0,0.0,0.0
47.056,-0.096,-0.358,0.0
40.119,-0.08,-0.515,0.0
32.199,-0.062,-0.579,0.0
0.0,0.0,0.0,0.0
110.6,-0.201,0.529,4.0
0.0,0.0,0.0,0.0
0.0,0.0,0.0,0.0
0.0,0.0,0.0,0.0
35.196,-0.056,-0.559,0.0
29.503,-0.045,-0.62,0.0
111.109,-0.161,0.766,17.0
0.0,0.0,0.0,0.0
0.0,0.0,0.0,0.0
45.553,-0.057,-0.392,1.0
38.042,-0.045,-0.524,0.0
31.619,-0.035,-0.598,0.0
117.4,-0.123,1.056,17.0
98.677,-0.096,0.381,2.0
0.0,0.0,0.0,0.0
0.0,0.0,0.0,0.0
0.0,0.0,0.0,0.0
0.0,0.0,0.0,0.0
117.348,-0.071,1.304,12.0
110.747,-0.059,0.661,9.0
0.0,0.0,0.0,0.0
0.0,0.0,0.0,0.0
45.014,-0.013,-0.431,2.0
37.412,-0.007,-0.55,0.0
111.087,-0.014,1.469,11.0
111.225,-0.004,0.898,6.0
95.572,0.004,0.28,1.0
0.0,0.0,0.0,0.0
0.0,0.0,0.0,0.0
0.0,0.0,0.0,0.0
111.099,0.042,1.7,7.0
111.132,0.052,1.129,14.0
104.293,0.058,0.519,4.0
0.0,0.0,0.0,0.0
54.34,0.04,-0.294,0.0
45.076,0.038,-0.476,1.0
112.743,0.105,1.959,9.0
111.132,0.114,1.358,19.0
110.757,0.124,0.782,8.0
92.849,0.113,0.167,1.0
0.0,0.0,0.0,0.0
45.8,0.065,-0.389,1.0
112.688,0.17,2.19,8.0
111.089,0.18,1.586,14.0
111.133,0.192,1.014,11.0
0.0,0.0,0.0,0.0
0.0,0.0,0.0,0.0
0.0,0.0,0.0,0.0
112.653,0.241,2.424,8.0
119.88,0.27,1.96,13.0
111.168,0.263,1.243,15.0
110.739,0.274,0.656,4.0
0.0,0.0,0.0,0.0
0.0,0.0,0.0,0.0
112.574,0.316,2.653,9.0
119.855,0.35,2.206,9.0
119.861,0.365,1.588,12.0
110.983,0.351,0.886,14.0
94.7,0.311,0.268,2.0
0.0,0.0,0.0,0.0
119.843,0.42,3.071,24.0
119.884,0.436,2.453,72.0
119.882,0.45,1.831,106.0
111.134,0.431,1.113,15.0
104.184,0.418,0.505,4.0
0.0,0.0,0.0,0.0
70.037,0.296,1.935,4.0
0.0,0.0,0.0,0.0
111.173,0.5,1.922,14.0
111.137,0.514,1.335,28.0
110.833,0.528,0.759,8.0
88.237,0.432,0.147,3.0
111.142,0.556,3.294,17.0
111.135,0.571,2.718,19.0
111.08,0.585,2.141,24.0
111.077,0.601,1.554,31.0
111.046,0.616,0.979,18.0
92.291,0.525,0.336,1.0
69.947,0.405,2.211,8.0
111.07,0.659,2.936,26.0
111.059,0.675,2.359,25.0
111.028,0.69,1.771,31.0
111.062,0.707,1.196,6.0
104.7,0.681,0.585,6.0
69.902,0.463,2.346,13.0
111.067,0.751,3.152,26.0
111.077,0.768,2.575,21.0
111.071,0.784,1.987,10.0
101.044,0.729,1.285,1.0
104.8,0.772,0.789,22.0
69.747,0.522,2.478,15.0
104.776,0.8,3.177,21.0
104.775,0.816,2.633,30.0
104.8,0.832,2.078,2.0
100.203,0.812,1.467,4.0
104.74,0.865,0.99,11.0
69.869,0.585,2.615,9.0
104.628,0.892,3.372,28.0
104.689,0.909,2.83,30.0
0.0,0.0,0.0,0.0
104.718,0.943,1.73,8.0
104.776,0.961,1.186,16.0
97.941,0.91,3.851,18.0
69.707,0.659,2.378,14.0
104.704,1.008,3.028,21.0
104.724,1.026,2.474,18.0
104.801,1.043,1.929,16.0
98.664,1.0,1.305,26.0
98.551,1.011,4.063,13.0
98.285,1.024,3.539,19.0
98.758,1.046,3.042,19.0
98.667,1.062,2.515,23.0
98.631,1.08,2.002,26.0
98.585,1.096,1.486,27.0
70.045,0.788,3.018,12.0
98.436,1.124,3.728,15.0
98.618,1.143,3.219,15.0
98.626,1.16,2.695,25.0
98.558,1.177,2.179,31.0
98.563,1.195,1.666,32.0
98.618,1.209,4.429,26.0
98.599,1.226,3.914,16.0
69.878,0.882,2.408,10.0
98.52,1.261,2.871,33.0
98.527,1.279,2.358,29.0
98.579,1.298,1.844,27.0
78.743,1.048,3.68,10.0
98.216,1.325,4.076,23.0
69.792,0.954,2.531,9.0
69.825,0.968,2.16,8.0
98.539,1.385,2.534,29.0
98.613,1.404,2.021,25.0
98.07,1.412,4.761,16.0
98.173,1.431,4.25,23.0
69.871,1.032,2.659,20.0
69.973,1.046,2.29,10.0
98.567,1.493,2.709,19.0
119.927,1.841,2.67,20.0
85.652,1.328,4.309,8.0
78.708,1.235,3.547,14.0
120.429,1.914,4.795,14.0
70.065,1.127,2.416,9.0
92.089,1.499,2.693,8.0
91.957,1.515,2.207,22.0
91.483,1.522,4.761,18.0
92.247,1.553,4.317,13.0
78.74,1.341,3.271,8.0
120.73,2.081,4.369,9.0
91.958,1.603,2.845,18.0
91.835,1.619,2.36,30.0
77.479,1.379,4.166,2.0
85.509,1.539,4.147,12.0
91.514,1.665,3.957,12.0
70.201,1.292,2.659,10.0
91.833,1.708,2.996,30.0
91.794,1.727,2.513,28.0
70.352,1.335,3.9,3.0
91.442,1.755,4.587,13.0
85.476,1.658,3.838,12.0
78.796,1.544,3.115,10.0
91.718,1.817,3.145,28.0
91.859,1.839,2.666,26.0
74.854,1.513,4.274,2.0
82.068,1.675,4.253,11.0
85.353,1.76,3.974,25.0
85.381,1.779,3.516,11.0
85.353,1.797,3.066,31.0
85.32,1.814,2.615,29.0
80.742,1.731,4.741,1.0
82.041,1.777,4.384,14.0
85.299,1.866,4.108,34.0
85.296,1.884,3.65,33.0
78.892,1.759,2.96,27.0
85.261,1.921,2.749,34.0
74.147,1.685,4.473,4.0
80.971,1.857,4.457,5.0
85.331,1.976,4.246,30.0
85.336,1.995,3.787,30.0
85.303,2.012,3.334,21.0
85.304,2.031,2.884,15.0
74.129,1.781,4.589,10.0
72.918,1.768,4.128,4.0
83.292,2.038,4.274,6.0
116.537,2.876,5.351,17.0
115.723,2.882,4.702,4.0
78.839,1.98,2.786,21.0
71.943,1.822,4.563,30.0
72.749,1.859,4.229,11.0
78.79,2.031,4.162,18.0
78.81,2.049,3.738,34.0
78.822,2.067,3.32,32.0
78.825,2.085,2.903,32.0
70.784,1.887,4.596,6.0
72.296,1.944,4.31,15.0
78.8,2.137,4.279,24.0
78.804,2.154,3.853,33.0
78.812,2.172,3.434,31.0
78.802,2.19,3.016,23.0
65.359,1.831,4.34,22.0
71.015,2.006,4.337,13.0
72.898,2.075,4.063,7.0
79.408,2.278,3.996,15.0
115.811,3.351,5.214,11.0
118.042,3.442,4.686,11.0
65.396,1.922,4.435,12.0
70.963,2.101,4.434,3.0
72.133,2.152,4.122,14.0
82.195,2.471,4.251,9.0
116.092,3.516,5.386,13.0
118.095,3.605,4.85,6.0
78.097,2.402,5.404,20.0
65.534,2.032,4.185,27.0
72.056,2.25,4.216,15.0
72.752,2.288,3.861,8.0
72.552,2.298,3.464,17.0
72.534,2.315,3.076,16.0
45.104,1.451,3.182,29.0
79.619,2.579,5.191,11.0
71.209,2.324,4.262,7.0
72.218,2.373,3.928,26.0
72.431,2.397,3.553,14.0
72.397,2.414,3.166,33.0
40.749,1.369,2.929,25.0
66.552,2.251,4.426,26.0
65.667,2.236,4.015,15.0
72.462,2.485,4.036,29.0
72.271,2.495,3.638,18.0
72.366,2.516,3.256,33.0
40.697,1.425,2.976,38.0
44.692,1.575,3.028,10.0
65.85,2.337,4.109,16.0
66.375,2.372,3.78,24.0
66.343,2.387,3.422,20.0
72.438,2.623,3.349,24.0
40.616,1.482,3.021,44.0
40.88,1.501,2.821,45.0
71.936,2.659,4.577,9.0
66.015,2.456,3.839,34.0
0.0,0.0,0.0,0.0
66.247,2.496,3.143,23.0
40.719,1.546,3.078,32.0
40.798,1.558,2.864,41.0
44.784,1.721,2.903,5.0
65.245,2.523,3.872,28.0
64.649,2.516,3.49,17.0
66.235,2.594,3.219,10.0
40.551,1.6,3.113,46.0
40.92,1.625,2.921,36.0
45.014,1.798,2.97,5.0
44.583,1.791,2.697,23.0
65.868,2.662,3.63,34.0
52.724,2.144,2.622,15.0
40.385,1.655,3.146,44.0
40.689,1.676,2.95,29.0
40.938,1.696,2.746,36.0
44.981,1.875,2.771,14.0
65.878,2.761,3.702,28.0
65.899,2.778,3.348,24.0
40.329,1.713,3.186,42.0
40.579,1.733,2.986,44.0
41.078,1.764,2.8,35.0
44.608,1.927,2.795,10.0
52.966,2.3,3.032,4.0
65.958,2.88,3.42,6.0
40.351,1.775,3.229,45.0
40.412,1.787,3.015,51.0
41.005,1.823,2.837,32.0
41.017,1.833,2.611,43.0
59.484,2.672,3.465,11.0
52.914,2.39,2.797,9.0
40.384,1.838,3.272,47.0
40.37,1.847,3.052,41.0
40.763,1.875,2.86,44.0
40.923,1.891,2.646,40.0
41.959,1.949,2.485,16.0
59.471,2.777,3.2,8.0
40.766,1.918,3.343,16.0
40.318,1.906,3.086,43.0
40.815,1.939,2.902,39.0
40.917,1.954,2.683,45.0
59.788,2.87,3.596,7.0
59.479,2.869,3.255,11.0
40.502,1.968,3.359,38.0
40.49,1.977,3.137,30.0
40.632,1.993,2.926,39.0
40.855,2.014,2.716,45.0
41.184,2.04,2.514,25.0
41.705,2.076,2.319,26.0
40.454,2.028,3.39,39.0
40.406,2.035,3.165,24.0
40.742,2.062,2.97,37.0
40.792,2.074,2.746,47.0
41.008,2.095,2.538,38.0
41.615,2.136,2.349,31.0
40.79,2.108,3.453,46.0
40.403,2.098,3.199,39.0
40.71,2.124,3.001,48.0
41.052,2.151,2.798,38.0
41.023,2.159,2.572,37.0
59.314,3.136,3.395,8.0
40.506,2.157,3.461,45.0
40.359,2.159,3.227,47.0
40.54,2.178,3.019,43.0
40.911,2.207,2.819,40.0
40.912,2.217,2.596,36.0
59.384,3.232,3.444,9.0
40.426,2.216,3.485,47.0
40.867,2.249,3.298,22.0
40.748,2.252,3.065,44.0
40.98,2.275,2.854,39.0
41.06,2.289,2.635,37.0
41.418,2.318,2.431,19.0
40.984,2.311,3.562,35.0
40.486,2.291,3.296,36.0
40.667,2.311,3.087,35.0
41.059,2.342,2.888,36.0
41.014,2.349,2.659,31.0
41.323,2.377,2.453,16.0
41.284,2.391,3.615,17.0
40.942,2.381,3.36,29.0
40.926,2.389,3.133,42.0
41.446,2.429,2.941,27.0
59.27,3.487,3.881,7.0
41.681,2.462,2.501,21.0
41.549,2.472,3.665,37.0
41.505,2.478,3.432,44.0
50.931,3.053,3.93,5.0
41.374,2.489,2.961,33.0
42.168,2.546,2.786,23.0
41.518,2.517,2.515,37.0
41.836,2.554,3.714,33.0
41.64,2.551,3.467,41.0
41.815,2.571,3.25,24.0
41.618,2.568,3.001,17.0
41.963,2.599,2.795,19.0
52.386,3.257,3.201,12.0
42.139,2.638,3.764,29.0
41.833,2.628,3.505,24.0
41.842,2.638,3.275,36.0
41.607,2.632,3.022,39.0
41.55,2.638,2.789,33.0
41.456,2.642,2.554,36.0
41.947,2.692,3.768,37.0
42.25,2.721,3.56,25.0
41.894,2.706,3.299,26.0
41.699,2.703,3.049,37.0
41.634,2.708,2.813,35.0
41.485,2.707,2.575,27.0
41.876,2.752,3.78,33.0
41.925,2.764,3.552,42.0
44.401,2.937,3.515,7.0
41.636,2.763,3.062,32.0
41.594,2.769,2.829,37.0
41.681,2.784,2.604,30.0
41.906,2.819,3.8,31.0
41.635,2.81,3.544,31.0
41.881,2.835,3.332,19.0
46.004,3.124,3.401,3.0
41.474,2.826,2.836,41.0
41.652,2.847,2.618,30.0
41.752,2.873,3.801,17.0
41.594,2.871,3.555,43.0
41.793,2.893,3.34,23.0
45.957,3.192,3.413,11.0
41.528,2.893,2.854,39.0
41.642,2.909,2.631,35.0
41.595,2.926,3.8,29.0
41.553,2.931,3.565,27.0
41.605,2.943,3.338,39.0
41.849,2.969,3.12,30.0
41.686,2.967,2.876,31.0
41.575,2.967,2.638,36.0
41.34,2.971,3.788,32.0
41.359,2.98,3.559,30.0
41.484,2.997,3.339,44.0
41.605,3.015,3.112,30.0
45.968,3.34,3.183,3.0
41.654,3.035,2.653,35.0
41.296,3.03,3.794,39.0
41.338,3.041,3.567,31.0
41.502,3.061,3.349,36.0
41.786,3.09,3.135,23.0
41.8,3.099,2.903,29.0
41.882,3.114,2.676,7.0
41.324,3.093,3.805,34.0
41.268,3.097,3.568,43.0
41.623,3.131,3.366,17.0
41.745,3.149,3.139,21.0
45.935,3.474,3.197,12.0
45.957,3.485,2.943,34.0
41.391,3.159,3.817,11.0
41.309,3.161,3.578,45.0
41.704,3.199,3.378,16.0
41.649,3.203,3.137,39.0
45.942,3.542,3.203,7.0
45.924,3.549,2.946,32.0
41.252,3.209,3.809,34.0
41.304,3.221,3.581,38.0
41.612,3.253,3.375,28.0
41.563,3.257,3.134,46.0
45.989,3.612,3.21,4.0
45.925,3.617,2.949,13.0
41.237,3.268,3.81,40.0
41.271,3.278,3.581,39.0
41.633,3.315,3.378,29.0
41.602,3.32,3.138,37.0
45.698,3.655,3.192,8.0
45.769,3.67,2.941,39.0
41.531,3.352,3.838,30.0
41.267,3.338,3.581,39.0
41.579,3.37,3.375,17.0
41.608,3.38,3.139,42.0
41.64,3.391,2.908,31.0
45.722,3.732,2.937,37.0
41.505,3.409,3.835,29.0
41.622,3.426,3.61,16.0
45.565,3.758,3.696,5.0
41.451,3.426,3.125,41.0
41.677,3.452,2.909,37.0
45.714,3.795,2.934,32.0
41.339,3.453,3.817,41.0
41.265,3.454,3.577,42.0
41.519,3.482,3.365,19.0
41.395,3.479,3.118,36.0
41.71,3.513,2.907,39.0
45.757,3.862,2.932,39.0
41.319,3.509,3.81,44.0
41.285,3.513,3.574,34.0
41.471,3.536,3.356,37.0
41.443,3.54,3.116,31.0
41.666,3.566,2.899,19.0
45.775,3.926,2.928,14.0
41.284,3.563,3.801,33.0
41.286,3.569,3.568,20.0
41.643,3.607,3.364,16.0
41.454,3.597,3.111,35.0
41.685,3.624,2.893,33.0
45.851,3.994,2.924,36.0
41.313,3.62,3.796,38.0
45.862,4.026,3.955,10.0
41.634,3.661,3.355,38.0
41.562,3.662,3.11,39.0
41.629,3.674,2.88,37.0
73.455,6.496,4.669,13.0
41.374,3.68,3.792,23.0
45.885,4.089,3.946,3.0
41.661,3.719,3.347,31.0
41.482,3.709,3.094,42.0
44.639,3.999,3.077,3.0
57.88,5.195,3.664,7.0
41.184,3.718,3.764,34.0
41.578,3.759,3.564,27.0
41.509,3.759,3.323,38.0
41.49,3.764,3.082,43.0
41.706,3.79,2.863,18.0
72.93,6.64,4.595,15.0
41.231,3.775,3.756,33.0
41.599,3.815,3.553,27.0
41.488,3.81,3.308,36.0
41.65,3.831,3.081,34.0
44.652,4.114,3.05,29.0
72.793,6.718,4.562,13.0
41.325,3.835,3.75,18.0
41.54,3.861,3.533,31.0
41.49,3.862,3.294,41.0
41.667,3.884,3.067,28.0
44.559,4.16,3.028,25.0
44.545,4.166,2.775,21.0
44.814,4.214,4.05,10.0
41.7,3.927,3.531,37.0
41.481,3.911,3.276,43.0
44.271,4.181,3.241,6.0
44.125,4.173,2.981,31.0
44.598,4.224,2.76,16.0
42.039,4.004,3.781,13.0
41.762,3.982,3.518,39.0
41.467,3.96,3.258,38.0
44.317,4.238,3.225,4.0
43.402,4.156,2.913,17.0
72.718,6.974,4.468,13.0
42.064,4.055,3.764,32.0
41.844,4.039,3.506,40.0
41.535,4.014,3.244,36.0
41.991,4.064,3.036,31.0
43.253,4.192,2.882,17.0
73.072,7.093,4.454,36.0
43.879,4.281,3.905,4.0
41.967,4.099,3.495,31.0
44.354,4.338,3.441,3.0
42.045,4.117,3.018,17.0
43.057,4.222,2.847,31.0
72.981,7.166,4.411,14.0
43.823,4.325,3.876,10.0
42.01,4.151,3.476,38.0
44.35,4.387,3.416,4.0
42.502,4.209,3.028,17.0
42.847,4.249,2.809,23.0
73.081,7.257,4.376,25.0
43.857,4.376,3.854,28.0
43.974,4.392,3.613,5.0
42.663,4.266,3.262,17.0
42.723,4.277,3.019,22.0
42.821,4.292,2.782,9.0
73.278,7.353,4.345,23.0
43.854,4.422,3.828,19.0
42.101,4.25,3.433,8.0
42.775,4.322,3.244,35.0
42.86,4.335,3.002,17.0
55.359,5.606,3.562,12.0
73.253,7.427,4.298,21.0
43.889,4.47,3.803,22.0
52.044,5.306,4.211,7.0
42.764,4.364,3.216,30.0
42.939,4.386,2.98,39.0
58.309,5.963,3.714,16.0
73.274,7.501,4.251,10.0
43.99,4.524,3.782,34.0
44.168,4.547,3.545,14.0
43.65,4.497,3.253,27.0
42.92,4.426,2.949,24.0
58.487,6.038,3.686,24.0
87.996,9.093,5.045,16.0
44.086,4.576,3.759,29.0
44.112,4.583,3.509,19.0
0.0,0.0,0.0,0.0
42.794,4.454,2.91,37.0
0.0,0.0,0.0,0.0
87.523,9.126,4.955,23.0
44.157,4.624,3.733,33.0
44.305,4.643,3.492,18.0
42.725,4.481,3.123,17.0
42.859,4.499,2.883,16.0
58.307,6.127,3.589,7.0
87.135,9.164,4.867,24.0
44.273,4.676,3.709,20.0
44.224,4.674,3.451,35.0
44.464,4.703,3.216,18.0
42.857,4.536,2.85,29.0
42.752,4.529,2.599,7.0
84.167,8.925,4.635,22.0
44.046,4.689,3.655,29.0
44.274,4.717,3.42,19.0
0.0,0.0,0.0,0.0
42.902,4.577,2.818,42.0
84.111,8.98,5.045,18.0
84.116,8.988,4.565,50.0
43.885,4.708,3.605,40.0
44.345,4.76,3.389,13.0
42.981,4.617,3.038,27.0
42.955,4.617,2.786,14.0
42.66,4.588,2.523,15.0
84.164,9.059,4.498,29.0
43.911,4.745,3.57,46.0
44.414,4.801,3.356,19.0
42.987,4.65,3.002,40.0
42.844,4.637,2.742,17.0
42.641,4.619,2.485,15.0
84.165,9.123,4.425,12.0
44.28,4.817,3.561,32.0
44.502,4.844,3.323,25.0
42.966,4.679,2.962,17.0
42.553,4.636,2.686,29.0
42.718,4.657,2.452,23.0
54.629,5.96,2.823,5.0
44.377,4.859,3.529,21.0
44.433,4.867,3.278,19.0
44.322,4.857,3.016,34.0
42.477,4.657,2.643,35.0
42.739,4.688,2.414,13.0
84.036,9.224,4.267,19.0
44.27,4.876,3.48,15.0
44.235,4.874,3.222,36.0
44.488,4.904,2.985,36.0
42.492,4.686,2.604,38.0
84.041,9.274,4.668,14.0
84.04,9.278,4.188,29.0
44.267,4.903,3.437,28.0
44.35,4.914,3.188,21.0
44.699,4.955,2.957,18.0
42.515,4.714,2.564,27.0
84.055,9.325,4.588,27.0
84.078,9.333,4.107,28.0
44.319,4.935,3.398,15.0
44.509,4.957,3.156,19.0
44.71,4.981,2.913,2.0
54.716,6.098,3.246,6.0
54.773,6.107,2.935,11.0
84.076,9.379,4.024,25.0
52.774,5.905,3.993,14.0
44.431,4.972,3.106,30.0
44.558,4.988,2.859,3.0
84.027,9.41,4.9,14.0
54.793,6.138,2.881,11.0
84.029,9.417,3.938,18.0
51.64,5.804,3.854,11.0
52.875,5.944,3.641,10.0
44.512,5.005,2.809,9.0
83.991,9.446,4.811,24.0
83.947,9.444,4.327,22.0
83.884,9.44,3.843,22.0
44.219,4.99,3.254,6.0
44.574,5.031,3.023,19.0
54.71,6.176,3.396,2.0
83.808,9.463,4.711,20.0
83.753,9.459,4.227,23.0
83.713,9.457,3.746,22.0
44.116,4.997,3.198,20.0
44.496,5.04,2.97,36.0
83.697,9.482,5.105,14.0
83.628,9.476,4.612,22.0
83.602,9.475,4.131,23.0
83.575,9.475,3.65,21.0
44.211,5.024,3.157,15.0
44.475,5.054,2.92,36.0
83.505,9.491,5.002,17.0
83.471,9.488,4.512,22.0
83.43,9.485,4.031,19.0
83.423,9.486,3.553,11.0
44.328,5.052,3.117,19.0
44.475,5.069,2.87,16.0
83.395,9.505,4.903,24.0
83.348,9.5,4.413,24.0
83.314,9.497,3.933,22.0
81.766,9.322,3.391,3.0
44.224,5.053,3.059,25.0
44.508,5.085,2.823,18.0
83.275,9.513,4.803,14.0
83.227,9.509,4.312,18.0
83.206,9.507,3.834,23.0
81.565,9.32,3.291,3.0
44.338,5.076,3.017,19.0
54.856,6.28,3.416,7.0
54.666,6.258,3.09,6.0
83.148,9.518,4.214,19.0
83.107,9.514,3.734,17.0
81.526,9.333,3.195,3.0
44.448,5.098,2.973,27.0
54.851,6.29,3.353,19.0
83.096,9.528,4.602,13.0
83.08,9.525,4.115,16.0
83.011,9.517,3.634,11.0
81.502,9.344,3.101,5.0
44.444,5.104,2.921,34.0
83.047,9.536,4.98,11.0
83.01,9.529,4.501,18.0
82.981,9.525,4.013,13.0
82.957,9.522,3.536,3.0
81.387,9.341,3.003,7.0
44.455,5.11,2.87,20.0
82.994,9.538,4.88,13.0
82.997,9.536,4.403,23.0
82.945,9.528,3.915,13.0
81.47,9.358,3.377,3.0
81.301,9.338,2.903,10.0
44.464,5.114,2.817,6.0
54.691,6.288,3.151,8.0
82.966,9.537,4.303,25.0
82.957,9.533,3.817,13.0
81.441,9.358,3.279,3.0
81.384,9.35,2.809,11.0
54.78,6.301,3.405,15.0
54.723,6.292,3.086,14.0
82.957,9.536,4.202,22.0
82.924,9.53,3.714,13.0
81.384,9.351,3.179,4.0
81.443,9.357,2.713,11.0
54.797,6.302,3.34,9.0
82.982,9.539,4.58,14.0
82.983,9.536,4.102,17.0
82.925,9.527,3.614,10.0
81.327,9.34,3.078,5.0
81.456,9.353,2.615,12.0
83.009,9.54,4.958,13.0
82.991,9.534,4.48,20.0
83.003,9.531,4.003,13.0
81.561,9.362,3.456,2.0
81.401,9.341,2.983,7.0
81.494,9.349,2.518,12.0
83.047,9.535,4.859,12.0
83.05,9.53,4.38,21.0
83.083,9.53,3.904,15.0
81.463,9.34,3.351,3.0
81.487,9.34,2.885,7.0
81.512,9.34,2.418,12.0
54.711,6.272,3.133,8.0
83.102,9.522,4.281,16.0
83.109,9.518,3.804,20.0
81.51,9.331,3.254,4.0
81.581,9.335,2.788,11.0
81.615,9.336,2.32,13.0
83.212,9.522,4.662,15.0
83.23,9.518,4.184,18.0
83.219,9.512,3.705,20.0
81.618,9.325,3.156,3.0
81.721,9.332,2.692,11.0
81.694,9.325,2.222,13.0
83.343,9.516,4.565,23.0
83.325,9.507,4.084,18.0
83.313,9.5,3.605,12.0
81.671,9.308,3.057,3.0
81.78,9.316,2.591,12.0
81.801,9.314,2.122,12.0
83.448,9.502,4.467,23.0
83.444,9.495,3.987,19.0
83.363,9.48,3.504,2.0
81.878,9.306,2.963,4.0
81.945,9.309,2.495,12.0
81.929,9.302,2.025,11.0
83.583,9.488,4.37,25.0
83.567,9.48,3.888,26.0
82.048,9.301,3.345,3.0
82.022,9.292,2.866,10.0
82.085,9.294,2.397,12.0
82.06,9.286,1.924,12.0
83.747,9.474,4.272,22.0
83.747,9.466,3.79,23.0
82.152,9.279,3.246,2.0
82.208,9.279,2.768,12.0
82.228,9.276,2.296,12.0
82.251,9.273,1.825,11.0
83.932,9.457,4.176,19.0
83.905,9.446,3.693,15.0
82.363,9.266,3.151,4.0
82.382,9.261,2.671,11.0
82.436,9.261,2.2,12.0
82.409,9.252,1.726,11.0
84.054,9.43,4.078,19.0
84.061,9.423,3.596,9.0
82.613,9.253,3.058,5.0
82.623,9.247,2.576,12.0
82.617,9.239,2.102,11.0
82.606,9.231,1.629,11.0
84.062,9.387,3.972,28.0
82.814,9.239,3.438,1.0
82.767,9.225,2.962,12.0
82.859,9.228,2.48,12.0
82.835,9.218,2.004,11.0
82.843,9.212,1.53,11.0
84.048,9.337,3.867,25.0
83.191,9.233,3.35,2.0
82.943,9.196,2.865,7.0
83.067,9.202,2.384,11.0
83.092,9.197,1.908,11.0
83.088,9.189,1.433,11.0
84.075,9.287,3.765,28.0
83.349,9.198,3.254,1.0
83.296,9.183,2.774,4.0
83.326,9.177,2.289,11.0
83.355,9.173,1.812,10.0
83.328,9.162,1.334,11.0
84.029,9.226,3.659,17.0
83.649,9.175,3.162,3.0
83.676,9.169,2.684,4.0
83.62,9.153,2.195,6.0
83.627,9.145,1.715,6.0
83.614,9.136,1.237,10.0
84.051,9.169,3.557,10.0
84.061,9.159,3.075,5.0
83.965,9.14,2.59,5.0
83.945,9.128,2.1,6.0
83.973,9.121,1.62,7.0
83.933,9.108,1.139,6.0
84.191,9.121,3.46,13.0
84.165,9.107,2.977,13.0
84.28,9.11,2.498,11.0
84.214,9.092,2.005,15.0
84.215,9.083,1.524,16.0
84.255,9.078,1.042,14.0
84.163,9.051,3.358,40.0
84.164,9.04,2.875,46.0
84.161,9.029,2.393,46.0
84.157,9.018,1.902,46.0
84.163,9.008,1.421,43.0
84.19,9.002,0.941,42.0
84.154,8.979,3.256,60.0
84.144,8.966,2.772,60.0
84.148,8.955,2.291,59.0
84.16,8.946,1.802,62.0
84.153,8.935,1.32,66.0
84.15,8.924,0.839,150.0
84.524,8.943,3.168,12.0
84.984,8.979,2.699,11.0
85.083,8.979,2.215,10.0
85.089,8.967,1.72,11.0
84.96,8.943,1.232,10.0
0.0,0.0,0.0,0.0
85.595,8.978,3.108,12.0
85.679,8.973,2.621,12.0
85.705,8.964,2.131,11.0
85.73,8.955,1.633,10.0
85.725,8.942,1.143,11.0
85.783,8.938,0.654,10.0
86.047,8.941,3.023,9.0
86.086,8.932,2.532,12.0
86.122,8.922,2.041,10.0
86.162,8.914,1.541,10.0
86.168,8.903,1.049,10.0
86.24,8.899,0.558,10.0
86.489,8.899,2.939,8.0
86.596,8.897,2.446,11.0
86.611,8.885,1.953,11.0
86.583,8.868,1.449,11.0
86.645,8.863,0.955,11.0
86.701,8.856,0.461,10.0
86.968,8.857,2.855,9.0
87.021,8.848,2.36,11.0
87.045,8.837,1.864,9.0
87.085,8.827,1.359,12.0
87.095,8.815,0.863,11.0
87.138,8.806,0.365,10.0
87.46,8.811,2.773,4.0
87.542,8.805,2.276,6.0
87.602,8.796,1.778,7.0
87.585,8.78,1.268,11.0
87.649,8.773,0.77,11.0
87.343,8.729,0.27,11.0
88.023,8.768,2.693,10.0
88.043,8.755,2.192,9.0
88.065,8.742,1.69,9.0
88.115,8.733,1.18,11.0
88.106,8.717,0.678,11.0
88.115,8.704,0.176,9.0
88.608,8.721,2.614,5.0
88.579,8.703,2.108,9.0
88.641,8.694,1.605,9.0
88.644,8.679,1.091,13.0
88.704,8.671,0.587,11.0
88.234,8.61,0.081,6.0
89.144,8.667,2.535,12.0
89.161,8.652,2.027,11.0
89.213,8.641,1.519,12.0
89.261,8.63,1.004,11.0
89.298,8.617,0.495,10.0
45.816,4.413,-0.006,1.0
89.703,8.609,2.456,12.0
89.777,8.599,1.947,11.0
89.824,8.586,1.437,11.0
