X,Y,Z,Reflectivity
23.612,-2.493,-0.414,0.0
21.689,-2.296,-0.498,21.0
19.184,-2.036,-0.547,19.0
17.682,-1.882,-0.6,20.0
15.922,-1.699,-0.627,16.0
30.612,-3.265,-0.35,22.0
24.753,-2.646,-0.417,17.0
22.028,-2.361,-0.491,20.0
19.451,-2.09,-0.541,17.0
17.808,-1.918,-0.592,18.0
16.067,-1.735,-0.622,14.0
0.0,0.0,0.0,0.0
24.813,-2.685,-0.4,18.0
22.373,-2.426,-0.482,19.0
19.563,-2.127,-0.53,19.0
17.907,-1.951,-0.582,18.0
16.264,-1.777,-0.617,16.0
31.876,-3.48,-0.318,13.0
25.49,-2.789,-0.393,14.0
22.443,-2.461,-0.467,22.0
19.721,-2.168,-0.52,20.0
17.995,-1.983,-0.572,16.0
16.396,-1.811,-0.61,17.0
35.541,-3.924,-0.328,2.0
0.0,0.0,0.0,0.0
22.737,-2.521,-0.456,22.0
20.366,-2.263,-0.521,27.0
18.245,-2.032,-0.566,19.0
16.579,-1.851,-0.604,16.0
35.733,-3.987,-0.301,21.0
28.129,-3.145,-0.389,29.0
23.008,-2.578,-0.443,20.0
20.017,-2.248,-0.496,18.0
18.318,-2.061,-0.553,17.0
16.765,-1.891,-0.597,15.0
35.929,-4.05,-0.274,18.0
28.509,-3.22,-0.372,22.0
23.098,-2.614,-0.426,20.0
20.31,-2.303,-0.486,15.0
18.514,-2.104,-0.544,17.0
16.851,-1.919,-0.586,15.0
36.955,-4.206,-0.251,16.0
29.167,-3.326,-0.356,22.0
23.661,-2.703,-0.416,24.0
20.882,-2.39,-0.482,17.0
18.881,-2.166,-0.538,23.0
17.159,-1.972,-0.582,17.0
37.564,-4.315,-0.223,20.0
30.091,-3.463,-0.341,25.0
24.156,-2.785,-0.404,25.0
21.266,-2.456,-0.473,18.0
19.079,-2.208,-0.527,26.0
17.275,-2.003,-0.57,15.0
38.316,-4.441,-0.194,19.0
30.785,-3.574,-0.321,23.0
24.473,-2.846,-0.387,18.0
21.599,-2.517,-0.461,18.0
19.171,-2.238,-0.512,18.0
17.741,-2.075,-0.57,17.0
38.663,-4.519,-0.16,15.0
35.279,-4.131,-0.336,2.0
25.063,-2.939,-0.374,19.0
21.958,-2.579,-0.448,17.0
19.554,-2.301,-0.505,17.0
18.006,-2.123,-0.562,18.0
39.294,-4.63,-0.127,15.0
35.363,-4.173,-0.304,21.0
25.481,-3.012,-0.356,12.0
22.407,-2.653,-0.437,20.0
19.882,-2.358,-0.495,17.0
18.203,-2.162,-0.551,18.0
41.904,-4.975,-0.095,18.0
35.752,-4.251,-0.274,26.0
0.0,0.0,0.0,0.0
22.828,-2.723,-0.423,19.0
20.188,-2.411,-0.483,19.0
18.381,-2.199,-0.539,18.0
42.712,-5.108,-0.057,11.0
36.374,-4.356,-0.243,13.0
28.781,-3.451,-0.347,26.0
23.207,-2.787,-0.407,20.0
20.66,-2.485,-0.474,19.0
18.531,-2.232,-0.525,18.0
45.856,-5.522,-0.015,21.0
37.408,-4.51,-0.214,19.0
29.523,-3.564,-0.327,23.0
23.798,-2.877,-0.394,20.0
21.028,-2.546,-0.461,20.0
18.705,-2.268,-0.511,18.0
46.21,-5.6,0.03,21.0
38.298,-4.647,-0.18,26.0
30.081,-3.654,-0.303,17.0
24.383,-2.966,-0.379,21.0
21.378,-2.604,-0.447,18.0
19.011,-2.319,-0.5,18.0
47.329,-5.77,0.079,15.0
38.709,-4.725,-0.143,14.0
35.396,-4.325,-0.321,4.0
24.919,-3.049,-0.362,22.0
21.698,-2.658,-0.432,18.0
19.412,-2.381,-0.491,18.0
51.644,-6.332,0.139,13.0
0.0,0.0,0.0,0.0
35.722,-4.389,-0.287,17.0
25.386,-3.123,-0.343,18.0
22.267,-2.742,-0.42,21.0
19.762,-2.436,-0.479,18.0
52.312,-6.448,0.196,10.0
41.039,-5.063,-0.066,5.0
36.17,-4.467,-0.252,14.0
0.0,0.0,0.0,0.0
22.779,-2.819,-0.406,20.0
20.151,-2.497,-0.467,19.0
52.844,-6.545,0.254,1.0
0.0,0.0,0.0,0.0
37.217,-4.618,-0.22,14.0
0.0,0.0,0.0,0.0
23.269,-2.893,-0.39,22.0
20.566,-2.559,-0.455,21.0
83.292,-10.363,0.488,10.0
46.44,-5.783,0.023,21.0
38.121,-4.751,-0.184,21.0
29.791,-3.716,-0.307,17.0
23.65,-2.952,-0.37,30.0
20.959,-2.619,-0.441,19.0
76.614,-9.572,0.533,16.0
47.323,-5.916,0.075,20.0
38.568,-4.825,-0.145,14.0
31.133,-3.898,-0.287,10.0
24.319,-3.048,-0.354,19.0
21.191,-2.658,-0.422,18.0
76.596,-9.605,0.617,20.0
0.0,0.0,0.0,0.0
0.0,0.0,0.0,0.0
35.603,-4.474,-0.289,15.0
0.0,0.0,0.0,0.0
0.0,0.0,0.0,0.0
76.577,-9.635,0.701,23.0
52.244,-6.577,0.198,11.0
43.109,-5.43,-0.067,4.0
36.127,-4.554,-0.253,17.0
28.743,-3.625,-0.355,3.0
22.636,-2.857,-0.401,21.0
76.551,-9.661,0.785,21.0
76.556,-9.666,0.375,7.0
46.159,-5.831,-0.02,20.0
37.098,-4.689,-0.218,14.0
0.0,0.0,0.0,0.0
23.145,-2.929,-0.384,23.0
76.565,-9.688,0.871,18.0
76.539,-9.689,0.461,14.0
46.608,-5.902,0.031,21.0
37.918,-4.804,-0.181,20.0
29.859,-3.785,-0.302,16.0
23.666,-3.001,-0.367,25.0
76.588,-9.713,0.958,15.0
76.546,-9.711,0.547,19.0
47.302,-6.003,0.084,21.0
38.479,-4.885,-0.141,14.0
35.409,-4.497,-0.319,2.0
24.373,-3.097,-0.35,18.0
76.57,-9.729,1.044,3.0
76.521,-9.725,0.633,22.0
0.0,0.0,0.0,0.0
0.0,0.0,0.0,0.0
35.798,-4.554,-0.282,18.0
25.382,-3.23,-0.336,19.0
113.001,-14.38,1.667,7.0
76.563,-9.744,0.72,17.0
52.447,-6.676,0.213,6.0
0.0,0.0,0.0,0.0
36.299,-4.623,-0.245,13.0
29.099,-3.707,-0.352,2.0
117.502,-14.969,1.867,6.0
76.589,-9.758,0.808,11.0
76.506,-9.748,0.397,12.0
0.0,0.0,0.0,0.0
37.316,-4.756,-0.209,17.0
29.401,-3.748,-0.322,19.0
118.706,-15.135,2.021,18.0
76.639,-9.771,0.895,4.0
76.523,-9.757,0.484,17.0
46.649,-5.948,0.04,21.0
38.106,-4.859,-0.17,19.0
30.063,-3.834,-0.295,9.0
118.886,-15.164,2.16,9.0
110.962,-14.152,1.422,12.0
76.548,-9.762,0.571,18.0
47.554,-6.064,0.095,13.0
38.652,-4.929,-0.129,14.0
35.476,-4.524,-0.308,5.0
119.026,-15.183,2.298,6.0
112.735,-14.378,1.572,9.0
76.56,-9.763,0.658,15.0
0.0,0.0,0.0,0.0
40.701,-5.189,-0.09,15.0
35.815,-4.566,-0.27,17.0
119.031,-15.178,2.434,7.0
112.986,-14.404,1.704,3.0
76.562,-9.758,0.744,13.0
52.577,-6.7,0.224,4.0
45.807,-5.836,-0.049,8.0
36.726,-4.679,-0.236,14.0
119.032,-15.168,2.568,10.0
136.048,-17.331,2.206,8.0
76.544,-9.748,0.831,10.0
76.48,-9.737,0.413,13.0
46.154,-5.875,0.002,21.0
37.605,-4.786,-0.199,20.0
69.415,-8.836,1.576,2.0
118.973,-15.139,2.065,13.0
76.625,-9.746,0.919,8.0
76.517,-9.729,0.5,20.0
47.05,-5.98,0.054,21.0
38.314,-4.869,-0.159,14.0
69.577,-8.844,1.658,4.0
118.991,-15.118,2.198,8.0
76.628,-9.731,1.004,7.0
76.542,-9.716,0.586,21.0
47.567,-6.036,0.109,7.0
0.0,0.0,0.0,0.0
69.727,-8.847,1.739,5.0
86.894,-11.02,1.701,1.0
76.621,-9.712,1.09,7.0
76.534,-9.696,0.67,23.0
0.0,0.0,0.0,0.0
43.118,-5.457,-0.084,4.0
69.843,-8.843,1.82,4.0
86.942,-11.001,1.799,22.0
76.624,-9.69,1.175,11.0
76.548,-9.674,0.755,21.0
65.8,-8.311,0.296,3.0
46.104,-5.82,-0.039,17.0
70.055,-8.848,1.902,4.0
86.707,-10.943,1.89,13.0
76.629,-9.664,1.259,16.0
76.564,-9.65,0.839,20.0
76.574,-9.645,0.428,16.0
46.424,-5.844,0.01,21.0
70.564,-8.886,1.994,4.0
86.5,-10.884,1.98,4.0
76.629,-9.635,1.342,14.0
76.575,-9.621,0.923,19.0
76.558,-9.612,0.513,17.0
47.294,-5.933,0.063,14.0
75.695,-9.501,2.222,18.0
86.672,-10.869,2.079,8.0
76.665,-9.606,1.427,20.0
76.6,-9.59,1.006,22.0
76.625,-9.585,0.596,23.0
51.315,-6.414,0.123,18.0
78.797,-9.855,2.399,17.0
75.86,-9.478,1.901,12.0
76.636,-9.566,1.509,21.0
76.623,-9.556,1.089,17.0
76.655,-9.551,0.678,11.0
52.32,-6.514,0.181,7.0
78.893,-9.827,2.485,26.0
75.406,-9.383,1.969,22.0
76.652,-9.528,1.589,23.0
76.633,-9.517,1.17,16.0
73.22,-9.084,0.724,6.0
66.823,-8.283,0.301,11.0
75.339,-9.344,2.452,20.0
75.297,-9.328,2.045,19.0
76.68,-9.489,1.669,8.0
76.689,-9.48,1.25,7.0
73.216,-9.041,0.8,11.0
83.547,-10.306,0.464,5.0
75.181,-9.28,2.524,29.0
76.698,-9.455,2.163,12.0
72.939,-8.981,1.664,25.0
76.759,-9.441,1.33,4.0
73.218,-8.995,0.875,21.0
84.135,-10.326,0.552,10.0
75.14,-9.227,2.6,31.0
76.736,-9.411,2.241,11.0
72.927,-8.932,1.737,19.0
100.881,-12.341,1.849,4.0
73.26,-8.952,0.949,8.0
85.077,-10.383,0.645,1.0
75.317,-9.198,2.681,23.0
75.024,-9.149,2.266,14.0
72.926,-8.882,1.81,8.0
73.383,-8.925,1.419,7.0
73.316,-8.906,1.023,8.0
90.047,-10.924,0.771,5.0
75.579,-9.175,2.766,23.0
75.1,-9.104,2.343,15.0
73.131,-8.852,1.887,4.0
73.37,-8.869,1.491,11.0
73.348,-8.854,1.094,9.0
90.459,-10.905,0.863,10.0
75.59,-9.119,2.839,6.0
74.996,-9.034,2.412,11.0
92.817,-11.163,2.484,11.0
73.465,-8.823,1.562,14.0
118.811,-14.248,1.886,10.0
100.897,-12.082,1.058,6.0
73.478,-8.805,2.83,20.0
75.112,-8.986,2.487,8.0
72.916,-8.709,2.021,13.0
72.956,-8.7,1.621,22.0
119.063,-14.177,2.003,12.0
73.168,-8.699,0.836,4.0
73.16,-8.704,2.887,31.0
74.991,-8.907,2.553,13.0
78.702,-9.332,2.254,17.0
72.88,-8.627,1.686,17.0
73.205,-8.652,1.298,7.0
73.103,-8.626,0.902,3.0
73.405,-8.668,2.963,22.0
74.772,-8.814,2.613,11.0
74.503,-8.767,2.2,7.0
73.315,-8.612,1.761,9.0
73.315,-8.598,1.365,12.0
113.576,-13.297,1.502,12.0
73.056,-8.559,3.013,13.0
74.817,-8.749,2.681,11.0
74.739,-8.724,2.274,9.0
73.188,-8.527,1.823,24.0
73.391,-8.535,1.431,24.0
75.241,-8.735,1.06,26.0
73.246,-8.51,3.085,32.0
72.655,-8.425,2.666,20.0
74.358,-8.605,2.326,9.0
73.368,-8.475,1.89,13.0
73.346,-8.457,1.492,13.0
75.205,-8.655,1.123,30.0
73.276,-8.44,3.148,26.0
72.656,-8.351,2.727,28.0
75.295,-8.637,2.417,19.0
0.0,0.0,0.0,0.0
75.15,-8.587,1.59,18.0
75.204,-8.577,1.184,28.0
73.497,-8.388,3.218,15.0
73.125,-8.328,2.804,30.0
75.247,-8.552,2.476,48.0
74.567,-8.457,2.042,16.0
75.088,-8.498,1.649,30.0
75.252,-8.5,1.245,23.0
72.642,-8.212,3.237,28.0
72.377,-8.163,2.832,12.0
74.248,-8.356,2.502,12.0
74.613,-8.379,2.102,32.0
75.138,-8.42,1.709,28.0
118.881,-13.294,2.059,27.0
33.215,-3.717,1.505,24.0
33.19,-3.706,1.324,7.0
33.18,-3.696,1.143,1.0
74.991,-8.335,2.168,21.0
75.216,-8.342,1.766,20.0
118.842,-13.151,2.147,6.0
33.184,-3.675,1.529,83.0
33.171,-3.664,1.347,79.0
33.171,-3.656,1.167,75.0
33.148,-3.645,0.982,60.0
33.143,-3.636,0.802,50.0
33.147,-3.628,0.622,44.0
33.173,-3.634,1.552,86.0
33.162,-3.623,1.371,84.0
33.146,-3.613,1.189,81.0
33.142,-3.603,1.005,81.0
33.139,-3.594,0.825,80.0
33.127,-3.585,0.644,78.0
33.197,-3.595,1.576,53.0
33.198,-3.586,1.395,69.0
33.176,-3.575,1.213,71.0
33.165,-3.565,1.028,72.0
33.157,-3.555,0.847,71.0
33.126,-3.543,0.666,69.0
72.211,-7.73,3.475,12.0
72.415,-7.731,3.089,16.0
72.382,-7.707,2.693,22.0
78.041,-8.289,2.469,10.0
78.712,-8.339,2.061,19.0
33.149,-3.503,0.687,5.0
72.15,-7.629,3.517,13.0
71.947,-7.587,3.114,9.0
74.95,-7.882,2.834,15.0
78.225,-8.204,2.522,12.0
78.63,-8.226,2.106,26.0
104.52,-10.905,2.229,9.0
69.561,-7.263,3.432,10.0
77.925,-8.113,3.418,14.0
74.723,-7.758,2.869,13.0
78.335,-8.11,2.571,12.0
78.555,-8.11,2.149,11.0
74.842,-7.706,1.639,8.0
72.154,-7.434,3.601,44.0
73.458,-7.547,3.263,33.0
74.866,-7.669,2.915,13.0
74.477,-7.608,2.485,30.0
78.435,-7.989,2.188,24.0
74.879,-7.606,1.679,20.0
72.238,-7.342,3.642,33.0
72.052,-7.301,3.238,22.0
72.594,-7.335,2.864,23.0
74.346,-7.489,2.518,11.0
73.921,-7.425,2.099,16.0
78.669,-7.88,1.803,18.0
71.137,-7.129,3.622,14.0
71.059,-7.099,3.228,10.0
72.564,-7.228,2.898,18.0
78.851,-7.83,2.708,12.0
73.954,-7.322,2.135,9.0
119.192,-11.767,2.787,11.0
70.984,-7.011,3.646,9.0
71.097,-7.0,3.262,18.0
78.191,-7.675,3.157,15.0
78.763,-7.706,2.739,35.0
103.764,-10.121,3.04,10.0
135.534,-13.18,3.227,26.0
70.909,-6.899,3.672,28.0
71.195,-6.904,3.296,11.0
78.363,-7.574,3.197,36.0
74.28,-7.156,2.614,17.0
103.652,-9.955,3.078,9.0
191.394,-18.324,4.634,16.0
71.48,-6.847,3.73,15.0
71.154,-6.792,3.321,15.0
77.966,-7.418,3.21,44.0
78.637,-7.457,2.797,11.0
103.984,-9.827,3.126,13.0
119.223,-11.232,2.928,18.0
73.222,-6.901,3.847,7.0
71.172,-6.684,3.347,10.0
74.598,-6.982,3.097,6.0
78.334,-7.306,2.812,27.0
72.05,-6.698,2.19,3.0
75.472,-6.993,1.878,7.0
70.457,-6.53,3.725,25.0
71.13,-6.569,3.367,18.0
104.407,-9.608,4.366,7.0
77.864,-7.141,2.819,5.0
104.23,-9.525,3.199,9.0
119.261,-10.862,3.003,22.0
70.804,-6.45,3.763,13.0
71.326,-6.474,3.397,17.0
71.141,-6.433,2.995,7.0
72.294,-6.514,2.636,7.0
104.379,-9.371,3.23,14.0
74.089,-6.629,1.884,14.0
71.072,-6.36,3.795,49.0
71.452,-6.37,3.419,13.0
67.985,-6.039,2.878,24.0
67.949,-6.013,2.493,37.0
103.633,-9.137,3.23,7.0
203.727,-17.897,5.227,16.0
70.99,-6.238,3.805,8.0
67.966,-5.949,3.266,44.0
67.987,-5.928,2.891,39.0
67.955,-5.903,2.506,45.0
102.792,-8.895,3.223,11.0
119.251,-10.281,3.08,19.0
71.322,-6.15,3.835,16.0
67.966,-5.837,3.277,54.0
67.962,-5.814,2.901,43.0
67.936,-5.788,2.516,44.0
71.8,-6.094,2.261,18.0
72.535,-6.133,1.884,24.0
71.336,-6.031,3.846,12.0
67.956,-5.722,3.286,46.0
67.961,-5.699,2.909,46.0
67.937,-5.674,2.524,44.0
72.099,-5.998,2.279,8.0
119.32,-9.888,3.11,22.0
71.392,-5.915,3.856,18.0
67.946,-5.606,3.291,44.0
67.945,-5.583,2.914,43.0
67.939,-5.559,2.529,46.0
72.281,-5.89,2.29,15.0
71.779,-5.825,1.876,13.0
71.474,-5.8,3.864,25.0
71.362,-5.765,3.461,27.0
71.422,-5.745,3.066,31.0
74.671,-5.981,2.783,4.0
72.533,-5.785,2.3,18.0
71.725,-5.698,1.877,22.0
71.469,-5.675,3.865,20.0
70.883,-5.603,3.438,35.0
67.939,-5.347,2.917,35.0
67.907,-5.321,2.531,70.0
67.894,-5.298,2.153,86.0
67.885,-5.274,1.776,82.0
67.946,-5.276,3.673,90.0
67.939,-5.251,3.294,65.0
67.94,-5.228,2.915,27.0
72.053,-5.519,2.682,23.0
102.867,-7.846,3.257,21.0
72.723,-5.522,1.898,7.0
71.138,-5.398,3.841,9.0
67.907,-5.13,3.288,43.0
67.922,-5.107,2.909,59.0
67.901,-5.082,2.522,48.0
72.092,-5.371,2.277,25.0
72.454,-5.374,1.884,7.0
71.22,-5.279,3.838,27.0
67.899,-5.009,3.28,61.0
67.92,-4.987,2.902,65.0
67.882,-4.961,2.514,50.0
20.022,-1.456,0.629,6.0
20.008,-1.448,0.517,9.0
71.276,-5.155,3.832,21.0
67.902,-4.887,3.27,60.0
67.904,-4.864,2.891,62.0
67.898,-4.84,2.504,40.0
20.002,-1.418,0.625,9.0
20.001,-1.411,0.514,12.0
71.698,-5.056,3.842,22.0
67.898,-4.764,3.257,47.0
67.904,-4.741,2.877,54.0
20.014,-1.39,0.734,4.0
20.008,-1.383,0.622,10.0
20.038,-1.378,0.51,9.0
70.499,-4.846,3.762,25.0
70.989,-4.853,3.39,13.0
0.0,0.0,0.0,0.0
20.005,-1.354,0.729,9.0
20.037,-1.349,0.618,9.0
20.036,-1.342,0.505,8.0
70.637,-4.726,3.75,14.0
70.838,-4.715,3.364,16.0
72.092,-4.772,3.019,13.0
19.979,-1.315,0.722,11.0
19.94,-1.306,0.609,15.0
19.93,-1.299,0.497,17.0
70.548,-4.591,3.724,23.0
70.894,-4.588,3.345,11.0
20.042,-1.29,0.833,2.0
19.949,-1.277,0.715,15.0
19.954,-1.27,0.603,23.0
19.932,-1.262,0.491,23.0
70.954,-4.487,3.722,39.0
73.511,-4.623,3.442,31.0
20.034,-1.252,0.825,5.0
19.952,-1.24,0.708,15.0
19.953,-1.234,0.596,23.0
19.935,-1.226,0.483,22.0
20.013,-1.228,1.042,15.0
19.984,-1.219,0.928,17.0
20.019,-1.215,0.817,16.0
19.955,-1.204,0.7,17.0
19.953,-1.197,0.588,23.0
19.953,-1.19,0.475,23.0
19.976,-1.189,1.032,25.0
19.979,-1.182,0.919,25.0
20.028,-1.178,0.808,26.0
19.947,-1.166,0.691,17.0
19.961,-1.16,0.579,25.0
19.943,-1.152,0.466,24.0
19.968,-1.151,1.022,25.0
19.973,-1.145,0.909,25.0
20.032,-1.141,0.799,20.0
19.952,-1.13,0.681,17.0
19.964,-1.124,0.569,22.0
19.961,-1.117,0.457,22.0
19.958,-1.114,1.011,19.0
19.985,-1.109,0.9,20.0
20.011,-1.103,0.788,14.0
19.953,-1.093,0.671,17.0
19.969,-1.087,0.559,23.0
19.975,-1.081,0.447,21.0
19.978,-1.078,1.001,19.0
20.027,-1.074,0.891,1.0
20.019,-1.067,0.777,9.0
19.964,-1.057,0.66,16.0
19.961,-1.05,0.547,18.0
19.962,-1.043,0.435,14.0
71.14,-3.707,3.525,17.0
83.515,-4.324,3.666,36.0
20.046,-1.03,0.766,8.0
20.015,-1.022,0.65,12.0
20.092,-1.02,0.539,19.0
20.134,-1.015,0.427,24.0
73.634,-3.702,3.603,23.0
73.388,-3.663,3.175,36.0
20.096,-0.996,0.756,15.0
20.089,-0.989,0.64,24.0
20.128,-0.984,0.527,26.0
20.13,-0.977,0.413,20.0
80.682,-3.906,3.895,14.0
85.396,-4.105,3.638,20.0
20.085,-0.958,0.741,14.0
20.082,-0.952,0.626,18.0
20.115,-0.946,0.513,16.0
20.15,-0.941,0.4,5.0
80.665,-3.756,3.838,9.0
94.474,-4.366,3.958,27.0
20.104,-0.922,0.728,9.0
20.111,-0.915,0.612,7.0
193.894,-8.768,4.808,8.0
193.334,-8.678,3.699,7.0
80.845,-3.613,3.785,12.0
100.131,-4.443,4.12,14.0
115.835,-5.1,4.109,18.0
205.726,-8.988,6.109,8.0
193.344,-8.382,4.645,22.0
192.659,-8.29,3.536,23.0
80.878,-3.465,3.724,15.0
100.305,-4.263,4.047,24.0
104.404,-4.402,3.619,22.0
193.839,-8.109,5.6,14.0
193.029,-8.012,4.482,17.0
192.664,-7.935,3.381,21.0
94.706,-3.881,4.281,14.0
104.181,-4.234,4.117,19.0
206.932,-8.341,7.0,7.0
193.548,-7.738,5.429,19.0
193.13,-7.662,4.321,19.0
193.33,-7.607,3.229,6.0
100.203,-3.922,4.444,10.0
103.927,-4.034,4.017,21.0
193.565,-7.449,6.38,16.0
193.01,-7.364,5.246,21.0
194.497,-7.357,4.18,8.0
138.434,-5.193,2.188,3.0
103.905,-3.875,4.513,15.0
117.319,-4.337,4.428,9.0
193.464,-7.09,6.201,9.0
193.019,-7.011,5.068,21.0
193.808,-6.976,3.985,6.0
138.44,-4.941,2.06,4.0
99.461,-3.529,4.227,5.0
101.188,-3.557,3.723,19.0
193.455,-6.74,6.018,18.0
187.436,-6.469,4.743,52.0
187.478,-6.412,3.677,53.0
138.501,-4.693,1.928,2.0
101.04,-3.401,4.196,18.0
119.328,-3.978,4.274,26.0
192.994,-6.373,5.811,5.0
193.896,-6.343,4.715,25.0
193.734,-6.276,3.607,13.0
0.0,0.0,0.0,0.0
101.293,-3.228,4.104,24.0
105.981,-3.344,3.689,14.0
193.881,-6.058,5.643,19.0
194.398,-6.014,4.53,23.0
0.0,0.0,0.0,0.0
0.0,0.0,0.0,0.0
101.728,-3.059,4.015,17.0
120.166,-3.577,4.056,26.0
194.222,-5.72,5.446,22.0
194.836,-5.677,4.33,15.0
193.892,-5.591,3.204,9.0
138.708,-3.958,1.501,8.0
116.87,-3.307,4.485,12.0
120.192,-3.364,3.926,17.0
207.256,-5.736,5.584,6.0
206.335,-5.646,4.358,8.0
138.714,-3.754,2.138,7.0
138.831,-3.713,1.345,22.0
106.164,-2.815,3.954,10.0
120.662,-3.163,3.804,25.0
118.092,-3.059,3.047,2.0
193.083,-4.942,3.857,8.0
138.806,-3.513,1.981,5.0
138.851,-3.473,1.188,22.0
113.156,-2.804,4.085,13.0
120.869,-2.958,3.67,9.0
118.007,-2.852,2.907,20.0
193.289,-4.616,3.639,17.0
0.0,0.0,0.0,0.0
138.934,-3.235,1.025,18.0
113.063,-2.604,3.945,20.0
112.645,-2.562,3.286,11.0
118.143,-2.652,2.769,9.0
193.359,-4.284,3.406,18.0
0.0,0.0,0.0,0.0
138.917,-2.996,0.857,10.0
112.713,-2.402,3.794,23.0
112.887,-2.372,3.152,21.0
193.672,-4.012,4.297,9.0
193.1,-3.946,3.161,12.0
138.993,-2.799,1.478,7.0
138.841,-2.757,0.681,2.0
112.943,-2.215,3.659,12.0
112.676,-2.177,3.004,17.0
193.446,-3.681,4.047,18.0
138.942,-2.604,2.096,9.0
139.037,-2.567,1.301,21.0
0.0,0.0,0.0,0.0
113.175,-2.029,3.519,6.0
206.246,-3.64,5.232,16.0
204.899,-3.559,4.022,10.0
139.024,-2.375,1.917,4.0
139.086,-2.337,1.12,17.0
97.689,-1.614,0.227,1.0
112.611,-1.832,3.353,4.0
0.0,0.0,0.0,0.0
204.021,-3.205,3.732,6.0
138.906,-2.143,1.729,4.0
138.819,-2.103,0.931,20.0
0.0,0.0,0.0,0.0
206.728,-3.025,5.875,6.0
206.62,-2.968,4.687,10.0
204.223,-2.876,3.458,12.0
139.308,-1.925,1.545,8.0
127.567,-1.728,0.683,5.0
0.0,0.0,0.0,0.0
209.069,-2.723,5.653,5.0
210.362,-2.681,4.477,11.0
139.186,-1.737,2.163,4.0
139.257,-1.7,1.349,17.0
0.0,0.0,0.0,0.0
0.0,0.0,0.0,0.0
209.119,-2.39,5.358,20.0
119.735,-1.335,2.378,20.0
119.738,-1.304,1.689,150.0
119.766,-1.273,0.989,150.0
0.0,0.0,0.0,0.0
0.0,0.0,0.0,0.0
119.727,-1.179,2.893,150.0
119.726,-1.148,2.204,92.0
119.663,-1.115,1.514,23.0
114.354,-1.035,0.776,11.0
0.0,0.0,0.0,0.0
50.723,-0.433,-0.238,0.0
119.742,-0.992,2.715,58.0
119.742,-0.96,2.024,17.0
119.717,-0.929,1.334,17.0
111.123,-0.834,0.587,7.0
0.0,0.0,0.0,0.0
50.81,-0.355,-0.316,0.0
119.802,-0.809,2.535,31.0
119.805,-0.779,1.845,17.0
119.709,-0.749,1.155,17.0
0.0,0.0,0.0,0.0
0.0,0.0,0.0,0.0
0.0,0.0,0.0,0.0
194.496,-1.024,3.819,21.0
119.652,-0.6,1.659,2.0
119.787,-0.571,0.971,8.0
0.0,0.0,0.0,0.0
0.0,0.0,0.0,0.0
45.136,-0.181,-0.419,2.0
41.751,0.655,-0.414,0.0
0.0,0.0,0.0,0.0
28.565,0.457,-0.615,0.0
24.529,0.397,-0.673,0.0
21.529,0.352,-0.716,0.0
19.246,0.317,-0.751,0.0
0.0,0.0,0.0,0.0
32.129,0.539,-0.566,0.0
26.844,0.454,-0.628,0.0
23.319,0.398,-0.683,0.0
20.769,0.358,-0.729,0.0
18.574,0.323,-0.76,0.0
0.0,0.0,0.0,0.0
30.273,0.534,-0.59,0.0
25.946,0.462,-0.656,0.0
22.608,0.406,-0.705,0.0
19.899,0.36,-0.736,0.0
17.815,0.325,-0.763,0.0
34.158,0.627,-0.532,0.0
28.69,0.53,-0.613,0.0
24.706,0.46,-0.672,0.0
21.513,0.404,-0.712,0.0
19.142,0.362,-0.745,0.0
17.49,0.334,-0.782,0.0
32.065,0.615,-0.561,0.0
26.959,0.521,-0.628,0.0
23.527,0.458,-0.685,0.0
20.823,0.408,-0.729,0.0
18.547,0.366,-0.757,0.0
16.814,0.334,-0.784,0.0
30.229,0.603,-0.587,0.0
25.763,0.518,-0.65,0.0
22.545,0.456,-0.7,0.0
19.741,0.402,-0.729,0.0
17.894,0.367,-0.765,0.0
16.369,0.337,-0.795,0.0
28.665,0.593,-0.612,0.0
24.576,0.512,-0.667,0.0
21.454,0.449,-0.707,0.0
19.23,0.405,-0.748,0.0
17.37,0.368,-0.777,0.0
15.883,0.339,-0.803,0.0
26.754,0.573,-0.623,0.0
23.658,0.509,-0.688,0.0
20.681,0.448,-0.722,0.0
18.452,0.402,-0.753,0.0
16.893,0.37,-0.788,0.0
15.417,0.339,-0.809,0.0
25.959,0.573,-0.655,0.0
22.474,0.499,-0.697,0.0
20.034,0.447,-0.738,0.0
17.942,0.402,-0.767,0.0
16.334,0.368,-0.794,0.0
14.952,0.339,-0.814,0.0
24.423,0.554,-0.664,0.0
21.569,0.492,-0.711,0.0
19.248,0.441,-0.747,0.0
17.238,0.397,-0.771,0.0
15.896,0.368,-0.803,0.0
14.582,0.339,-0.822,0.0
23.466,0.547,-0.683,0.0
20.549,0.481,-0.718,0.0
18.354,0.431,-0.748,0.0
16.738,0.395,-0.781,0.0
15.414,0.366,-0.809,0.0
14.169,0.338,-0.827,0.0
22.359,0.533,-0.695,0.0
19.912,0.477,-0.734,0.0
17.908,0.431,-0.765,0.0
16.277,0.393,-0.792,0.0
14.908,0.361,-0.812,0.0
13.798,0.336,-0.832,0.0
21.403,0.521,-0.707,0.0
19.018,0.465,-0.738,0.0
17.394,0.427,-0.777,0.0
15.875,0.391,-0.803,0.0
14.559,0.36,-0.821,0.0
13.538,0.336,-0.843,0.0
20.662,0.513,-0.722,0.0
18.444,0.459,-0.752,0.0
16.804,0.42,-0.783,0.0
15.322,0.384,-0.804,0.0
14.172,0.357,-0.827,0.0
13.146,0.332,-0.844,0.0
19.961,0.504,-0.736,0.0
17.747,0.45,-0.758,0.0
16.288,0.414,-0.79,0.0
14.9,0.38,-0.811,0.0
13.81,0.353,-0.833,0.0
12.814,0.329,-0.847,0.0
19.085,0.49,-0.741,0.0
17.409,0.448,-0.777,0.0
15.784,0.407,-0.797,0.0
14.499,0.375,-0.818,0.0
13.479,0.35,-0.839,0.0
12.445,0.324,-0.847,0.0
18.503,0.481,-0.754,0.0
16.806,0.438,-0.783,0.0
15.37,0.402,-0.806,0.0
14.123,0.37,-0.824,0.0
13.161,0.346,-0.845,0.0
12.109,0.319,-0.848,0.0
17.725,0.467,-0.757,0.0
16.102,0.425,-0.781,0.0
14.911,0.394,-0.81,0.0
13.776,0.365,-0.83,0.0
12.735,0.339,-0.842,0.0
11.749,0.313,-0.846,0.0
17.326,0.461,-0.774,0.0
15.812,0.422,-0.798,0.0
14.521,0.388,-0.817,0.0
13.514,0.362,-0.841,0.0
12.489,0.335,-0.85,0.0
11.515,0.31,-0.851,0.0
16.686,0.448,-0.777,0.0
15.354,0.413,-0.804,0.0
14.085,0.38,-0.82,0.0
13.08,0.353,-0.839,0.0
12.098,0.327,-0.847,0.0
11.363,0.308,-0.862,0.0
16.159,0.437,-0.783,0.0
14.908,0.404,-0.809,0.0
13.831,0.375,-0.831,0.0
12.832,0.349,-0.847,0.0
11.787,0.321,-0.847,0.0
11.156,0.305,-0.867,0.0
15.901,0.432,-0.801,0.0
14.506,0.395,-0.815,0.0
13.526,0.369,-0.839,0.0
12.476,0.341,-0.848,0.0
11.528,0.316,-0.85,0.0
10.927,0.3,-0.87,0.0
15.37,0.42,-0.803,0.0
14.183,0.388,-0.823,0.0
13.156,0.36,-0.84,0.0
12.108,0.332,-0.845,0.0
11.378,0.313,-0.861,1.0
10.725,0.295,-0.874,0.0
14.935,0.409,-0.808,0.0
13.854,0.38,-0.83,0.0
12.742,0.35,-0.838,0.0
11.793,0.324,-0.846,0.0
11.173,0.308,-0.866,0.0
10.485,0.289,-0.874,0.0
14.559,0.399,-0.815,0.0
13.524,0.371,-0.836,0.0
12.463,0.343,-0.843,0.0
11.524,0.317,-0.848,0.0
10.955,0.302,-0.87,0.0
10.347,0.285,-0.882,0.0
14.194,0.389,-0.82,0.0
13.149,0.361,-0.837,0.0
12.132,0.333,-0.843,0.0
11.382,0.313,-0.858,0.0
10.761,0.296,-0.874,0.0
10.168,0.28,-0.886,0.0
13.881,0.38,-0.828,0.0
12.881,0.353,-0.843,0.0
11.812,0.324,-0.842,0.0
11.18,0.307,-0.863,0.0
10.512,0.289,-0.873,0.0
10.027,0.276,-0.892,0.0
13.63,0.372,-0.838,0.0
12.536,0.343,-0.843,0.0
11.563,0.316,-0.845,0.0
10.985,0.301,-0.868,0.0
10.355,0.283,-0.879,0.0
9.861,0.27,-0.895,0.0
13.228,0.36,-0.837,0.0
12.236,0.333,-0.845,0.0
11.404,0.31,-0.854,0.0
10.791,0.294,-0.872,0.0
10.192,0.278,-0.883,0.0
9.706,0.265,-0.898,0.0
12.955,0.35,-0.842,0.0
11.897,0.322,-0.843,0.0
11.23,0.304,-0.861,0.0
10.563,0.286,-0.873,0.0
10.06,0.272,-0.89,0.0
9.523,0.258,-0.898,0.0
12.561,0.338,-0.839,0.0
11.644,0.313,-0.846,0.0
11.039,0.297,-0.866,0.0
10.362,0.278,-0.874,0.0
9.896,0.266,-0.893,0.0
9.418,0.253,-0.905,0.0
12.29,0.327,-0.842,0.0
11.426,0.304,-0.85,0.0
10.849,0.289,-0.87,0.0
10.263,0.273,-0.884,0.0
9.754,0.26,-0.897,0.0
9.262,0.247,-0.906,0.0
11.994,0.316,-0.843,0.0
11.303,0.298,-0.86,1.0
10.649,0.281,-0.872,0.0
10.106,0.266,-0.888,0.0
9.626,0.254,-0.902,0.0
9.18,0.242,-0.914,0.0
11.71,0.306,-0.843,0.0
11.115,0.29,-0.864,0.0
10.425,0.272,-0.872,0.0
9.948,0.259,-0.891,0.0
9.463,0.246,-0.903,0.0
8.981,0.234,-0.909,0.0
11.469,0.296,-0.844,0.0
10.926,0.281,-0.868,0.0
10.286,0.264,-0.877,0.0
9.773,0.251,-0.891,0.0
9.328,0.24,-0.905,0.0
8.862,0.227,-0.912,0.0
11.388,0.289,-0.857,1.0
10.728,0.272,-0.87,0.0
10.188,0.258,-0.886,0.0
9.691,0.245,-0.9,0.0
9.231,0.233,-0.911,0.0
8.76,0.221,-0.916,0.0
11.199,0.28,-0.861,1.0
10.519,0.263,-0.87,0.0
10.026,0.25,-0.888,0.0
9.484,0.236,-0.896,0.0
9.092,0.226,-0.912,0.0
8.586,0.213,-0.912,0.0
11.031,0.271,-0.866,0.0
10.356,0.254,-0.873,0.0
9.897,0.242,-0.892,0.0
9.383,0.229,-0.902,0.0
8.941,0.218,-0.911,0.0
8.518,0.208,-0.918,0.0
10.843,0.261,-0.868,0.0
10.252,0.247,-0.881,0.0
9.803,0.235,-0.899,0.0
9.286,0.223,-0.907,0.0
8.805,0.211,-0.911,0.0
8.413,0.201,-0.92,0.0
10.644,0.251,-0.869,0.0
10.136,0.239,-0.886,0.0
9.596,0.225,-0.895,0.0
9.083,0.213,-0.901,0.0
8.777,0.205,-0.922,0.0
8.376,0.196,-0.929,0.0
10.459,0.241,-0.87,0.0
9.979,0.23,-0.888,0.0
9.527,0.219,-0.903,0.0
9.04,0.207,-0.91,0.0
8.637,0.197,-0.92,0.0
8.285,0.189,-0.931,0.0
10.337,0.233,-0.875,0.0
9.839,0.221,-0.89,0.0
9.39,0.21,-0.904,0.0
8.938,0.2,-0.913,0.0
8.503,0.189,-0.919,0.0
8.14,0.181,-0.927,0.0
10.225,0.224,-0.88,0.0
9.744,0.213,-0.895,0.0
9.264,0.202,-0.905,0.0
8.836,0.192,-0.916,0.0
8.41,0.182,-0.921,0.0
8.066,0.174,-0.93,0.0
10.116,0.215,-0.885,0.0
9.655,0.205,-0.901,0.0
9.149,0.194,-0.907,0.0
8.76,0.185,-0.92,0.0
8.354,0.175,-0.926,0.0
7.964,0.167,-0.93,0.0
9.988,0.206,-0.888,0.0
9.543,0.196,-0.904,0.0
0.0,0.0,0.0,0.0
8.644,0.176,-0.92,0.0
8.257,0.168,-0.927,0.0
7.89,0.16,-0.932,0.0
9.847,0.196,-0.889,0.0
9.392,0.187,-0.902,0.0
8.975,0.178,-0.914,0.0
0.0,0.0,0.0,0.0
0.0,0.0,0.0,0.0
7.811,0.153,-0.933,0.0
9.757,0.188,-0.894,0.0
9.248,0.177,-0.901,0.0
8.809,0.168,-0.909,0.0
8.418,0.16,-0.918,0.0
8.084,0.153,-0.929,0.0
7.746,0.146,-0.936,0.0
9.609,0.178,-0.892,0.0
9.146,0.168,-0.902,0.0
8.717,0.16,-0.911,0.0
8.371,0.153,-0.924,0.0
8.06,0.146,-0.937,0.0
7.684,0.139,-0.938,0.0
9.508,0.169,-0.895,0.0
9.144,0.161,-0.914,0.0
8.611,0.151,-0.91,0.0
0.0,0.0,0.0,0.0
7.947,0.138,-0.934,0.0
7.613,0.131,-0.939,0.0
9.453,0.16,-0.902,0.0
8.992,0.151,-0.91,0.0
8.527,0.143,-0.912,0.0
0.0,0.0,0.0,0.0
7.859,0.13,-0.933,0.0
7.519,0.124,-0.936,0.0
9.324,0.15,-0.9,0.0
8.98,0.144,-0.919,0.0
8.469,0.135,-0.916,0.0
0.0,0.0,0.0,0.0
7.798,0.122,-0.935,0.0
7.486,0.117,-0.941,0.0
9.237,0.141,-0.902,0.0
8.815,0.134,-0.912,0.0
8.464,0.128,-0.925,0.0
0.0,0.0,0.0,0.0
7.746,0.115,-0.937,0.0
7.39,0.109,-0.937,0.0
9.165,0.132,-0.905,0.0
8.737,0.125,-0.914,0.0
8.32,0.118,-0.918,0.0
0.0,0.0,0.0,0.0
7.677,0.107,-0.937,0.0
7.36,0.102,-0.941,0.0
9.109,0.123,-0.91,0.0
8.738,0.117,-0.923,0.0
8.271,0.11,-0.922,0.0
0.0,0.0,0.0,0.0
7.622,0.1,-0.939,0.0
0.0,0.0,0.0,0.0
9.007,0.114,-0.909,0.0
8.609,0.108,-0.918,0.0
8.24,0.102,-0.927,0.0
7.847,0.096,-0.929,0.0
7.548,0.092,-0.937,0.0
7.244,0.087,-0.942,0.0
9.003,0.106,-0.917,0.0
8.514,0.099,-0.916,0.0
8.175,0.094,-0.927,0.0
7.831,0.089,-0.934,0.0
7.52,0.084,-0.941,0.0
7.206,0.08,-0.944,0.0
8.881,0.096,-0.913,0.0
8.447,0.09,-0.917,0.0
0.0,0.0,0.0,0.0
7.756,0.08,-0.933,0.0
7.423,0.076,-0.936,0.0
7.149,0.072,-0.943,0.0
8.752,0.086,-0.908,0.0
8.397,0.081,-0.919,0.0
8.041,0.077,-0.927,0.0
0.0,0.0,0.0,0.0
7.411,0.069,-0.941,0.0
0.0,0.0,0.0,0.0
8.679,0.077,-0.908,0.0
8.33,0.072,-0.919,0.0
7.962,0.068,-0.924,0.0
0.0,0.0,0.0,0.0
0.0,0.0,0.0,0.0
0.0,0.0,0.0,0.0
8.662,0.068,-0.913,0.0
8.248,0.063,-0.917,0.0
7.911,0.06,-0.925,0.0
7.555,0.056,-0.928,0.0
0.0,0.0,0.0,0.0
0.0,0.0,0.0,0.0
8.629,0.059,-0.916,0.0
8.267,0.055,-0.926,0.0
7.946,0.052,-0.935,0.0
0.0,0.0,0.0,0.0
0.0,0.0,0.0,0.0
0.0,0.0,0.0,0.0
8.557,0.05,-0.915,0.0
8.232,0.046,-0.928,0.0
7.838,0.043,-0.928,0.0
0.0,0.0,0.0,0.0
0.0,0.0,0.0,0.0
0.0,0.0,0.0,0.0
8.511,0.04,-0.916,0.0
8.213,0.038,-0.931,0.0
0.0,0.0,0.0,0.0
0.0,0.0,0.0,0.0
0.0,0.0,0.0,0.0
6.946,0.028,-0.948,0.0
8.437,0.031,-0.914,0.0
8.149,0.029,-0.929,0.0
0.0,0.0,0.0,0.0
0.0,0.0,0.0,0.0
0.0,0.0,0.0,0.0
6.918,0.02,-0.949,0.0
8.43,0.022,-0.918,0.0
8.079,0.02,-0.926,0.0
7.745,0.018,-0.932,0.0
0.0,0.0,0.0,0.0
7.172,0.014,-0.947,0.0
0.0,0.0,0.0,0.0
8.37,0.013,-0.916,0.0
8.069,0.011,-0.929,0.0
7.715,0.009,-0.933,0.0
0.0,0.0,0.0,0.0
0.0,0.0,0.0,0.0
0.0,0.0,0.0,0.0
8.363,0.004,-0.92,0.0
8.04,0.002,-0.93,0.0
7.694,0.001,-0.934,0.0
0.0,0.0,0.0,0.0
0.0,0.0,0.0,0.0
0.0,0.0,0.0,0.0
8.356,-0.005,-0.923,0.0
8.007,-0.006,-0.93,0.0
7.679,-0.007,-0.936,0.0
0.0,0.0,0.0,0.0
0.0,0.0,0.0,0.0
0.0,0.0,0.0,0.0
8.3,-0.014,-0.921,0.0
7.955,-0.015,-0.928,0.0
7.607,-0.015,-0.93,0.0
0.0,0.0,0.0,0.0
0.0,0.0,0.0,0.0
0.0,0.0,0.0,0.0
8.288,-0.023,-0.922,0.0
7.916,-0.023,-0.926,0.0
7.656,-0.024,-0.939,0.0
0.0,0.0,0.0,0.0
0.0,0.0,0.0,0.0
0.0,0.0,0.0,0.0
8.277,-0.032,-0.924,0.0
7.919,-0.032,-0.929,0.0
7.648,-0.033,-0.941,0.0
0.0,0.0,0.0,0.0
0.0,0.0,0.0,0.0
6.749,-0.033,-0.947,0.0
8.268,-0.042,-0.925,0.0
7.931,-0.041,-0.933,0.0
7.646,-0.041,-0.943,0.0
0.0,0.0,0.0,0.0
0.0,0.0,0.0,0.0
0.0,0.0,0.0,0.0
8.245,-0.051,-0.925,0.0
7.938,-0.05,-0.936,0.0
7.574,-0.05,-0.936,0.0
0.0,0.0,0.0,0.0
0.0,0.0,0.0,0.0
6.765,-0.048,-0.952,0.0
8.239,-0.06,-0.926,0.0
7.865,-0.059,-0.928,0.0
7.583,-0.058,-0.938,0.0
0.0,0.0,0.0,0.0
0.0,0.0,0.0,0.0
6.743,-0.055,-0.95,0.0
8.161,-0.069,-0.918,0.0
7.853,-0.068,-0.928,0.0
7.66,-0.067,-0.949,0.0
0.0,0.0,0.0,0.0
0.0,0.0,0.0,0.0
6.775,-0.064,-0.956,0.0
8.233,-0.079,-0.927,0.0
7.868,-0.077,-0.931,0.0
7.615,-0.076,-0.944,0.0
0.0,0.0,0.0,0.0
0.0,0.0,0.0,0.0
6.729,-0.071,-0.95,0.0
8.187,-0.088,-0.923,0.0
7.893,-0.086,-0.934,0.0
7.543,-0.084,-0.935,0.0
0.0,0.0,0.0,0.0
0.0,0.0,0.0,0.0
6.756,-0.079,-0.954,0.0
8.211,-0.097,-0.926,0.0
7.853,-0.094,-0.929,0.0
7.561,-0.092,-0.938,0.0
0.0,0.0,0.0,0.0
0.0,0.0,0.0,0.0
6.772,-0.087,-0.956,0.0
8.182,-0.106,-0.922,0.0
7.848,-0.103,-0.929,0.0
7.565,-0.101,-0.938,0.0
0.0,0.0,0.0,0.0
0.0,0.0,0.0,0.0
6.749,-0.094,-0.952,0.0
8.214,-0.116,-0.925,0.0
7.855,-0.112,-0.929,0.0
7.584,-0.11,-0.939,0.0
0.0,0.0,0.0,0.0
0.0,0.0,0.0,0.0
6.724,-0.102,-0.948,0.0
8.178,-0.125,-0.92,0.0
7.886,-0.122,-0.931,0.0
7.592,-0.119,-0.939,0.0
0.0,0.0,0.0,0.0
0.0,0.0,0.0,0.0
6.741,-0.109,-0.949,0.0
8.264,-0.135,-0.928,0.0
7.894,-0.131,-0.931,0.0
7.58,-0.127,-0.937,0.0
0.0,0.0,0.0,0.0
0.0,0.0,0.0,0.0
0.0,0.0,0.0,0.0
8.213,-0.143,-0.921,0.0
7.908,-0.14,-0.931,0.0
7.615,-0.136,-0.939,0.0
0.0,0.0,0.0,0.0
0.0,0.0,0.0,0.0
0.0,0.0,0.0,0.0
8.26,-0.153,-0.924,0.0
7.929,-0.149,-0.931,0.0
7.691,-0.146,-0.946,0.0
0.0,0.0,0.0,0.0
0.0,0.0,0.0,0.0
0.0,0.0,0.0,0.0
8.267,-0.163,-0.922,0.0
7.959,-0.158,-0.932,0.0
7.598,-0.152,-0.933,0.0
0.0,0.0,0.0,0.0
7.075,-0.145,-0.948,0.0
0.0,0.0,0.0,0.0
8.301,-0.172,-0.923,0.0
7.97,-0.167,-0.931,0.0
0.0,0.0,0.0,0.0
0.0,0.0,0.0,0.0
7.159,-0.154,-0.957,0.0
0.0,0.0,0.0,0.0
8.329,-0.182,-0.923,0.0
7.982,-0.176,-0.929,0.0
0.0,0.0,0.0,0.0
0.0,0.0,0.0,0.0
7.109,-0.161,-0.947,0.0
0.0,0.0,0.0,0.0
8.363,-0.191,-0.923,0.0
8.029,-0.185,-0.931,0.0
0.0,0.0,0.0,0.0
0.0,0.0,0.0,0.0
0.0,0.0,0.0,0.0
0.0,0.0,0.0,0.0
8.379,-0.201,-0.921,0.0
8.048,-0.194,-0.929,0.0
0.0,0.0,0.0,0.0
0.0,0.0,0.0,0.0
7.17,-0.177,-0.948,0.0
0.0,0.0,0.0,0.0
8.418,-0.21,-0.921,0.0
8.092,-0.204,-0.93,0.0
0.0,0.0,0.0,0.0
0.0,0.0,0.0,0.0
0.0,0.0,0.0,0.0
0.0,0.0,0.0,0.0
8.442,-0.22,-0.918,0.0
8.099,-0.212,-0.926,0.0
7.821,-0.206,-0.937,0.0
0.0,0.0,0.0,0.0
0.0,0.0,0.0,0.0
6.931,-0.187,-0.947,0.0
8.507,-0.23,-0.92,0.0
8.174,-0.222,-0.929,0.0
7.874,-0.216,-0.939,0.0
0.0,0.0,0.0,0.0
0.0,0.0,0.0,0.0
6.977,-0.196,-0.949,0.0
8.543,-0.239,-0.919,0.0
8.201,-0.231,-0.927,0.0
7.888,-0.224,-0.935,0.0
0.0,0.0,0.0,0.0
0.0,0.0,0.0,0.0
7.055,-0.204,-0.954,0.0
8.614,-0.25,-0.92,0.0
8.23,-0.24,-0.924,0.0
7.957,-0.234,-0.938,0.0
0.0,0.0,0.0,0.0
7.271,-0.216,-0.938,0.0
7.051,-0.211,-0.949,0.0
8.701,-0.26,-0.923,0.0
8.295,-0.25,-0.926,0.0
7.95,-0.241,-0.931,0.0
0.0,0.0,0.0,0.0
7.325,-0.225,-0.939,0.0
7.048,-0.218,-0.943,0.0
8.695,-0.268,-0.916,0.0
8.336,-0.259,-0.924,0.0
8.002,-0.25,-0.931,0.0
0.0,0.0,0.0,0.0
7.355,-0.233,-0.937,0.0
7.136,-0.227,-0.949,0.0
8.802,-0.28,-0.92,0.0
8.423,-0.269,-0.926,0.0
8.062,-0.259,-0.931,0.0
0.0,0.0,0.0,0.0
7.467,-0.243,-0.945,0.0
0.0,0.0,0.0,0.0
8.865,-0.29,-0.919,0.0
8.436,-0.277,-0.92,0.0
8.109,-0.268,-0.929,0.0
7.808,-0.259,-0.938,0.0
7.546,-0.252,-0.948,0.0
7.252,-0.244,-0.951,0.0
8.905,-0.299,-0.915,0.0
8.55,-0.288,-0.925,0.0
8.203,-0.278,-0.932,0.0
7.845,-0.267,-0.935,0.0
7.592,-0.26,-0.947,0.0
7.243,-0.249,-0.943,0.0
9.017,-0.31,-0.918,0.0
8.523,-0.294,-0.914,0.0
8.237,-0.286,-0.928,0.0
7.893,-0.275,-0.933,0.0
7.605,-0.267,-0.941,0.0
7.324,-0.258,-0.946,0.0
9.011,-0.317,-0.908,0.0
0.0,0.0,0.0,0.0
8.306,-0.295,-0.928,0.0
7.949,-0.284,-0.932,0.0
7.671,-0.275,-0.941,0.0
7.385,-0.266,-0.946,0.0
9.11,-0.328,-0.909,0.0
8.746,-0.316,-0.92,0.0
8.319,-0.302,-0.92,0.0
8.001,-0.292,-0.93,0.0
7.698,-0.282,-0.936,0.0
7.408,-0.273,-0.942,0.0
9.182,-0.337,-0.907,0.0
8.756,-0.323,-0.912,0.0
8.43,-0.312,-0.924,0.0
8.076,-0.301,-0.93,0.0
7.772,-0.291,-0.937,0.0
7.501,-0.282,-0.945,0.0
9.348,-0.35,-0.913,0.0
8.899,-0.335,-0.917,0.0
8.505,-0.321,-0.923,0.0
8.173,-0.31,-0.932,0.0
7.849,-0.299,-0.937,0.0
7.563,-0.29,-0.944,0.0
9.358,-0.357,-0.903,0.0
8.945,-0.343,-0.912,0.0
8.578,-0.33,-0.92,0.0
8.264,-0.32,-0.932,0.0
7.905,-0.307,-0.935,0.0
7.639,-0.298,-0.945,0.0
9.47,-0.368,-0.903,0.0
9.068,-0.354,-0.913,0.0
8.675,-0.34,-0.921,0.0
8.284,-0.326,-0.925,0.0
8.004,-0.316,-0.937,0.0
7.678,-0.304,-0.94,0.0
9.582,-0.379,-0.902,0.0
9.119,-0.362,-0.908,0.0
8.77,-0.349,-0.92,0.0
8.38,-0.335,-0.925,0.0
8.073,-0.324,-0.935,0.0
7.738,-0.312,-0.938,0.0
9.684,-0.389,-0.9,0.0
9.202,-0.371,-0.905,0.0
8.829,-0.357,-0.915,0.0
0.0,0.0,0.0,0.0
8.165,-0.333,-0.935,0.0
7.837,-0.32,-0.94,0.0
9.785,-0.399,-0.897,0.0
9.374,-0.383,-0.909,0.0
8.943,-0.367,-0.916,0.0
0.0,0.0,0.0,0.0
8.214,-0.339,-0.93,0.0
7.899,-0.328,-0.937,0.0
9.856,-0.407,-0.891,0.0
9.442,-0.392,-0.904,0.0
9.047,-0.376,-0.914,0.0
8.689,-0.363,-0.926,0.0
8.329,-0.349,-0.932,0.0
7.974,-0.335,-0.935,0.0
9.996,-0.418,-0.89,0.0
9.612,-0.404,-0.907,0.0
9.093,-0.383,-0.907,0.0
0.0,0.0,0.0,0.0
8.455,-0.358,-0.935,0.0
8.082,-0.343,-0.937,0.0
10.146,-0.43,-0.89,0.0
9.702,-0.412,-0.902,0.0
9.243,-0.394,-0.909,0.0
0.0,0.0,0.0,0.0
8.47,-0.363,-0.925,0.0
8.121,-0.349,-0.93,0.0
10.26,-0.439,-0.886,0.0
9.782,-0.42,-0.896,0.0
9.331,-0.402,-0.905,0.0
8.954,-0.387,-0.917,0.0
8.607,-0.373,-0.928,0.0
8.201,-0.356,-0.928,0.0
10.399,-0.45,-0.883,0.0
9.905,-0.429,-0.894,0.0
9.511,-0.413,-0.909,0.0
9.041,-0.394,-0.913,0.0
8.702,-0.38,-0.925,0.0
8.348,-0.366,-0.932,0.0
10.524,-0.459,-0.878,0.0
10.064,-0.44,-0.893,0.0
9.638,-0.423,-0.907,0.0
9.162,-0.403,-0.912,0.0
8.767,-0.386,-0.919,0.0
8.452,-0.373,-0.931,0.0
10.675,-0.47,-0.875,0.0
10.184,-0.449,-0.889,0.0
9.737,-0.43,-0.902,0.0
9.294,-0.412,-0.911,0.0
8.939,-0.397,-0.924,0.0
8.551,-0.381,-0.929,0.0
10.865,-0.482,-0.875,0.0
10.327,-0.459,-0.886,0.0
9.839,-0.438,-0.896,0.0
9.462,-0.422,-0.913,0.0
9.037,-0.404,-0.92,0.0
8.64,-0.387,-0.926,0.0
11.014,-0.491,-0.87,0.0
10.484,-0.469,-0.883,0.0
10.022,-0.449,-0.898,0.0
9.515,-0.427,-0.904,0.0
9.133,-0.411,-0.916,0.0
8.763,-0.395,-0.925,0.0
11.179,-0.502,-0.865,0.0
10.631,-0.478,-0.879,0.0
10.151,-0.457,-0.893,0.0
9.692,-0.437,-0.905,0.0
9.222,-0.417,-0.91,0.0
8.863,-0.401,-0.922,0.0
11.365,-0.513,-0.862,0.0
10.81,-0.488,-0.877,0.0
10.254,-0.464,-0.886,0.0
9.794,-0.444,-0.899,0.0
9.426,-0.428,-0.915,0.0
8.981,-0.408,-0.92,0.0
11.597,-0.525,-0.861,0.0
10.961,-0.497,-0.872,0.0
10.429,-0.474,-0.885,0.0
9.911,-0.451,-0.894,0.0
9.525,-0.434,-0.91,0.0
9.071,-0.414,-0.914,0.0
11.795,-0.536,-0.857,0.0
11.129,-0.506,-0.867,0.0
10.592,-0.482,-0.881,0.0
10.104,-0.461,-0.895,0.0
9.699,-0.443,-0.91,0.0
9.234,-0.422,-0.915,0.0
12.04,-0.548,-0.855,0.0
11.333,-0.516,-0.864,0.0
10.781,-0.492,-0.879,0.0
10.249,-0.468,-0.891,0.0
9.787,-0.447,-0.902,0.0
9.379,-0.429,-0.914,0.0
12.291,-0.56,-0.853,0.0
11.541,-0.527,-0.861,0.0
10.97,-0.501,-0.876,0.0
10.405,-0.476,-0.887,0.0
9.905,-0.453,-0.896,0.0
9.486,-0.434,-0.909,0.0
12.566,-0.573,-0.851,0.0
11.781,-0.538,-0.859,0.0
11.106,-0.507,-0.868,0.0
10.563,-0.483,-0.883,0.0
10.102,-0.462,-0.897,0.0
9.61,-0.44,-0.904,0.0
12.905,-0.589,-0.852,0.0
12.037,-0.549,-0.858,0.0
11.329,-0.517,-0.867,0.0
10.755,-0.491,-0.88,0.0
10.24,-0.468,-0.892,0.0
9.772,-0.447,-0.903,0.0
13.217,-0.602,-0.85,0.0
12.304,-0.561,-0.855,0.0
11.54,-0.526,-0.863,0.0
10.956,-0.5,-0.878,0.0
10.414,-0.475,-0.889,0.0
9.919,-0.453,-0.899,0.0
13.459,-0.612,-0.842,0.0
12.484,-0.568,-0.846,0.0
11.78,-0.536,-0.86,0.0
11.072,-0.504,-0.868,0.0
10.556,-0.48,-0.883,0.0
10.109,-0.46,-0.898,0.0
13.773,-0.624,-0.838,0.0
12.912,-0.585,-0.853,0.0
12.025,-0.545,-0.857,0.0
11.307,-0.513,-0.867,0.0
10.751,-0.487,-0.88,0.0
10.229,-0.464,-0.891,0.0
14.091,-0.636,-0.833,0.0
13.273,-0.599,-0.854,0.0
12.311,-0.556,-0.856,0.0
11.533,-0.521,-0.864,0.0
10.954,-0.494,-0.878,0.0
10.421,-0.47,-0.89,0.0
14.473,-0.65,-0.83,0.0
13.525,-0.608,-0.846,0.0
12.561,-0.564,-0.852,0.0
11.769,-0.528,-0.861,0.0
11.142,-0.5,-0.873,0.0
10.585,-0.475,-0.885,0.0
14.785,-0.661,-0.822,0.0
13.825,-0.617,-0.841,0.0
12.94,-0.578,-0.854,0.0
12.061,-0.538,-0.86,0.0
11.342,-0.506,-0.868,0.0
10.773,-0.48,-0.881,0.0
15.236,-0.676,-0.82,0.0
14.122,-0.626,-0.833,0.0
13.318,-0.59,-0.855,0.0
12.344,-0.547,-0.858,0.0
11.56,-0.512,-0.864,0.0
10.978,-0.486,-0.878,0.0
15.547,-0.685,-0.809,0.0
14.45,-0.636,-0.827,0.0
13.481,-0.593,-0.841,0.0
12.595,-0.553,-0.853,0.0
11.812,-0.518,-0.862,0.0
11.155,-0.489,-0.872,0.0
16.015,-0.699,-0.804,0.0
14.838,-0.647,-0.822,0.0
13.87,-0.604,-0.841,0.0
13.008,-0.566,-0.858,0.0
12.101,-0.526,-0.861,0.0
11.385,-0.495,-0.87,0.0
16.623,-0.719,-0.805,0.0
15.22,-0.658,-0.816,0.0
14.114,-0.609,-0.83,0.0
13.263,-0.571,-0.851,0.0
12.369,-0.532,-0.858,0.0
11.613,-0.499,-0.866,0.0
17.036,-0.729,-0.795,0.0
15.772,-0.674,-0.818,0.0
14.477,-0.618,-0.826,0.0
13.509,-0.576,-0.842,0.0
12.644,-0.538,-0.854,0.0
11.836,-0.503,-0.861,0.0
17.499,-0.74,-0.785,0.0
15.946,-0.673,-0.798,0.0
14.881,-0.627,-0.822,0.0
13.875,-0.584,-0.84,0.0
12.984,-0.546,-0.854,0.0
12.166,-0.51,-0.863,0.0
17.951,-0.75,-0.773,0.0
16.574,-0.691,-0.799,0.0
15.247,-0.634,-0.815,0.0
14.227,-0.591,-0.835,0.0
13.356,-0.554,-0.854,0.0
12.426,-0.514,-0.859,0.0
18.523,-0.763,-0.764,0.0
17.061,-0.701,-0.792,0.0
15.605,-0.64,-0.805,0.0
14.594,-0.597,-0.83,0.0
13.607,-0.556,-0.845,0.0
12.771,-0.52,-0.86,0.0
18.995,-0.771,-0.749,0.0
17.471,-0.707,-0.779,0.0
16.076,-0.649,-0.801,0.0
14.944,-0.602,-0.823,0.0
13.988,-0.562,-0.843,0.0
13.085,-0.524,-0.857,0.0
19.75,-0.788,-0.743,0.0
18.087,-0.72,-0.774,0.0
16.687,-0.662,-0.801,0.0
15.332,-0.607,-0.817,0.0
14.299,-0.565,-0.836,0.0
13.362,-0.526,-0.851,0.0
20.608,-0.808,-0.738,0.0
18.595,-0.727,-0.762,0.0
17.184,-0.67,-0.793,0.0
15.823,-0.615,-0.814,0.0
14.64,-0.567,-0.83,0.0
13.651,-0.528,-0.845,0.0
21.261,-0.818,-0.723,0.0
19.271,-0.739,-0.755,0.0
17.592,-0.672,-0.78,0.0
16.194,-0.617,-0.804,0.0
14.998,-0.57,-0.823,0.0
14.044,-0.532,-0.843,0.0
21.995,-0.829,-0.708,0.0
19.895,-0.747,-0.744,0.0
18.188,-0.681,-0.774,0.0
16.669,-0.622,-0.798,0.0
15.376,-0.572,-0.816,0.0
14.352,-0.532,-0.836,0.0
23.119,-0.852,-0.702,0.0
20.621,-0.757,-0.734,0.0
18.708,-0.684,-0.763,0.0
17.308,-0.631,-0.797,0.0
15.82,-0.575,-0.811,0.0
14.683,-0.531,-0.829,0.0
23.804,-0.857,-0.681,0.0
21.569,-0.773,-0.729,0.0
19.284,-0.689,-0.751,0.0
17.59,-0.626,-0.779,0.0
16.32,-0.578,-0.807,0.0
15.057,-0.531,-0.823,0.0
25.682,-0.901,-0.689,0.0
22.312,-0.78,-0.714,0.0
20.12,-0.7,-0.748,0.0
18.331,-0.635,-0.779,0.0
16.77,-0.578,-0.8,0.0
15.621,-0.536,-0.826,0.0
26.488,-0.905,-0.663,0.0
23.371,-0.795,-0.706,0.0
20.659,-0.699,-0.731,0.0
18.755,-0.632,-0.763,0.0
17.28,-0.579,-0.793,0.0
15.97,-0.533,-0.816,0.0
27.568,-0.915,-0.641,0.0
24.088,-0.795,-0.685,0.0
21.902,-0.719,-0.737,2.0
19.343,-0.632,-0.753,0.0
17.702,-0.576,-0.781,0.0
16.411,-0.531,-0.81,0.0
29.094,-0.936,-0.626,0.0
24.655,-0.789,-0.658,0.0
21.93,-0.698,-0.7,4.0
20.112,-0.637,-0.748,0.0
18.203,-0.573,-0.772,0.0
16.845,-0.528,-0.802,0.0
30.1,-0.937,-0.595,0.0
21.874,-0.677,-0.546,0.0
21.964,-0.676,-0.662,0.0
20.932,-0.64,-0.742,0.0
18.735,-0.57,-0.762,0.0
17.389,-0.526,-0.798,0.0
0.0,0.0,0.0,0.0
21.899,-0.654,-0.509,2.0
21.903,-0.65,-0.623,36.0
21.828,-0.644,-0.737,4.0
21.902,-0.642,-0.853,2.0
17.987,-0.524,-0.794,1.0
34.302,-0.993,-0.561,0.0
21.918,-0.63,-0.472,6.0
21.844,-0.623,-0.584,164.0
21.867,-0.62,-0.7,74.0
0.0,0.0,0.0,0.0
21.878,-0.612,-0.929,8.0
35.567,-0.988,-0.52,0.0
21.897,-0.604,-0.434,12.0
21.869,-0.598,-0.547,222.0
21.872,-0.594,-0.663,150.0
21.873,-0.59,-0.777,11.0
21.895,-0.586,-0.892,5.0
38.153,-1.014,-0.493,0.0
0.0,0.0,0.0,0.0
21.918,-0.573,-0.512,154.0
21.895,-0.568,-0.627,151.0
18.126,-0.467,-0.613,155.0
18.131,-0.463,-0.708,37.0
43.576,-1.104,-0.49,0.0
34.495,-0.867,-0.567,0.0
29.513,-0.736,-0.639,0.0
21.909,-0.541,-0.591,43.0
18.108,-0.443,-0.583,157.0
18.145,-0.44,-0.678,150.0
45.021,-1.083,-0.431,0.0
0.0,0.0,0.0,0.0
30.571,-0.722,-0.611,0.0
26.571,-0.622,-0.673,0.0
18.148,-0.421,-0.554,150.0
18.101,-0.416,-0.647,162.0
48.501,-1.104,-0.385,0.0
0.0,0.0,0.0,0.0
31.951,-0.713,-0.586,0.0
0.0,0.0,0.0,0.0
18.158,-0.397,-0.524,4.0
18.119,-0.392,-0.618,155.0
0.0,0.0,0.0,0.0
0.0,0.0,0.0,0.0
0.0,0.0,0.0,0.0
0.0,0.0,0.0,0.0
24.937,-0.511,-0.68,0.0
18.148,-0.368,-0.59,0.0
0.0,0.0,0.0,0.0
44.923,-0.89,-0.445,1.0
0.0,0.0,0.0,0.0
30.427,-0.589,-0.622,0.0
26.275,-0.502,-0.675,0.0
23.121,-0.436,-0.715,0.0
0.0,0.0,0.0,0.0
46.015,-0.848,-0.383,1.0
0.0,0.0,0.0,0.0
31.942,-0.573,-0.603,0.0
27.114,-0.479,-0.653,0.0
23.688,-0.413,-0.695,0.0
0.0,0.0,0.0,0.0
50.185,-0.853,-0.34,1.0
0.0,0.0,0.0,0.0
0.0,0.0,0.0,0.0
28.985,-0.471,-0.654,0.0
24.799,-0.397,-0.689,0.0
0.0,0.0,0.0,0.0
0.0,0.0,0.0,0.0
0.0,0.0,0.0,0.0
0.0,0.0,0.0,0.0
0.0,0.0,0.0,0.0
25.969,-0.376,-0.682,0.0
0.0,0.0,0.0,0.0
58.587,-0.821,-0.216,0.0
46.875,-0.645,-0.419,1.0
37.43,-0.506,-0.535,0.0
30.616,-0.405,-0.598,0.0
26.499,-0.344,-0.656,0.0
0.0,0.0,0.0,0.0
0.0,0.0,0.0,0.0
47.404,-0.58,-0.353,0.0
0.0,0.0,0.0,0.0
0.0,0.0,0.0,0.0
27.93,-0.319,-0.65,0.0
0.0,0.0,0.0,0.0
0.0,0.0,0.0,0.0
51.053,-0.544,-0.305,1.0
41.464,-0.431,-0.47,0.0
0.0,0.0,0.0,0.0
28.941,-0.285,-0.632,0.0
119.771,-1.152,0.713,16.0
0.0,0.0,0.0,0.0
0.0,0.0,0.0,0.0
0.0,0.0,0.0,0.0
35.706,-0.305,-0.541,0.0
30.294,-0.25,-0.618,0.0
119.665,-0.96,0.882,9.0
0.0,0.0,0.0,0.0
0.0,0.0,0.0,0.0
0.0,0.0,0.0,0.0
0.0,0.0,0.0,0.0
31.257,-0.208,-0.595,0.0
119.674,-0.766,1.048,16.0
0.0,0.0,0.0,0.0
0.0,0.0,0.0,0.0
50.988,-0.283,-0.363,0.0
0.0,0.0,0.0,0.0
33.181,-0.166,-0.586,0.0
119.761,-0.568,1.212,15.0
104.791,-0.468,0.508,1.0
0.0,0.0,0.0,0.0
0.0,0.0,0.0,0.0
45.009,-0.163,-0.498,0.0
35.26,-0.118,-0.576,0.0
119.721,-0.367,1.372,15.0
111.051,-0.308,0.687,10.0
0.0,0.0,0.0,0.0
0.0,0.0,0.0,0.0
45.491,-0.087,-0.443,1.0
35.532,-0.058,-0.534,0.0
117.402,-0.159,1.5,14.0
111.253,-0.119,0.833,8.0
95.137,-0.075,0.209,1.0
0.0,0.0,0.0,0.0
45.78,-0.01,-0.387,1.0
37.67,0.002,-0.518,0.0
111.064,0.041,1.561,13.0
111.163,0.074,0.975,11.0
0.0,0.0,0.0,0.0
0.0,0.0,0.0,0.0
50.179,0.076,-0.362,0.0
39.786,0.072,-0.497,0.0
119.873,0.253,1.834,48.0
111.114,0.266,1.111,10.0
103.893,0.279,0.489,8.0
0.0,0.0,0.0,0.0
51.438,0.168,-0.308,0.0
42.703,0.152,-0.482,0.0
119.87,0.462,1.978,14.0
111.102,0.461,1.244,23.0
104.329,0.463,0.615,7.0
88.265,0.42,0.044,1.0
54.875,0.276,-0.263,0.0
43.072,0.23,-0.435,0.0
111.067,0.626,1.964,31.0
111.058,0.66,1.375,24.0
104.869,0.654,0.741,21.0
85.973,0.562,0.143,7.0
0.0,0.0,0.0,0.0
0.0,0.0,0.0,0.0
104.79,0.782,1.975,16.0
100.891,0.784,1.366,1.0
104.763,0.844,0.861,15.0
85.284,0.713,0.239,5.0
0.0,0.0,0.0,0.0
48.764,0.437,-0.382,0.0
100.056,0.93,1.999,2.0
98.741,0.948,1.447,17.0
98.585,0.977,0.921,21.0
85.485,0.873,0.334,8.0
0.0,0.0,0.0,0.0
50.396,0.545,-0.339,0.0
98.592,1.1,2.078,27.0
98.559,1.129,1.551,31.0
98.53,1.159,1.026,28.0
85.412,1.031,0.426,8.0
78.571,0.972,-0.027,1.0
52.867,0.67,-0.3,0.0
98.543,1.283,2.181,29.0
98.572,1.314,1.656,29.0
98.577,1.343,1.129,31.0
92.067,1.283,0.554,8.0
76.525,1.091,0.052,2.0
0.0,0.0,0.0,0.0
119.944,1.788,2.778,12.0
92.009,1.4,1.639,11.0
91.962,1.427,1.147,39.0
91.818,1.453,0.644,19.0
77.465,1.25,0.129,3.0
0.0,0.0,0.0,0.0
91.89,1.542,2.218,33.0
91.852,1.571,1.726,38.0
91.902,1.599,1.234,39.0
91.834,1.626,0.732,26.0
74.078,1.335,0.194,3.0
0.0,0.0,0.0,0.0
91.565,1.71,2.297,11.0
88.026,1.672,1.737,1.0
87.425,1.688,1.256,37.0
85.525,1.677,0.761,12.0
78.203,1.558,0.277,6.0
70.059,1.417,-0.126,1.0
85.378,1.759,2.22,22.0
85.311,1.785,1.761,35.0
85.285,1.81,1.302,38.0
85.242,1.835,0.835,37.0
84.771,1.852,0.375,8.0
68.571,1.52,-0.063,2.0
85.23,1.922,2.292,33.0
85.231,1.948,1.833,37.0
85.259,1.974,1.375,36.0
85.23,2.001,0.909,36.0
84.961,2.021,0.449,10.0
67.126,1.617,-0.005,3.0
85.319,2.089,2.366,24.0
85.393,2.117,1.908,10.0
119.982,3.012,2.035,14.0
78.984,2.007,0.907,29.0
78.855,2.028,0.48,16.0
70.856,1.845,0.05,5.0
78.871,2.085,2.251,29.0
78.863,2.11,1.826,33.0
78.8,2.133,1.4,15.0
76.959,2.106,0.944,5.0
78.824,2.183,0.542,15.0
70.99,1.988,0.106,10.0
78.846,2.24,2.311,27.0
76.523,2.197,1.83,6.0
74.91,2.174,1.387,9.0
74.229,2.177,0.966,4.0
78.911,2.339,0.601,15.0
71.226,2.134,0.158,13.0
206.436,6.274,6.204,19.0
74.323,2.282,1.832,6.0
120.013,3.721,2.308,7.0
72.49,2.269,0.995,10.0
72.414,2.29,0.603,33.0
71.531,2.284,0.208,14.0
72.484,2.345,2.228,26.0
72.447,2.366,1.835,34.0
72.399,2.388,1.442,35.0
72.352,2.408,1.042,38.0
72.347,2.43,0.65,29.0
71.672,2.43,0.256,15.0
72.398,2.486,2.273,33.0
72.386,2.508,1.88,36.0
72.364,2.529,1.487,33.0
72.348,2.551,1.087,30.0
72.359,2.573,0.695,27.0
71.892,2.58,0.302,14.0
72.458,2.631,2.319,24.0
72.5,2.655,1.927,20.0
120.087,4.436,2.541,16.0
120.086,4.472,1.876,11.0
119.982,4.505,1.224,14.0
71.882,2.721,0.343,9.0
210.432,8.06,6.859,6.0
195.043,7.531,5.297,13.0
194.138,7.555,4.217,20.0
120.095,4.71,1.943,28.0
119.975,4.742,1.289,16.0
66.141,2.635,0.351,22.0
66.142,2.664,2.191,21.0
66.195,2.686,1.833,8.0
66.212,2.707,1.473,12.0
63.565,2.619,1.062,7.0
62.369,2.589,0.702,7.0
66.051,2.762,0.384,21.0
66.039,2.793,2.221,29.0
64.633,2.752,1.822,18.0
62.959,2.7,1.431,12.0
50.781,2.193,0.872,9.0
66.053,2.872,0.774,27.0
66.059,2.893,0.415,19.0
66.127,2.927,2.255,18.0
62.719,2.795,1.796,11.0
61.18,2.745,1.418,16.0
50.505,2.281,0.89,15.0
66.133,3.008,0.804,13.0
66.187,3.03,0.444,13.0
0.0,0.0,0.0,0.0
61.05,2.843,1.774,10.0
50.845,2.383,1.199,4.0
49.969,2.356,0.901,10.0
49.279,2.339,0.619,4.0
120.007,5.733,0.851,14.0
0.0,0.0,0.0,0.0
125.473,6.095,3.694,2.0
50.642,2.474,1.213,16.0
49.605,2.438,0.912,5.0
48.881,2.417,0.631,9.0
120.033,5.971,0.893,15.0
59.478,2.989,2.097,23.0
59.489,3.006,1.771,25.0
50.412,2.562,1.224,24.0
48.968,2.503,0.916,8.0
48.563,2.497,0.642,13.0
59.384,3.071,0.46,25.0
59.407,3.102,2.112,41.0
59.393,3.119,1.786,28.0
50.205,2.651,1.234,12.0
48.621,2.581,0.923,11.0
48.269,2.577,0.652,13.0
59.324,3.185,0.476,25.0
59.474,3.223,2.131,19.0
50.71,2.763,1.538,18.0
49.148,2.692,1.22,13.0
48.278,2.658,0.929,12.0
48.053,2.66,0.66,18.0
59.379,3.305,0.49,17.0
119.695,6.725,4.316,34.0
50.672,2.861,1.548,19.0
48.868,2.773,1.224,12.0
48.015,2.739,0.933,20.0
47.851,2.743,0.667,24.0
47.745,2.751,0.403,3.0
115.501,6.716,4.186,18.0
49.633,2.9,1.525,10.0
48.134,2.826,1.214,8.0
47.815,2.82,0.938,26.0
47.644,2.824,0.672,47.0
113.635,6.769,0.977,8.0
50.933,3.06,1.853,6.0
49.077,2.962,1.515,18.0
47.804,2.899,1.212,15.0
47.589,2.898,0.939,29.0
111.099,6.799,1.58,76.0
111.14,6.833,0.968,43.0
50.251,3.115,1.834,5.0
48.338,3.01,1.497,10.0
47.596,2.978,1.211,24.0
47.496,2.985,0.942,5.0
110.368,6.969,1.579,7.0
110.036,6.98,0.967,6.0
49.481,3.164,1.81,15.0
47.682,3.063,1.48,5.0
47.41,3.058,1.209,59.0
52.338,3.39,1.04,26.0
52.306,3.403,0.75,37.0
52.271,3.415,0.461,37.0
48.633,3.204,1.78,9.0
47.317,3.129,1.47,40.0
52.224,3.468,1.333,43.0
52.208,3.481,1.038,44.0
52.211,3.495,0.749,42.0
52.22,3.511,0.46,28.0
47.959,3.25,1.756,5.0
52.222,3.553,1.621,27.0
52.202,3.566,1.331,37.0
52.177,3.578,1.036,38.0
52.192,3.593,0.747,40.0
52.204,3.608,0.458,29.0
47.182,3.287,1.725,37.0
52.245,3.652,1.62,23.0
52.248,3.667,1.33,23.0
52.242,3.68,1.034,25.0
52.249,3.694,0.744,20.0
52.242,3.708,0.454,20.0
102.082,7.303,3.724,44.0
102.082,7.329,3.157,57.0
102.119,7.358,2.589,52.0
102.174,7.388,2.013,20.0
102.139,7.412,1.445,12.0
101.884,7.421,0.874,8.0
102.0,7.485,3.709,21.0
101.962,7.509,3.14,21.0
101.455,7.496,2.559,6.0
101.165,7.5,1.979,6.0
100.901,7.508,1.412,8.0
100.758,7.524,0.85,10.0
102.005,7.674,3.693,36.0
102.004,7.699,3.124,15.0
100.271,7.593,2.512,9.0
100.085,7.605,1.94,9.0
99.874,7.615,1.379,8.0
99.712,7.629,0.821,10.0
101.382,7.813,3.651,19.0
101.214,7.823,3.079,2.0
99.111,7.686,2.462,6.0
99.016,7.703,1.898,9.0
98.842,7.714,1.343,8.0
98.667,7.725,0.791,7.0
45.957,3.623,1.644,34.0
45.947,3.633,1.387,30.0
45.924,3.643,1.13,24.0
45.906,3.653,0.868,34.0
45.864,3.661,0.611,42.0
45.828,3.669,0.355,40.0
45.832,3.695,1.627,45.0
45.83,3.706,1.371,38.0
45.808,3.715,1.114,43.0
45.797,3.725,0.853,45.0
45.778,3.735,0.597,44.0
45.766,3.746,0.341,35.0
45.808,3.774,1.613,41.0
45.794,3.784,1.355,36.0
45.775,3.793,1.099,41.0
45.773,3.804,0.838,36.0
45.755,3.813,0.582,39.0
45.751,3.824,0.325,28.0
45.821,3.856,1.597,30.0
45.796,3.864,1.34,30.0
45.783,3.873,1.083,31.0
45.775,3.883,0.822,30.0
45.783,3.894,0.565,29.0
45.77,3.905,0.309,24.0
45.9,3.941,1.583,5.0
45.9,3.952,1.325,14.0
45.88,3.96,1.067,15.0
45.848,3.967,0.805,17.0
45.884,3.981,0.548,15.0
45.873,3.991,0.291,13.0
93.125,8.153,3.174,56.0
93.152,8.176,2.652,49.0
