X,Y,Z,Reflectivity
114.297,-0.454,0.88,3.0
0.0,0.0,0.0,0.0
0.0,0.0,0.0,0.0
41.641,-0.19,-0.407,0.0
34.836,-0.166,-0.542,0.0
28.4,-0.142,-0.607,0.0
110.854,-0.578,0.659,3.0
0.0,0.0,0.0,0.0
0.0,0.0,0.0,0.0
40.046,-0.233,-0.461,0.0
0.0,0.0,0.0,0.0
0.0,0.0,0.0,0.0
0.0,0.0,0.0,0.0
0.0,0.0,0.0,0.0
0.0,0.0,0.0,0.0
37.758,-0.268,-0.5,0.0
30.565,-0.224,-0.582,0.0
25.975,-0.196,-0.645,0.0
0.0,0.0,0.0,0.0
0.0,0.0,0.0,0.0
0.0,0.0,0.0,0.0
0.0,0.0,0.0,0.0
29.19,-0.252,-0.605,0.0
25.06,-0.222,-0.665,0.0
79.009,-0.718,0.066,0.0
0.0,0.0,0.0,0.0
41.232,-0.393,-0.442,0.0
0.0,0.0,0.0,0.0
27.666,-0.276,-0.62,0.0
23.944,-0.244,-0.675,0.0
0.0,0.0,0.0,0.0
0.0,0.0,0.0,0.0
0.0,0.0,0.0,0.0
31.091,-0.346,-0.568,0.0
26.786,-0.304,-0.644,0.0
23.098,-0.267,-0.689,0.0
0.0,0.0,0.0,0.0
47.09,-0.568,-0.387,1.0
35.906,-0.441,-0.503,0.0
0.0,0.0,0.0,0.0
25.641,-0.327,-0.658,0.0
22.406,-0.291,-0.704,0.0
0.0,0.0,0.0,0.0
0.0,0.0,0.0,0.0
34.563,-0.474,-0.539,0.0
28.753,-0.401,-0.617,0.0
24.651,-0.349,-0.671,0.0
21.472,-0.309,-0.709,0.0
0.0,0.0,0.0,0.0
0.0,0.0,0.0,0.0
0.0,0.0,0.0,0.0
0.0,0.0,0.0,0.0
23.654,-0.369,-0.681,0.0
20.827,-0.33,-0.72,0.0
46.626,-0.751,-0.333,0.0
37.647,-0.615,-0.486,0.0
30.851,-0.512,-0.576,0.0
26.19,-0.441,-0.643,0.0
22.97,-0.393,-0.697,0.0
20.041,-0.347,-0.723,0.0
44.802,-0.788,-0.388,1.0
35.203,-0.628,-0.508,0.0
29.328,-0.531,-0.592,0.0
25.32,-0.464,-0.66,0.0
22.015,-0.409,-0.701,0.0
19.7,-0.371,-0.741,0.0
44.97,-0.859,-0.456,0.0
33.908,-0.656,-0.539,0.0
28.726,-0.563,-0.622,0.0
24.211,-0.481,-0.666,0.0
18.155,-0.365,-0.604,5.0
18.151,-0.37,-0.709,10.0
0.0,0.0,0.0,0.0
0.0,0.0,0.0,0.0
27.052,-0.571,-0.625,0.0
18.159,-0.388,-0.526,2.0
18.079,-0.391,-0.628,155.0
18.118,-0.397,-0.733,40.0
0.0,0.0,0.0,0.0
30.883,-0.692,-0.579,0.0
0.0,0.0,0.0,0.0
18.161,-0.416,-0.551,151.0
18.145,-0.42,-0.655,152.0
18.103,-0.424,-0.758,19.0
0.0,0.0,0.0,0.0
29.427,-0.705,-0.592,0.0
21.897,-0.53,-0.566,2.0
18.105,-0.443,-0.574,160.0
18.141,-0.449,-0.68,54.0
18.089,-0.453,-0.782,4.0
34.323,-0.867,-0.539,0.0
21.897,-0.559,-0.47,12.0
21.91,-0.565,-0.596,153.0
18.156,-0.473,-0.6,152.0
18.138,-0.477,-0.703,11.0
17.79,-0.473,-0.792,0.0
0.0,0.0,0.0,0.0
21.861,-0.593,-0.497,173.0
21.888,-0.599,-0.624,150.0
21.868,-0.605,-0.751,12.0
21.891,-0.612,-0.878,90.0
21.883,-0.618,-1.003,2.0
21.937,-0.624,-0.401,0.0
21.863,-0.628,-0.525,158.0
21.885,-0.635,-0.651,56.0
21.803,-0.638,-0.776,4.0
18.198,-0.538,-0.753,1.0
16.763,-0.5,-0.789,0.0
0.0,0.0,0.0,0.0
21.896,-0.664,-0.553,3.0
21.901,-0.671,-0.679,4.0
19.832,-0.613,-0.73,0.0
17.946,-0.56,-0.764,0.0
16.448,-0.518,-0.795,0.0
29.125,-0.923,-0.604,0.0
24.725,-0.791,-0.654,0.0
21.923,-0.707,-0.706,15.0
19.459,-0.633,-0.74,0.0
17.623,-0.579,-0.771,0.0
16.232,-0.538,-0.804,0.0
28.107,-0.938,-0.615,0.0
0.0,0.0,0.0,0.0
21.284,-0.722,-0.71,0.0
19.024,-0.651,-0.745,0.0
17.377,-0.599,-0.78,0.0
15.773,-0.549,-0.799,0.0
26.65,-0.933,-0.614,0.0
23.383,-0.826,-0.672,0.0
20.736,-0.738,-0.715,0.0
18.628,-0.668,-0.751,0.0
16.98,-0.614,-0.782,0.0
15.589,-0.569,-0.807,0.0
26.499,-0.972,-0.639,0.0
0.0,0.0,0.0,0.0
20.378,-0.759,-0.724,0.0
18.368,-0.69,-0.76,0.0
16.779,-0.635,-0.79,0.0
15.307,-0.584,-0.809,0.0
25.915,-0.994,-0.652,0.0
0.0,0.0,0.0,0.0
20.047,-0.781,-0.734,0.0
17.926,-0.704,-0.76,0.0
16.429,-0.65,-0.791,0.0
15.095,-0.602,-0.813,0.0
24.839,-0.995,-0.651,0.0
21.901,-0.884,-0.699,0.0
19.566,-0.796,-0.736,0.0
17.618,-0.722,-0.765,0.0
16.193,-0.668,-0.796,0.0
14.872,-0.618,-0.816,0.0
24.258,-1.013,-0.659,0.0
21.487,-0.904,-0.707,0.0
19.217,-0.815,-0.742,0.0
17.442,-0.745,-0.774,0.0
15.907,-0.684,-0.797,0.0
14.736,-0.638,-0.823,0.0
23.878,-1.039,-0.672,0.0
20.889,-0.915,-0.707,0.0
18.863,-0.832,-0.746,0.0
17.289,-0.768,-0.784,0.0
15.797,-0.707,-0.806,0.0
14.464,-0.652,-0.821,0.0
23.159,-1.048,-0.673,0.0
20.771,-0.946,-0.722,0.0
18.603,-0.853,-0.752,0.0
16.814,-0.776,-0.777,0.0
15.515,-0.721,-0.806,0.0
14.33,-0.671,-0.826,0.0
0.0,0.0,0.0,0.0
19.855,-0.939,-0.707,3.0
18.307,-0.871,-0.756,0.0
16.72,-0.801,-0.787,0.0
15.311,-0.738,-0.808,0.0
14.102,-0.685,-0.825,0.0
20.084,-0.979,-0.617,0.0
19.841,-0.973,-0.723,3.0
17.971,-0.887,-0.757,0.0
20.024,-0.994,-0.959,0.0
15.19,-0.759,-0.814,0.0
20.072,-1.01,-1.19,0.0
20.092,-1.014,-0.633,23.0
19.824,-1.007,-0.738,1.0
20.109,-1.027,-0.862,0.0
20.122,-1.034,-0.98,0.0
14.938,-0.773,-0.812,0.0
13.867,-0.722,-0.833,0.0
20.081,-1.048,-0.648,17.0
19.741,-1.037,-0.749,1.0
17.418,-0.92,-0.76,0.0
16.086,-0.855,-0.795,0.0
14.834,-0.793,-0.817,0.0
13.734,-0.739,-0.835,0.0
20.142,-1.087,-0.664,2.0
19.396,-1.053,-0.75,0.0
17.483,-0.955,-0.775,0.0
15.977,-0.877,-0.801,0.0
14.736,-0.814,-0.822,0.0
13.639,-0.758,-0.838,0.0
21.062,-1.174,-0.709,0.0
19.064,-1.068,-0.75,0.0
17.314,-0.976,-0.779,0.0
15.791,-0.895,-0.802,0.0
14.535,-0.829,-0.82,0.0
13.528,-0.776,-0.84,0.0
20.024,-1.151,-0.687,1.0
18.903,-1.092,-0.755,0.0
17.154,-0.997,-0.782,0.0
15.673,-0.916,-0.805,0.0
14.459,-0.849,-0.825,0.0
13.425,-0.793,-0.842,0.0
19.963,-1.182,-0.696,19.0
19.813,-1.18,-0.803,1.0
17.012,-1.018,-0.786,0.0
15.46,-0.93,-0.803,0.0
14.332,-0.867,-0.826,0.0
13.308,-0.81,-0.842,0.0
19.962,-1.217,-0.707,6.0
18.318,-1.122,-0.752,0.0
16.794,-1.034,-0.784,0.0
15.313,-0.948,-0.803,0.0
14.224,-0.886,-0.827,0.0
13.267,-0.83,-0.846,0.0
19.971,-1.252,-0.717,3.0
20.128,-1.268,-0.837,0.0
20.118,-1.274,-0.95,0.0
15.282,-0.973,-0.809,0.0
14.215,-0.91,-0.833,0.0
13.164,-0.847,-0.846,0.0
19.904,-1.282,-0.724,2.0
20.121,-1.303,-0.846,0.0
20.139,-1.311,-0.96,0.0
15.181,-0.993,-0.811,0.0
14.103,-0.927,-0.833,0.0
19.993,-1.321,-1.294,0.0
19.833,-1.312,-0.73,2.0
20.131,-1.339,-0.855,0.0
20.137,-1.346,-0.968,0.0
15.113,-1.015,-0.813,0.0
14.007,-0.945,-0.833,0.0
20.067,-1.361,-1.307,0.0
19.783,-1.343,-0.736,2.0
17.874,-1.22,-0.765,0.0
16.472,-1.129,-0.798,0.0
14.999,-1.033,-0.813,0.0
13.896,-0.962,-0.831,0.0
12.975,-0.903,-0.849,0.0
19.734,-1.374,-0.741,1.0
17.668,-1.236,-0.762,0.0
16.331,-1.148,-0.797,0.0
15.007,-1.06,-0.818,0.0
13.83,-0.981,-0.832,0.0
12.928,-0.922,-0.85,0.0
19.684,-1.405,-0.745,2.0
17.698,-1.269,-0.769,0.0
16.172,-1.165,-0.793,0.0
14.989,-1.084,-0.821,0.0
13.844,-1.006,-0.836,0.0
12.872,-0.94,-0.85,0.0
19.572,-1.43,-0.746,0.0
17.611,-1.293,-0.77,0.0
16.158,-1.191,-0.797,0.0
14.884,-1.102,-0.819,0.0
13.761,-1.024,-0.835,0.0
12.809,-0.957,-0.849,0.0
19.241,-1.439,-0.737,0.0
17.576,-1.32,-0.772,0.0
16.14,-1.217,-0.799,0.0
14.798,-1.121,-0.817,0.0
13.731,-1.045,-0.835,0.0
12.797,-0.978,-0.851,0.0
19.184,-1.467,-0.739,0.0
17.482,-1.342,-0.771,0.0
16.23,-1.251,-0.807,0.0
14.786,-1.145,-0.819,0.0
13.746,-1.069,-0.838,0.0
12.802,-1.0,-0.853,0.0
19.057,-1.489,-0.737,0.0
17.519,-1.375,-0.775,0.0
16.004,-1.261,-0.797,0.0
14.757,-1.167,-0.819,0.0
13.71,-1.089,-0.838,0.0
12.757,-1.018,-0.851,0.0
19.146,-1.528,-0.742,0.0
17.599,-1.41,-0.78,0.0
15.954,-1.283,-0.796,0.0
14.741,-1.191,-0.82,0.0
13.702,-1.111,-0.838,0.0
12.794,-1.042,-0.854,0.0
19.04,-1.551,-0.739,0.0
17.496,-1.431,-0.776,0.0
15.875,-1.303,-0.793,0.0
14.74,-1.215,-0.82,0.0
13.692,-1.133,-0.838,0.0
12.787,-1.062,-0.854,0.0
19.054,-1.583,-0.74,0.0
17.512,-1.461,-0.777,0.0
16.004,-1.34,-0.799,0.0
14.725,-1.237,-0.819,0.0
13.709,-1.157,-0.839,0.0
12.789,-1.083,-0.854,0.0
19.057,-1.614,-0.739,0.0
0.0,0.0,0.0,0.0
15.987,-1.364,-0.798,0.0
14.67,-1.256,-0.816,0.0
13.804,-1.187,-0.844,0.0
12.801,-1.105,-0.854,0.0
18.986,-1.638,-0.735,0.0
17.42,-1.509,-0.772,0.0
15.978,-1.389,-0.797,0.0
14.702,-1.283,-0.816,0.0
13.767,-1.205,-0.841,0.0
12.902,-1.134,-0.86,0.0
19.282,-1.694,-0.745,0.0
17.393,-1.534,-0.768,0.0
15.987,-1.415,-0.795,0.0
14.796,-1.314,-0.82,0.0
13.765,-1.227,-0.839,0.0
12.833,-1.148,-0.854,0.0
19.328,-1.728,-0.744,0.0
17.557,-1.575,-0.773,0.0
16.146,-1.453,-0.801,0.0
14.809,-1.338,-0.818,0.0
13.746,-1.246,-0.836,0.0
12.884,-1.172,-0.855,0.0
19.494,-1.773,-0.747,0.0
17.438,-1.591,-0.765,0.0
16.197,-1.483,-0.8,0.0
14.87,-1.366,-0.819,0.0
13.751,-1.267,-0.833,0.0
12.873,-1.191,-0.851,0.0
18.713,-1.73,-0.713,0.0
17.723,-1.644,-0.773,0.0
16.215,-1.509,-0.797,0.0
14.847,-1.386,-0.814,0.0
13.84,-1.297,-0.835,0.0
12.935,-1.216,-0.852,0.0
17.976,-1.689,-0.681,1.0
17.771,-1.675,-0.771,0.0
16.203,-1.532,-0.792,0.0
15.027,-1.425,-0.819,0.0
13.821,-1.315,-0.83,0.0
13.018,-1.243,-0.854,0.0
17.377,-1.658,-0.653,1.0
17.26,-1.652,-0.744,1.0
16.295,-1.565,-0.792,0.0
15.298,-1.473,-0.83,0.0
13.955,-1.348,-0.834,0.0
12.994,-1.259,-0.848,0.0
17.107,-1.657,-0.637,2.0
16.564,-1.609,-0.708,1.0
16.234,-1.582,-0.783,0.0
15.292,-1.495,-0.824,0.0
13.91,-1.364,-0.826,0.0
13.09,-1.287,-0.85,0.0
17.171,-1.688,-0.633,2.0
16.118,-1.589,-0.683,1.0
16.046,-1.586,-0.768,1.0
15.439,-1.531,-0.826,0.0
14.138,-1.406,-0.834,0.0
13.091,-1.306,-0.845,0.0
17.385,-1.733,-0.634,2.0
15.775,-1.577,-0.662,2.0
15.548,-1.558,-0.738,1.0
15.409,-1.549,-0.818,0.0
14.062,-1.418,-0.824,0.0
13.257,-1.341,-0.85,0.0
17.258,-1.744,-0.622,11.0
15.723,-1.593,-0.653,2.0
15.07,-1.531,-0.709,1.0
14.955,-1.524,-0.787,0.0
14.433,-1.475,-0.839,0.0
13.303,-1.363,-0.846,0.0
17.157,-1.756,-0.61,19.0
15.846,-1.627,-0.651,2.0
14.708,-1.514,-0.685,1.0
14.519,-1.498,-0.757,1.0
14.383,-1.488,-0.829,0.0
13.456,-1.396,-0.85,0.0
17.237,-1.787,-0.604,19.0
16.073,-1.671,-0.652,3.0
14.527,-1.514,-0.669,1.0
14.229,-1.487,-0.734,1.0
14.103,-1.478,-0.805,0.0
13.423,-1.41,-0.84,0.0
17.497,-1.836,-0.604,20.0
15.973,-1.681,-0.639,11.0
14.594,-1.539,-0.664,1.0
13.872,-1.467,-0.708,1.0
13.783,-1.461,-0.779,0.0
13.465,-1.431,-0.835,0.0
17.62,-1.871,-0.599,20.0
15.924,-1.695,-0.628,16.0
14.797,-1.579,-0.665,1.0
13.724,-1.468,-0.693,1.0
13.46,-1.443,-0.753,0.0
13.403,-1.441,-0.823,0.0
17.698,-1.901,-0.591,19.0
15.793,-1.7,-0.613,14.0
14.949,-1.613,-0.662,5.0
13.717,-1.484,-0.684,1.0
13.189,-1.43,-0.73,0.0
13.147,-1.429,-0.799,0.0
17.762,-1.929,-0.582,19.0
15.862,-1.726,-0.606,13.0
14.871,-1.622,-0.649,11.0
13.852,-1.514,-0.682,1.0
12.953,-1.419,-0.708,1.0
12.848,-1.411,-0.773,0.0
17.949,-1.969,-0.576,20.0
16.252,-1.787,-0.61,17.0
14.853,-1.637,-0.638,13.0
14.038,-1.55,-0.682,2.0
12.912,-1.429,-0.697,1.0
12.577,-1.395,-0.748,0.0
18.086,-2.004,-0.568,19.0
16.406,-1.822,-0.605,16.0
14.74,-1.64,-0.624,12.0
14.037,-1.565,-0.672,8.0
12.986,-1.451,-0.692,1.0
12.356,-1.384,-0.726,1.0
18.219,-2.038,-0.559,21.0
16.459,-1.845,-0.595,14.0
14.972,-1.682,-0.622,12.0
14.066,-1.583,-0.663,12.0
13.151,-1.483,-0.691,1.0
12.287,-1.389,-0.713,1.0
194.238,-5.766,5.678,8.0
194.673,-5.709,4.592,15.0
194.39,-5.632,3.489,9.0
0.0,0.0,0.0,0.0
138.524,-3.918,0.911,18.0
0.0,0.0,0.0,0.0
207.195,-5.742,5.909,9.0
0.0,0.0,0.0,0.0
0.0,0.0,0.0,0.0
138.856,-3.703,1.594,2.0
138.793,-3.655,0.81,10.0
0.0,0.0,0.0,0.0
118.297,-3.046,3.284,5.0
0.0,0.0,0.0,0.0
193.126,-4.839,3.179,9.0
138.875,-3.431,1.487,10.0
138.793,-3.382,0.703,4.0
0.0,0.0,0.0,0.0
209.406,-4.978,5.646,6.0
0.0,0.0,0.0,0.0
139.01,-3.212,2.176,3.0
138.902,-3.161,1.375,20.0
0.0,0.0,0.0,0.0
0.0,0.0,0.0,0.0
209.259,-4.567,5.468,6.0
194.014,-4.167,3.971,22.0
138.967,-2.937,2.057,8.0
138.965,-2.892,1.258,26.0
0.0,0.0,0.0,0.0
0.0,0.0,0.0,0.0
113.062,-2.248,2.856,10.0
193.456,-3.781,3.791,22.0
138.882,-2.67,1.936,3.0
139.017,-2.625,1.136,23.0
0.0,0.0,0.0,0.0
0.0,0.0,0.0,0.0
206.372,-3.707,5.028,16.0
193.872,-3.419,3.625,20.0
0.0,0.0,0.0,0.0
139.053,-2.361,1.01,18.0
0.0,0.0,0.0,0.0
0.0,0.0,0.0,0.0
205.737,-3.304,4.821,7.0
194.297,-3.053,3.449,9.0
138.85,-2.137,1.677,10.0
138.832,-2.092,0.876,21.0
0.0,0.0,0.0,0.0
0.0,0.0,0.0,0.0
207.08,-2.932,4.651,6.0
204.164,-2.825,3.427,15.0
139.341,-1.885,1.549,6.0
139.273,-1.838,0.743,2.0
0.0,0.0,0.0,0.0
0.0,0.0,0.0,0.0
210.597,-2.587,4.519,10.0
139.096,-1.663,2.194,4.0
139.242,-1.621,1.405,13.0
0.0,0.0,0.0,0.0
0.0,0.0,0.0,0.0
48.739,-0.521,-0.343,0.0
119.731,-1.245,2.443,150.0
119.739,-1.208,1.763,150.0
119.709,-1.169,1.082,29.0
0.0,0.0,0.0,0.0
0.0,0.0,0.0,0.0
0.0,0.0,0.0,0.0
119.748,-1.022,2.314,72.0
119.721,-0.983,1.632,12.0
119.711,-0.945,0.95,11.0
0.0,0.0,0.0,0.0
0.0,0.0,0.0,0.0
0.0,0.0,0.0,0.0
119.763,-0.802,2.182,5.0
119.666,-0.764,1.498,15.0
114.158,-0.692,0.778,6.0
0.0,0.0,0.0,0.0
0.0,0.0,0.0,0.0
0.0,0.0,0.0,0.0
114.633,-0.556,1.956,13.0
119.743,-0.546,1.361,17.0
110.977,-0.473,0.63,7.0
0.0,0.0,0.0,0.0
0.0,0.0,0.0,0.0
0.0,0.0,0.0,0.0
113.293,-0.347,1.801,8.0
114.455,-0.317,1.167,83.0
100.313,-0.247,0.45,1.0
0.0,0.0,0.0,0.0
0.0,0.0,0.0,0.0
39.536,-0.062,-0.502,0.0
111.084,-0.143,1.632,10.0
117.262,-0.115,1.053,9.0
95.498,-0.065,0.312,1.0
0.0,0.0,0.0,0.0
45.664,-0.004,-0.376,1.0
38.153,0.007,-0.532,0.0
111.121,0.052,1.494,19.0
110.815,0.085,0.857,12.0
0.0,0.0,0.0,0.0
0.0,0.0,0.0,0.0
42.884,0.07,-0.407,1.0
36.133,0.069,-0.549,0.0
119.738,0.266,1.457,11.0
104.275,0.26,0.674,9.0
0.0,0.0,0.0,0.0
0.0,0.0,0.0,0.0
42.793,0.143,-0.46,0.0
33.279,0.121,-0.548,0.0
111.13,0.436,1.209,13.0
90.905,0.382,0.469,2.0
0.0,0.0,0.0,0.0
0.0,0.0,0.0,0.0
39.238,0.198,-0.474,0.0
32.052,0.171,-0.57,0.0
111.029,0.624,1.06,9.0
86.784,0.512,0.332,1.0
0.0,0.0,0.0,0.0
48.671,0.313,-0.374,0.0
37.062,0.249,-0.497,0.0
30.743,0.215,-0.588,0.0
104.77,0.762,0.859,18.0
84.53,0.639,0.209,3.0
0.0,0.0,0.0,0.0
44.938,0.364,-0.407,0.0
0.0,0.0,0.0,0.0
29.695,0.256,-0.609,0.0
98.233,0.878,0.668,15.0
81.946,0.754,0.088,1.0
54.694,0.518,-0.253,1.0
41.123,0.4,-0.43,0.0
33.701,0.337,-0.545,0.0
28.376,0.291,-0.622,0.0
85.494,0.902,0.461,6.0
0.0,0.0,0.0,0.0
0.0,0.0,0.0,0.0
41.107,0.466,-0.488,0.0
32.027,0.371,-0.564,0.0
27.74,0.328,-0.647,0.0
85.045,1.032,0.337,9.0
0.0,0.0,0.0,0.0
0.0,0.0,0.0,0.0
0.0,0.0,0.0,0.0
30.604,0.402,-0.583,0.0
26.391,0.354,-0.654,0.0
77.25,1.057,0.193,1.0
0.0,0.0,0.0,0.0
0.0,0.0,0.0,0.0
35.752,0.516,-0.529,0.0
29.954,0.44,-0.615,0.0
25.422,0.38,-0.668,0.0
74.921,1.14,0.076,2.0
0.0,0.0,0.0,0.0
41.726,0.656,-0.436,0.0
33.509,0.535,-0.546,0.0
28.27,0.458,-0.623,0.0
24.514,0.403,-0.681,0.0
73.333,1.227,-0.036,3.0
0.0,0.0,0.0,0.0
0.0,0.0,0.0,0.0
0.0,0.0,0.0,0.0
0.0,0.0,0.0,0.0
23.582,0.423,-0.691,0.0
0.0,0.0,0.0,0.0
46.13,0.85,-0.358,0.0
0.0,0.0,0.0,0.0
30.462,0.576,-0.59,0.0
26.261,0.503,-0.659,0.0
22.652,0.439,-0.699,0.0
0.0,0.0,0.0,0.0
0.0,0.0,0.0,0.0
0.0,0.0,0.0,0.0
29.33,0.596,-0.613,0.0
24.818,0.51,-0.662,0.0
22.133,0.46,-0.717,0.0
0.0,0.0,0.0,0.0
41.341,0.879,-0.45,4.0
33.137,0.712,-0.552,0.0
27.748,0.602,-0.624,0.0
24.011,0.527,-0.678,0.0
21.322,0.473,-0.725,0.0
48.828,1.095,-0.329,1.0
0.0,0.0,0.0,0.0
0.0,0.0,0.0,0.0
26.382,0.609,-0.636,0.0
23.216,0.541,-0.693,0.0
20.606,0.485,-0.734,0.0
0.0,0.0,0.0,0.0
35.348,0.848,-0.499,0.0
29.795,0.722,-0.593,0.0
25.645,0.627,-0.66,0.0
22.453,0.553,-0.708,0.0
20.051,0.498,-0.747,0.0
41.342,1.037,-0.414,0.0
0.0,0.0,0.0,0.0
28.551,0.728,-0.615,1.0
24.639,0.634,-0.675,0.0
21.63,0.561,-0.717,0.0
19.145,0.5,-0.745,0.0
0.0,0.0,0.0,0.0
32.926,0.875,-0.574,0.0
27.489,0.736,-0.637,0.0
23.635,0.638,-0.686,0.0
20.904,0.568,-0.728,0.0
18.732,0.513,-0.76,0.0
37.501,1.035,-0.5,0.0
30.576,0.85,-0.584,0.0
26.395,0.739,-0.656,0.0
22.51,0.635,-0.691,0.0
20.214,0.574,-0.737,0.0
18.19,0.52,-0.769,0.0
0.0,0.0,0.0,0.0
28.721,0.833,-0.597,0.0
24.975,0.729,-0.663,0.0
21.828,0.641,-0.707,0.0
19.482,0.576,-0.744,0.0
17.597,0.524,-0.773,0.0
33.074,0.991,-0.552,0.0
28.556,0.861,-0.641,1.0
0.0,0.0,0.0,0.0
21.23,0.648,-0.724,0.0
18.788,0.577,-0.749,0.0
17.048,0.527,-0.778,0.0
30.755,0.956,-0.566,0.0
26.538,0.83,-0.641,0.0
23.14,0.728,-0.693,0.0
20.246,0.641,-0.725,0.0
18.296,0.583,-0.761,0.0
16.61,0.532,-0.787,0.0
28.777,0.926,-0.579,0.0
25.538,0.827,-0.662,0.0
22.184,0.722,-0.703,0.0
19.831,0.649,-0.745,0.0
17.715,0.583,-0.768,0.0
16.167,0.535,-0.794,0.0
28.528,0.949,-0.624,0.0
24.405,0.816,-0.674,0.0
21.387,0.719,-0.715,0.0
19.174,0.648,-0.753,0.0
17.214,0.584,-0.776,0.0
15.702,0.536,-0.799,0.0
26.51,0.909,-0.626,0.0
23.408,0.806,-0.688,0.0
20.578,0.712,-0.724,0.0
18.407,0.64,-0.756,0.0
16.788,0.587,-0.786,0.0
15.406,0.541,-0.811,0.0
25.718,0.907,-0.653,0.0
22.602,0.801,-0.704,0.0
19.924,0.709,-0.736,0.0
17.87,0.639,-0.765,0.0
16.249,0.584,-0.79,0.0
14.991,0.541,-0.815,0.0
24.653,0.893,-0.669,0.0
21.594,0.785,-0.711,0.0
19.009,0.694,-0.735,0.0
17.416,0.639,-0.776,0.0
15.81,0.582,-0.796,0.0
14.609,0.54,-0.82,0.0
23.546,0.874,-0.68,0.0
20.712,0.772,-0.718,0.0
18.694,0.7,-0.757,0.0
16.811,0.632,-0.779,0.0
15.396,0.581,-0.803,0.0
14.324,0.542,-0.83,0.0
22.58,0.858,-0.693,0.0
20.171,0.769,-0.735,0.0
18.156,0.695,-0.767,0.0
16.378,0.629,-0.788,0.0
15.115,0.583,-0.815,0.0
13.919,0.539,-0.831,0.0
21.698,0.842,-0.704,0.0
19.321,0.753,-0.739,0.0
17.471,0.683,-0.769,0.0
15.923,0.625,-0.795,0.0
14.733,0.58,-0.821,0.0
13.662,0.54,-0.841,0.0
21.083,0.835,-0.723,0.0
18.702,0.743,-0.749,0.0
17.004,0.678,-0.78,0.0
15.611,0.625,-0.808,0.0
14.424,0.579,-0.83,0.0
13.335,0.537,-0.845,0.0
20.102,0.811,-0.725,0.0
18.04,0.73,-0.755,0.0
16.554,0.672,-0.789,0.0
15.126,0.616,-0.81,0.0
14.008,0.573,-0.831,0.0
13.021,0.534,-0.848,0.0
19.422,0.797,-0.735,0.0
17.686,0.728,-0.772,0.0
16.103,0.665,-0.796,0.0
14.699,0.609,-0.813,0.0
13.685,0.569,-0.836,0.0
12.689,0.529,-0.849,0.0
18.826,0.786,-0.746,0.0
17.013,0.712,-0.773,0.0
15.552,0.653,-0.796,0.0
14.406,0.606,-0.823,0.0
13.399,0.565,-0.843,0.0
12.317,0.521,-0.846,0.0
18.206,0.771,-0.754,0.0
16.728,0.71,-0.79,0.0
15.329,0.653,-0.812,0.0
14.195,0.606,-0.836,0.0
13.072,0.56,-0.846,0.0
12.034,0.517,-0.849,0.0
17.743,0.762,-0.767,0.0
16.057,0.691,-0.787,0.0
14.911,0.643,-0.817,0.0
13.703,0.593,-0.832,0.0
0.0,0.0,0.0,0.0
11.731,0.51,-0.848,0.0
17.181,0.747,-0.773,0.0
15.754,0.687,-0.8,0.0
14.407,0.629,-0.815,0.0
13.475,0.59,-0.842,0.0
12.355,0.542,-0.844,0.0
11.546,0.508,-0.856,0.0
16.707,0.735,-0.782,0.0
15.299,0.675,-0.804,0.0
14.233,0.629,-0.831,0.0
13.123,0.581,-0.844,0.0
12.08,0.536,-0.847,0.0
11.29,0.502,-0.857,0.0
16.147,0.718,-0.784,0.0
14.913,0.664,-0.811,0.0
13.822,0.617,-0.832,0.0
12.841,0.575,-0.849,0.0
11.801,0.529,-0.849,0.0
11.168,0.502,-0.868,0.0
15.936,0.715,-0.803,0.0
14.501,0.652,-0.814,0.0
13.61,0.613,-0.843,0.0
12.408,0.56,-0.842,0.0
11.601,0.525,-0.855,0.0
10.948,0.496,-0.871,0.0
15.337,0.694,-0.8,0.0
14.299,0.649,-0.829,0.0
13.193,0.6,-0.841,0.0
12.157,0.554,-0.847,0.0
11.31,0.516,-0.854,0.0
10.703,0.489,-0.87,0.0
14.971,0.683,-0.808,0.0
13.86,0.633,-0.828,0.0
12.899,0.59,-0.845,0.0
11.849,0.543,-0.847,0.0
11.182,0.514,-0.864,0.0
10.522,0.484,-0.874,0.0
14.599,0.67,-0.813,0.0
13.591,0.625,-0.836,0.0
12.558,0.578,-0.845,0.0
11.642,0.537,-0.852,0.0
10.987,0.508,-0.868,0.0
10.363,0.48,-0.879,0.0
14.288,0.66,-0.821,0.0
13.24,0.612,-0.837,0.0
12.242,0.567,-0.845,0.0
11.321,0.525,-0.849,0.0
10.784,0.501,-0.871,0.0
10.188,0.474,-0.883,0.0
13.947,0.647,-0.825,0.0
13.033,0.606,-0.847,0.0
11.937,0.556,-0.845,0.0
11.227,0.523,-0.861,0.0
10.589,0.494,-0.874,0.0
10.043,0.469,-0.888,0.0
13.704,0.639,-0.835,0.0
12.639,0.59,-0.843,0.0
11.716,0.547,-0.85,0.0
11.063,0.517,-0.868,0.0
10.4,0.487,-0.877,0.0
9.896,0.464,-0.892,0.0
13.33,0.623,-0.835,0.0
12.394,0.58,-0.848,0.0
11.485,0.538,-0.853,0.0
10.843,0.508,-0.87,0.0
10.221,0.48,-0.879,0.0
9.775,0.459,-0.898,0.0
13.097,0.613,-0.843,0.0
12.03,0.564,-0.844,0.0
11.263,0.529,-0.856,0.0
10.58,0.497,-0.867,0.0
10.101,0.475,-0.886,0.0
9.692,0.456,-0.907,0.0
12.678,0.595,-0.838,0.0
11.758,0.552,-0.845,0.0
11.11,0.522,-0.863,0.0
10.473,0.492,-0.875,0.0
9.962,0.469,-0.891,0.0
9.452,0.445,-0.9,0.0
12.478,0.586,-0.845,0.0
11.568,0.543,-0.851,0.0
10.936,0.514,-0.868,0.0
10.291,0.484,-0.877,0.0
9.828,0.463,-0.895,0.0
9.34,0.44,-0.905,0.0
12.152,0.57,-0.843,0.0
11.299,0.53,-0.85,0.0
10.682,0.502,-0.865,0.0
10.161,0.477,-0.883,0.0
9.701,0.456,-0.9,0.0
9.26,0.436,-0.913,0.0
11.891,0.557,-0.845,0.0
11.216,0.526,-0.862,0.0
10.524,0.494,-0.87,0.0
10.028,0.47,-0.888,0.0
9.533,0.448,-0.9,0.0
9.056,0.425,-0.908,0.0
11.654,0.545,-0.847,0.0
11.014,0.515,-0.864,0.0
10.375,0.485,-0.874,0.0
9.905,0.464,-0.893,0.0
9.38,0.439,-0.901,0.0
8.966,0.42,-0.913,0.0
11.467,0.535,-0.851,0.0
10.821,0.505,-0.866,0.0
10.27,0.479,-0.882,0.0
9.775,0.456,-0.897,0.0
9.316,0.435,-0.909,0.0
8.836,0.412,-0.914,0.0
11.276,0.524,-0.855,0.0
10.622,0.493,-0.867,0.0
10.106,0.47,-0.884,0.0
9.607,0.446,-0.897,0.0
9.17,0.426,-0.91,0.0
8.763,0.407,-0.92,0.0
11.132,0.515,-0.862,0.0
10.469,0.484,-0.871,0.0
9.971,0.461,-0.888,0.0
9.46,0.437,-0.898,0.0
8.994,0.416,-0.906,0.0
8.619,0.399,-0.919,0.0
10.958,0.504,-0.865,0.0
10.323,0.475,-0.875,0.0
9.846,0.453,-0.891,0.0
9.358,0.43,-0.903,0.0
8.919,0.41,-0.912,0.0
8.536,0.392,-0.923,0.0
10.766,0.492,-0.866,0.0
10.226,0.467,-0.882,0.0
9.742,0.445,-0.897,0.0
9.221,0.421,-0.903,0.0
8.816,0.403,-0.915,0.0
8.383,0.383,-0.919,0.0
10.646,0.483,-0.872,0.0
10.079,0.457,-0.884,0.0
9.622,0.436,-0.9,0.0
9.081,0.412,-0.903,0.0
8.704,0.395,-0.916,0.0
8.356,0.379,-0.929,0.0
10.458,0.471,-0.872,0.0
9.94,0.447,-0.887,0.0
9.457,0.425,-0.899,0.0
9.041,0.407,-0.913,0.0
8.638,0.388,-0.922,0.0
8.236,0.37,-0.927,0.0
10.304,0.46,-0.874,0.0
9.84,0.439,-0.892,0.0
9.339,0.416,-0.901,0.0
0.0,0.0,0.0,0.0
8.487,0.378,-0.918,0.0
8.112,0.361,-0.925,0.0
10.222,0.452,-0.882,0.0
9.741,0.43,-0.897,0.0
9.229,0.407,-0.903,0.0
8.815,0.389,-0.915,0.0
8.406,0.371,-0.921,0.0
8.059,0.355,-0.93,0.0
10.067,0.44,-0.882,0.0
9.549,0.417,-0.892,0.0
9.149,0.4,-0.908,0.0
8.731,0.381,-0.918,0.0
8.345,0.364,-0.926,0.0
7.997,0.348,-0.934,0.0
9.96,0.431,-0.886,0.0
9.538,0.412,-0.904,0.0
9.045,0.39,-0.91,0.0
8.624,0.372,-0.918,0.0
8.273,0.356,-0.929,0.0
7.888,0.34,-0.932,0.0
9.845,0.421,-0.889,0.0
9.393,0.401,-0.903,0.0
8.985,0.383,-0.916,0.0
8.524,0.363,-0.919,0.0
8.172,0.348,-0.929,0.0
7.823,0.332,-0.935,0.0
9.748,0.411,-0.893,0.0
9.278,0.391,-0.904,0.0
8.86,0.373,-0.915,0.0
8.399,0.353,-0.917,0.0
8.088,0.339,-0.93,0.0
7.79,0.326,-0.941,0.0
9.69,0.403,-0.9,0.0
9.139,0.379,-0.902,0.0
8.752,0.363,-0.914,0.0
8.31,0.344,-0.917,0.0
8.033,0.332,-0.933,0.0
7.707,0.318,-0.94,0.0
9.499,0.389,-0.894,0.0
9.086,0.371,-0.908,0.0
8.635,0.352,-0.913,0.0
8.266,0.337,-0.922,0.0
7.861,0.32,-0.923,0.0
7.61,0.309,-0.938,0.0
9.457,0.381,-0.901,0.0
8.998,0.362,-0.91,0.0
8.516,0.342,-0.91,0.0
8.2,0.329,-0.925,0.0
7.909,0.317,-0.938,0.0
7.551,0.302,-0.94,0.0
9.351,0.37,-0.902,0.0
8.886,0.351,-0.908,0.0
8.435,0.333,-0.911,0.0
0.0,0.0,0.0,0.0
7.774,0.306,-0.931,0.0
7.478,0.294,-0.939,0.0
9.202,0.358,-0.898,0.0
8.871,0.344,-0.917,0.0
8.425,0.326,-0.919,0.0
0.0,0.0,0.0,0.0
7.744,0.299,-0.936,0.0
7.437,0.286,-0.942,0.0
9.189,0.351,-0.907,0.0
8.776,0.334,-0.917,0.0
8.379,0.318,-0.923,0.0
0.0,0.0,0.0,0.0
7.694,0.291,-0.938,0.0
7.358,0.278,-0.94,0.0
9.056,0.339,-0.903,0.0
8.699,0.325,-0.918,0.0
8.324,0.31,-0.926,0.0
7.97,0.296,-0.934,0.0
7.63,0.283,-0.938,0.0
7.289,0.269,-0.939,0.0
9.045,0.331,-0.911,0.0
8.59,0.314,-0.915,0.0
8.266,0.301,-0.928,0.0
7.9,0.287,-0.933,0.0
7.611,0.276,-0.944,0.0
7.303,0.264,-0.948,0.0
8.941,0.32,-0.909,0.0
8.578,0.306,-0.922,0.0
8.193,0.292,-0.928,0.0
0.0,0.0,0.0,0.0
7.524,0.266,-0.94,0.0
7.183,0.254,-0.939,0.0
8.895,0.311,-0.913,0.0
8.484,0.296,-0.92,0.0
8.145,0.283,-0.93,0.0
0.0,0.0,0.0,0.0
7.439,0.257,-0.936,0.0
0.0,0.0,0.0,0.0
8.817,0.301,-0.913,0.0
8.416,0.286,-0.92,0.0
8.072,0.273,-0.929,0.0
0.0,0.0,0.0,0.0
0.0,0.0,0.0,0.0
0.0,0.0,0.0,0.0
8.738,0.29,-0.912,0.0
8.355,0.277,-0.92,0.0
8.039,0.265,-0.932,0.0
0.0,0.0,0.0,0.0
0.0,0.0,0.0,0.0
7.063,0.231,-0.942,0.0
8.671,0.28,-0.912,0.0
8.299,0.267,-0.921,0.0
7.961,0.255,-0.929,0.0
0.0,0.0,0.0,0.0
0.0,0.0,0.0,0.0
7.063,0.224,-0.948,0.0
8.661,0.272,-0.918,0.0
8.275,0.258,-0.925,0.0
7.971,0.248,-0.936,0.0
7.592,0.235,-0.936,0.0
0.0,0.0,0.0,0.0
6.979,0.215,-0.942,0.0
8.552,0.26,-0.913,0.0
8.201,0.248,-0.922,0.0
7.901,0.238,-0.934,0.0
7.535,0.226,-0.935,0.0
0.0,0.0,0.0,0.0
6.94,0.207,-0.941,0.0
8.489,0.25,-0.912,0.0
8.176,0.24,-0.925,0.0
7.832,0.229,-0.931,0.0
0.0,0.0,0.0,0.0
0.0,0.0,0.0,0.0
0.0,0.0,0.0,0.0
8.49,0.242,-0.918,0.0
8.133,0.23,-0.925,0.0
7.784,0.219,-0.93,0.0
0.0,0.0,0.0,0.0
0.0,0.0,0.0,0.0
0.0,0.0,0.0,0.0
8.486,0.233,-0.922,0.0
8.153,0.223,-0.933,0.0
7.823,0.212,-0.94,0.0
0.0,0.0,0.0,0.0
0.0,0.0,0.0,0.0
0.0,0.0,0.0,0.0
8.426,0.223,-0.921,0.0
8.049,0.212,-0.925,0.0
7.74,0.202,-0.934,0.0
0.0,0.0,0.0,0.0
0.0,0.0,0.0,0.0
0.0,0.0,0.0,0.0
8.412,0.214,-0.923,0.0
7.982,0.201,-0.922,0.0
0.0,0.0,0.0,0.0
0.0,0.0,0.0,0.0
0.0,0.0,0.0,0.0
0.0,0.0,0.0,0.0
8.356,0.203,-0.921,0.0
0.0,0.0,0.0,0.0
7.712,0.185,-0.938,0.0
0.0,0.0,0.0,0.0
0.0,0.0,0.0,0.0
0.0,0.0,0.0,0.0
8.335,0.194,-0.923,0.0
8.019,0.185,-0.933,0.0
7.662,0.176,-0.935,0.0
0.0,0.0,0.0,0.0
0.0,0.0,0.0,0.0
0.0,0.0,0.0,0.0
8.287,0.184,-0.92,0.0
7.985,0.176,-0.932,0.0
7.604,0.166,-0.931,0.0
0.0,0.0,0.0,0.0
0.0,0.0,0.0,0.0
0.0,0.0,0.0,0.0
8.297,0.175,-0.924,0.0
7.953,0.166,-0.931,0.0
7.574,0.157,-0.93,0.0
0.0,0.0,0.0,0.0
0.0,0.0,0.0,0.0
0.0,0.0,0.0,0.0
8.271,0.166,-0.924,0.0
7.957,0.158,-0.934,0.0
0.0,0.0,0.0,0.0
0.0,0.0,0.0,0.0
0.0,0.0,0.0,0.0
0.0,0.0,0.0,0.0
8.243,0.156,-0.923,0.0
7.986,0.149,-0.939,0.0
0.0,0.0,0.0,0.0
0.0,0.0,0.0,0.0
0.0,0.0,0.0,0.0
6.788,0.122,-0.954,0.0
8.215,0.146,-0.922,0.0
7.864,0.138,-0.927,0.0
7.586,0.132,-0.937,0.0
0.0,0.0,0.0,0.0
6.994,0.119,-0.944,0.0
6.756,0.114,-0.951,0.0
8.22,0.137,-0.923,0.0
7.884,0.13,-0.93,0.0
0.0,0.0,0.0,0.0
0.0,0.0,0.0,0.0
0.0,0.0,0.0,0.0
0.0,0.0,0.0,0.0
8.204,0.127,-0.922,0.0
7.859,0.12,-0.928,0.0
7.544,0.114,-0.934,0.0
0.0,0.0,0.0,0.0
0.0,0.0,0.0,0.0
0.0,0.0,0.0,0.0
8.218,0.118,-0.925,0.0
7.855,0.112,-0.928,0.0
7.579,0.106,-0.938,0.0
0.0,0.0,0.0,0.0
0.0,0.0,0.0,0.0
0.0,0.0,0.0,0.0
8.175,0.108,-0.92,0.0
7.891,0.103,-0.932,0.0
7.582,0.098,-0.939,0.0
0.0,0.0,0.0,0.0
0.0,0.0,0.0,0.0
0.0,0.0,0.0,0.0
8.212,0.099,-0.924,0.0
7.897,0.094,-0.933,0.0
7.605,0.089,-0.941,0.0
0.0,0.0,0.0,0.0
0.0,0.0,0.0,0.0
0.0,0.0,0.0,0.0
8.239,0.09,-0.926,0.0
7.848,0.085,-0.926,0.0
7.546,0.08,-0.933,0.0
0.0,0.0,0.0,0.0
0.0,0.0,0.0,0.0
0.0,0.0,0.0,0.0
8.224,0.081,-0.924,0.0
7.966,0.077,-0.939,0.0
7.533,0.071,-0.931,0.0
0.0,0.0,0.0,0.0
0.0,0.0,0.0,0.0
0.0,0.0,0.0,0.0
8.286,0.072,-0.929,0.0
7.928,0.067,-0.934,0.0
7.544,0.063,-0.931,0.0
0.0,0.0,0.0,0.0
0.0,0.0,0.0,0.0
0.0,0.0,0.0,0.0
8.299,0.063,-0.929,0.0
7.953,0.059,-0.935,0.0
7.562,0.054,-0.931,0.0
0.0,0.0,0.0,0.0
0.0,0.0,0.0,0.0
0.0,0.0,0.0,0.0
8.28,0.053,-0.925,0.0
7.969,0.05,-0.934,0.0
7.613,0.046,-0.935,0.0
0.0,0.0,0.0,0.0
0.0,0.0,0.0,0.0
6.832,0.037,-0.955,0.0
8.318,0.044,-0.927,0.0
7.974,0.041,-0.933,0.0
7.651,0.038,-0.938,0.0
0.0,0.0,0.0,0.0
0.0,0.0,0.0,0.0
0.0,0.0,0.0,0.0
8.297,0.035,-0.921,0.0
0.0,0.0,0.0,0.0
7.668,0.029,-0.937,0.0
0.0,0.0,0.0,0.0
0.0,0.0,0.0,0.0
0.0,0.0,0.0,0.0
8.337,0.026,-0.923,0.0
8.021,0.023,-0.932,0.0
7.67,0.02,-0.934,0.0
0.0,0.0,0.0,0.0
0.0,0.0,0.0,0.0
6.876,0.014,-0.953,0.0
8.366,0.016,-0.922,0.0
8.018,0.014,-0.928,0.0
7.727,0.012,-0.937,0.0
0.0,0.0,0.0,0.0
0.0,0.0,0.0,0.0
0.0,0.0,0.0,0.0
8.435,0.007,-0.925,0.0
8.066,0.005,-0.93,0.0
7.759,0.003,-0.937,0.0
0.0,0.0,0.0,0.0
0.0,0.0,0.0,0.0
0.0,0.0,0.0,0.0
8.438,-0.001,-0.921,0.0
8.081,-0.003,-0.927,0.0
7.771,-0.004,-0.935,0.0
0.0,0.0,0.0,0.0
7.217,-0.007,-0.949,0.0
0.0,0.0,0.0,0.0
8.44,-0.01,-0.917,0.0
8.097,-0.011,-0.924,0.0
7.808,-0.013,-0.934,0.0
0.0,0.0,0.0,0.0
0.0,0.0,0.0,0.0
7.003,-0.015,-0.956,0.0
8.486,-0.02,-0.916,0.0
8.189,-0.02,-0.93,0.0
7.89,-0.021,-0.939,0.0
0.0,0.0,0.0,0.0
0.0,0.0,0.0,0.0
6.964,-0.023,-0.946,0.0
8.512,-0.029,-0.914,0.0
8.204,-0.029,-0.926,0.0
7.857,-0.03,-0.93,0.0
7.625,-0.03,-0.945,0.0
0.0,0.0,0.0,0.0
7.026,-0.031,-0.949,0.0
8.576,-0.038,-0.914,0.0
8.237,-0.038,-0.924,0.0
7.891,-0.038,-0.928,0.0
0.0,0.0,0.0,0.0
0.0,0.0,0.0,0.0
7.033,-0.038,-0.945,0.0
8.732,-0.048,-0.925,0.0
8.314,-0.047,-0.926,0.0
7.96,-0.047,-0.93,0.0
7.675,-0.046,-0.94,0.0
0.0,0.0,0.0,0.0
7.057,-0.045,-0.942,0.0
8.731,-0.057,-0.918,0.0
8.343,-0.056,-0.922,0.0
8.048,-0.055,-0.934,0.0
0.0,0.0,0.0,0.0
7.448,-0.054,-0.947,0.0
7.148,-0.053,-0.949,0.0
8.778,-0.066,-0.915,0.0
8.442,-0.065,-0.926,0.0
8.039,-0.063,-0.926,0.0
7.759,-0.063,-0.937,0.0
7.486,-0.062,-0.945,0.0
7.213,-0.061,-0.951,0.0
8.828,-0.075,-0.913,0.0
8.472,-0.073,-0.922,0.0
8.094,-0.072,-0.925,0.0
0.0,0.0,0.0,0.0
7.497,-0.069,-0.94,0.0
7.197,-0.068,-0.942,0.0
8.921,-0.084,-0.914,0.0
8.538,-0.082,-0.921,0.0
8.174,-0.08,-0.927,0.0
0.0,0.0,0.0,0.0
7.509,-0.077,-0.934,0.0
7.286,-0.076,-0.947,0.0
8.995,-0.094,-0.913,0.0
8.644,-0.091,-0.924,0.0
8.226,-0.089,-0.925,0.0
0.0,0.0,0.0,0.0
7.599,-0.085,-0.938,0.0
7.352,-0.083,-0.948,0.0
9.087,-0.103,-0.913,0.0
8.648,-0.099,-0.916,0.0
8.308,-0.097,-0.925,0.0
0.0,0.0,0.0,0.0
0.0,0.0,0.0,0.0
7.339,-0.09,-0.938,0.0
9.154,-0.112,-0.91,0.0
8.773,-0.109,-0.92,0.0
8.345,-0.105,-0.921,0.0
8.033,-0.103,-0.931,0.0
7.77,-0.101,-0.942,0.0
7.454,-0.098,-0.945,0.0
9.226,-0.121,-0.908,0.0
8.753,-0.117,-0.908,0.0
8.455,-0.114,-0.923,0.0
8.112,-0.111,-0.931,0.0
7.817,-0.108,-0.94,0.0
7.526,-0.106,-0.946,0.0
9.32,-0.131,-0.906,0.0
8.904,-0.126,-0.914,0.0
8.489,-0.122,-0.917,0.0
8.152,-0.118,-0.926,0.0
7.884,-0.116,-0.938,0.0
7.569,-0.113,-0.942,0.0
9.378,-0.139,-0.901,0.0
9.016,-0.135,-0.915,0.0
8.592,-0.131,-0.918,0.0
8.248,-0.127,-0.927,0.0
7.903,-0.123,-0.931,0.0
7.597,-0.119,-0.936,0.0
9.548,-0.15,-0.906,0.0
9.113,-0.144,-0.914,0.0
8.67,-0.139,-0.916,0.0
8.336,-0.135,-0.927,0.0
8.004,-0.131,-0.933,0.0
7.687,-0.127,-0.938,0.0
9.587,-0.158,-0.898,0.0
9.222,-0.153,-0.913,0.0
8.808,-0.148,-0.92,0.0
8.419,-0.143,-0.926,0.0
8.108,-0.139,-0.935,0.0
7.798,-0.135,-0.942,0.0
9.738,-0.168,-0.9,0.0
9.313,-0.162,-0.911,0.0
8.893,-0.156,-0.917,0.0
8.461,-0.15,-0.919,0.0
8.176,-0.146,-0.932,0.0
7.846,-0.142,-0.937,0.0
9.823,-0.177,-0.895,0.0
9.376,-0.17,-0.904,0.0
8.96,-0.164,-0.912,0.0
8.645,-0.16,-0.928,0.0
8.274,-0.154,-0.933,0.0
7.958,-0.149,-0.94,0.0
9.93,-0.186,-0.891,0.0
9.51,-0.179,-0.905,0.0
9.086,-0.173,-0.913,0.0
8.655,-0.166,-0.917,0.0
8.335,-0.161,-0.928,0.0
8.003,-0.156,-0.934,0.0
10.068,-0.195,-0.89,0.0
9.646,-0.188,-0.904,0.0
9.178,-0.181,-0.909,0.0
0.0,0.0,0.0,0.0
8.429,-0.168,-0.926,0.0
8.087,-0.163,-0.932,0.0
10.185,-0.204,-0.886,0.0
9.743,-0.197,-0.899,0.0
9.259,-0.188,-0.904,0.0
0.0,0.0,0.0,0.0
8.517,-0.176,-0.924,0.0
8.203,-0.17,-0.934,0.0
10.335,-0.214,-0.884,0.0
9.85,-0.205,-0.895,0.0
9.377,-0.197,-0.902,0.0
9.009,-0.19,-0.916,0.0
8.656,-0.184,-0.926,0.0
8.26,-0.177,-0.928,0.0
10.465,-0.223,-0.88,0.0
9.985,-0.214,-0.893,0.0
9.522,-0.205,-0.902,0.0
9.141,-0.198,-0.916,0.0
8.751,-0.191,-0.923,0.0
8.397,-0.184,-0.931,0.0
10.626,-0.232,-0.878,0.0
10.168,-0.223,-0.894,0.0
9.66,-0.213,-0.901,0.0
9.245,-0.205,-0.912,0.0
8.831,-0.197,-0.918,0.0
8.464,-0.19,-0.925,0.0
10.82,-0.242,-0.877,0.0
10.259,-0.231,-0.886,0.0
9.818,-0.222,-0.9,0.0
9.328,-0.212,-0.906,0.0
8.996,-0.206,-0.921,0.0
8.6,-0.198,-0.926,0.0
10.96,-0.251,-0.871,0.0
10.4,-0.239,-0.882,0.0
9.925,-0.229,-0.894,0.0
9.532,-0.221,-0.91,0.0
9.129,-0.213,-0.92,0.0
8.709,-0.204,-0.924,0.0
11.126,-0.26,-0.867,0.0
10.577,-0.248,-0.88,0.0
10.101,-0.238,-0.894,0.0
9.64,-0.228,-0.905,0.0
9.188,-0.219,-0.912,0.0
8.798,-0.21,-0.92,0.0
11.299,-0.269,-0.863,0.0
10.742,-0.257,-0.877,0.0
10.272,-0.246,-0.893,0.0
9.718,-0.234,-0.897,0.0
9.357,-0.227,-0.913,0.0
8.889,-0.216,-0.914,0.0
11.475,-0.278,-0.857,0.0
10.94,-0.266,-0.875,0.0
10.347,-0.252,-0.882,0.0
9.886,-0.242,-0.896,0.0
9.429,-0.232,-0.904,0.0
9.052,-0.224,-0.916,0.0
11.71,-0.288,-0.855,0.0
11.088,-0.273,-0.868,0.0
10.56,-0.261,-0.882,0.0
10.051,-0.25,-0.894,0.0
9.635,-0.24,-0.908,0.0
9.157,-0.229,-0.911,0.0
11.963,-0.298,-0.854,0.0
11.276,-0.282,-0.864,0.0
10.696,-0.268,-0.876,0.0
10.246,-0.258,-0.894,0.0
9.761,-0.246,-0.903,0.0
9.338,-0.237,-0.913,0.0
12.25,-0.309,-0.853,0.0
11.492,-0.291,-0.861,0.0
10.909,-0.277,-0.874,0.0
10.359,-0.264,-0.886,0.0
9.906,-0.253,-0.899,0.0
9.434,-0.242,-0.906,0.0
12.543,-0.319,-0.852,0.0
11.692,-0.299,-0.855,0.0
11.092,-0.284,-0.87,0.0
10.525,-0.27,-0.881,0.0
10.1,-0.26,-0.899,0.0
9.645,-0.249,-0.909,0.0
18.149,-0.467,-1.201,0.0
11.996,-0.309,-0.856,0.0
11.303,-0.292,-0.866,0.0
10.705,-0.277,-0.878,0.0
10.232,-0.266,-0.893,0.0
9.725,-0.253,-0.899,0.0
13.214,-0.342,-0.851,0.0
12.257,-0.318,-0.853,0.0
11.495,-0.299,-0.86,0.0
10.939,-0.285,-0.877,0.0
10.379,-0.271,-0.887,0.0
9.902,-0.259,-0.898,0.0
13.443,-0.35,-0.842,0.0
12.536,-0.327,-0.85,0.0
11.739,-0.307,-0.857,0.0
11.115,-0.291,-0.871,0.0
10.579,-0.278,-0.885,0.0
10.091,-0.266,-0.897,0.0
13.756,-0.36,-0.836,0.0
12.937,-0.339,-0.854,0.0
12.028,-0.316,-0.857,0.0
11.336,-0.298,-0.868,0.0
10.776,-0.284,-0.881,0.0
10.261,-0.271,-0.893,0.0
18.094,-0.475,-1.067,0.0
13.264,-0.349,-0.851,0.0
12.315,-0.324,-0.855,0.0
11.543,-0.304,-0.863,0.0
10.979,-0.29,-0.878,0.0
10.415,-0.275,-0.887,0.0
14.483,-0.381,-0.828,0.0
13.487,-0.355,-0.841,0.0
12.584,-0.332,-0.85,0.0
11.776,-0.311,-0.858,0.0
11.151,-0.295,-0.871,0.0
10.602,-0.28,-0.883,0.0
18.139,-0.477,-1.003,0.0
13.827,-0.364,-0.836,0.0
12.939,-0.341,-0.85,0.0
12.083,-0.319,-0.858,0.0
11.374,-0.3,-0.867,0.0
10.83,-0.286,-0.882,0.0
18.155,-0.477,-0.97,0.0
18.109,-0.476,-1.062,0.0
13.337,-0.351,-0.851,0.0
12.399,-0.326,-0.857,0.0
11.612,-0.306,-0.863,0.0
10.995,-0.29,-0.875,0.0
18.153,-0.475,-0.936,2.0
18.165,-0.476,-1.031,0.0
13.613,-0.357,-0.843,0.0
18.126,-0.475,-1.219,0.0
11.861,-0.311,-0.859,0.0
11.205,-0.294,-0.87,0.0
18.141,-0.473,-0.9,2.0
18.137,-0.473,-0.995,0.0
13.934,-0.363,-0.836,0.0
13.08,-0.341,-0.854,0.0
12.162,-0.317,-0.858,0.0
11.465,-0.299,-0.868,0.0
18.09,-0.469,-0.864,2.0
18.145,-0.47,-0.96,5.0
18.146,-0.47,-1.055,0.0
13.354,-0.346,-0.847,0.0
12.522,-0.324,-0.859,0.0
11.672,-0.302,-0.862,0.0
18.056,-0.465,-0.827,2.0
18.131,-0.467,-0.925,11.0
18.136,-0.466,-1.019,1.0
13.683,-0.352,-0.841,0.0
18.2,-0.467,-1.214,0.0
11.977,-0.307,-0.861,0.0
18.058,-0.461,-0.793,3.0
18.125,-0.462,-0.889,12.0
18.138,-0.462,-0.984,4.0
18.133,-0.462,-1.08,0.0
18.133,-0.461,-1.174,0.0
12.301,-0.312,-0.86,0.0
18.105,-0.457,-0.76,18.0
18.091,-0.456,-0.853,6.0
18.171,-0.458,-0.951,17.0
18.129,-0.456,-1.044,1.0
13.528,-0.34,-0.849,0.0
18.114,-0.455,-1.232,0.0
18.137,-0.452,-0.726,50.0
18.094,-0.451,-0.818,2.0
18.133,-0.451,-0.913,50.0
18.126,-0.45,-1.009,6.0
18.126,-0.449,-1.103,1.0
18.146,-0.449,-1.198,1.0
18.137,-0.446,-0.691,55.0
18.084,-0.444,-0.782,7.0
18.134,-0.444,-0.878,23.0
18.123,-0.443,-0.973,11.0
18.155,-0.443,-1.069,1.0
18.151,-0.442,-1.163,0.0
18.124,-0.439,-0.655,154.0
18.121,-0.438,-0.748,61.0
18.045,-0.435,-0.838,7.0
18.139,-0.436,-0.938,35.0
18.145,-0.435,-1.033,5.0
18.139,-0.434,-1.127,1.0
18.099,-0.43,-0.619,194.0
18.135,-0.43,-0.714,150.0
18.053,-0.427,-0.804,3.0
18.134,-0.428,-0.903,95.0
18.133,-0.427,-0.997,10.0
18.142,-0.426,-1.091,1.0
18.106,-0.422,-0.583,165.0
18.14,-0.421,-0.678,150.0
18.107,-0.42,-0.77,22.0
18.14,-0.419,-0.867,18.0
18.141,-0.418,-0.961,20.0
18.151,-0.417,-1.056,1.0
18.161,-0.414,-0.549,150.0
18.085,-0.411,-0.64,161.0
18.115,-0.41,-0.735,150.0
18.099,-0.409,-0.83,3.0
18.144,-0.408,-0.926,56.0
18.138,-0.407,-1.02,5.0
18.167,-0.404,-0.514,15.0
18.104,-0.401,-0.606,160.0
18.122,-0.4,-0.7,101.0
18.06,-0.398,-0.793,5.0
18.145,-0.398,-0.891,18.0
18.142,-0.396,-0.984,5.0
18.179,-0.394,-0.479,0.0
18.157,-0.392,-0.572,151.0
18.154,-0.39,-0.666,151.0
18.122,-0.388,-0.76,23.0
18.071,-0.385,-0.851,3.0
18.148,-0.385,-0.949,6.0
26.852,-0.565,-0.655,0.0
18.149,-0.38,-0.536,0.0
18.152,-0.378,-0.63,152.0
18.149,-0.377,-0.725,20.0
18.023,-0.372,-0.814,1.0
18.172,-0.374,-0.914,1.0
0.0,0.0,0.0,0.0
24.734,-0.502,-0.682,0.0
18.144,-0.366,-0.594,2.0
18.167,-0.365,-0.691,2.0
18.094,-0.361,-0.782,15.0
16.729,-0.332,-0.809,0.0
29.328,-0.577,-0.601,0.0
26.09,-0.511,-0.669,0.0
23.116,-0.45,-0.712,0.0
18.125,-0.351,-0.654,0.0
18.137,-0.349,-0.748,4.0
17.202,-0.329,-0.799,0.0
31.465,-0.596,-0.584,0.0
27.607,-0.52,-0.654,0.0
23.996,-0.449,-0.693,0.0
21.552,-0.401,-0.736,0.0
19.332,-0.357,-0.76,0.0
18.087,-0.332,-0.805,4.0
33.934,-0.617,-0.564,0.0
29.047,-0.525,-0.633,0.0
25.031,-0.449,-0.675,0.0
22.36,-0.398,-0.72,0.0
19.951,-0.352,-0.746,0.0
18.135,-0.318,-0.772,6.0
35.022,-0.609,-0.515,0.0
30.829,-0.531,-0.612,0.0
26.463,-0.452,-0.662,0.0
23.228,-0.394,-0.703,0.0
0.0,0.0,0.0,0.0
18.858,-0.315,-0.766,0.0
0.0,0.0,0.0,0.0
32.099,-0.526,-0.576,0.0
27.931,-0.453,-0.645,0.0
24.624,-0.396,-0.698,0.0
21.655,-0.345,-0.726,0.0
19.51,-0.308,-0.755,0.0
0.0,0.0,0.0,0.0
34.907,-0.54,-0.559,0.0
0.0,0.0,0.0,0.0
25.755,-0.391,-0.681,0.0
22.66,-0.34,-0.717,0.0
20.089,-0.299,-0.739,0.0
46.772,-0.687,-0.418,0.0
37.544,-0.546,-0.53,0.0
31.238,-0.449,-0.602,0.0
26.694,-0.38,-0.655,0.0
23.547,-0.331,-0.7,0.0
21.259,-0.296,-0.742,0.0
49.835,-0.685,-0.351,0.0
40.143,-0.545,-0.49,0.0
0.0,0.0,0.0,0.0
28.384,-0.376,-0.644,0.0
24.696,-0.323,-0.688,0.0
21.974,-0.284,-0.726,0.0
0.0,0.0,0.0,0.0
0.0,0.0,0.0,0.0
34.845,-0.432,-0.541,0.0
30.014,-0.367,-0.625,0.0
26.146,-0.315,-0.679,0.0
23.03,-0.274,-0.718,0.0
0.0,0.0,0.0,0.0
47.021,-0.542,-0.4,0.0
37.367,-0.424,-0.511,0.0
0.0,0.0,0.0,0.0
0.0,0.0,0.0,0.0
23.916,-0.259,-0.702,0.0
0.0,0.0,0.0,0.0
50.922,-0.533,-0.339,0.0
39.958,-0.411,-0.473,0.0
0.0,0.0,0.0,0.0
28.448,-0.282,-0.635,0.0
24.841,-0.242,-0.683,0.0
79.257,-0.756,0.028,0.0
55.256,-0.516,-0.266,0.0
0.0,0.0,0.0,0.0
0.0,0.0,0.0,0.0
30.343,-0.267,-0.622,0.0
25.808,-0.222,-0.663,0.0
0.0,0.0,0.0,0.0
0.0,0.0,0.0,0.0
0.0,0.0,0.0,0.0
0.0,0.0,0.0,0.0
31.561,-0.241,-0.59,0.0
27.763,-0.207,-0.664,0.0
110.997,-0.804,0.439,3.0
0.0,0.0,0.0,0.0
0.0,0.0,0.0,0.0
0.0,0.0,0.0,0.0
33.436,-0.215,-0.565,0.0
28.811,-0.18,-0.637,0.0
111.024,-0.67,0.638,4.0
0.0,0.0,0.0,0.0
0.0,0.0,0.0,0.0
43.617,-0.236,-0.434,0.0
0.0,0.0,0.0,0.0
30.286,-0.152,-0.617,0.0
119.707,-0.575,0.897,7.0
95.21,-0.438,0.218,1.0
0.0,0.0,0.0,0.0
0.0,0.0,0.0,0.0
0.0,0.0,0.0,0.0
31.31,-0.117,-0.583,0.0
119.73,-0.424,1.105,16.0
102.966,-0.342,0.415,2.0
0.0,0.0,0.0,0.0
0.0,0.0,0.0,0.0
41.483,-0.111,-0.485,0.0
33.919,-0.083,-0.574,0.0
119.694,-0.269,1.31,17.0
110.782,-0.224,0.635,11.0
0.0,0.0,0.0,0.0
0.0,0.0,0.0,0.0
45.279,-0.061,-0.453,1.0
35.532,-0.04,-0.541,0.0
111.224,-0.103,1.405,13.0
111.251,-0.078,0.824,9.0
95.326,-0.046,0.208,2.0
0.0,0.0,0.0,0.0
45.825,-0.001,-0.382,1.0
0.0,0.0,0.0,0.0
111.082,0.047,1.588,13.0
111.202,0.072,1.009,14.0
103.453,0.091,0.398,2.0
73.276,0.081,-0.107,1.0
49.971,0.067,-0.334,0.0
42.811,0.067,-0.51,0.0
111.143,0.202,1.774,6.0
111.097,0.227,1.191,19.0
104.097,0.237,0.572,8.0
0.0,0.0,0.0,0.0
0.0,0.0,0.0,0.0
42.912,0.128,-0.442,1.0
119.878,0.387,2.108,150.0
119.777,0.416,1.48,14.0
110.917,0.412,0.789,10.0
87.667,0.346,0.155,1.0
0.0,0.0,0.0,0.0
45.921,0.203,-0.399,0.0
111.129,0.519,2.131,23.0
111.107,0.546,1.549,2.0
111.004,0.573,0.966,17.0
92.372,0.499,0.309,1.0
0.0,0.0,0.0,0.0
0.0,0.0,0.0,0.0
111.058,0.681,2.304,24.0
100.508,0.642,1.558,2.0
104.937,0.696,1.076,5.0
97.745,0.673,0.479,7.0
0.0,0.0,0.0,0.0
55.099,0.407,-0.307,0.0
0.0,0.0,0.0,0.0
99.908,0.788,1.702,5.0
104.773,0.852,1.234,38.0
98.347,0.825,0.632,16.0
83.232,0.719,0.098,1.0
0.0,0.0,0.0,0.0
104.687,0.959,2.493,26.0
104.725,0.986,1.943,37.0
98.691,0.953,1.311,22.0
98.495,0.977,0.781,17.0
85.426,0.87,0.228,5.0
0.0,0.0,0.0,0.0
98.643,1.055,2.495,23.0
98.615,1.08,1.975,29.0
98.545,1.106,1.455,31.0
98.506,1.131,0.926,26.0
85.342,1.001,0.352,13.0
78.861,0.946,-0.089,1.0
98.534,1.209,2.637,33.0
98.552,1.234,2.117,34.0
98.561,1.261,1.597,28.0
98.543,1.287,1.068,34.0
98.314,1.309,0.546,6.0
77.21,1.048,0.022,2.0
98.491,1.366,2.777,30.0
98.64,1.394,2.26,29.0
98.707,1.42,1.739,22.0
98.793,1.448,1.209,15.0
92.037,1.373,0.641,23.0
80.979,1.23,0.136,2.0
98.643,1.528,2.919,9.0
119.943,1.89,2.916,28.0
91.952,1.473,1.749,34.0
91.88,1.496,1.252,45.0
91.857,1.52,0.765,31.0
78.295,1.317,0.239,11.0
91.98,1.575,2.848,20.0
91.837,1.597,2.356,33.0
91.848,1.622,1.871,39.0
91.88,1.647,1.375,40.0
91.897,1.672,0.888,22.0
84.661,1.564,0.37,11.0
91.813,1.723,2.965,31.0
91.821,1.748,2.477,30.0
88.479,1.708,1.918,5.0
87.379,1.711,1.422,29.0
87.559,1.738,0.96,7.0
85.138,1.713,0.482,13.0
85.416,1.746,2.869,17.0
85.369,1.768,2.413,23.0
85.293,1.79,1.958,33.0
85.284,1.812,1.496,38.0
85.262,1.836,1.044,40.0
85.202,1.857,0.59,18.0
85.268,1.887,2.971,36.0
85.254,1.909,2.517,38.0
85.248,1.933,2.063,37.0
85.239,1.956,1.601,40.0
85.256,1.979,1.147,39.0
85.183,2.001,0.694,27.0
78.854,1.878,2.844,22.0
85.295,2.055,2.621,28.0
85.296,2.078,2.167,29.0
85.337,2.103,1.706,27.0
119.998,2.99,1.758,23.0
78.992,1.99,0.737,23.0
78.848,2.014,2.938,29.0
78.899,2.036,2.519,27.0
78.909,2.058,2.098,33.0
78.897,2.08,1.669,35.0
78.894,2.102,1.248,34.0
78.885,2.124,0.827,30.0
78.809,2.149,3.028,30.0
78.808,2.171,2.607,32.0
78.833,2.193,2.186,28.0
77.432,2.176,1.726,2.0
76.75,2.179,1.302,6.0
76.528,2.195,0.889,8.0
118.046,3.427,4.669,8.0
78.825,2.31,2.696,29.0
78.91,2.336,2.277,29.0
75.455,2.254,1.766,7.0
74.611,2.25,1.347,6.0
74.22,2.259,0.943,4.0
78.788,2.427,3.202,5.0
190.693,5.927,6.729,20.0
211.226,6.626,6.323,17.0
119.962,3.796,2.936,12.0
72.49,2.314,1.385,29.0
72.416,2.333,0.997,34.0
72.453,2.361,3.022,31.0
72.448,2.38,2.632,36.0
72.419,2.4,2.242,37.0
72.384,2.419,1.846,37.0
72.375,2.44,1.457,40.0
72.349,2.46,1.069,33.0
72.387,2.489,3.093,35.0
72.407,2.51,2.704,38.0
72.409,2.53,2.314,35.0
72.385,2.55,1.918,35.0
72.388,2.571,1.529,33.0
72.398,2.592,1.141,26.0
72.465,2.623,3.168,28.0
72.504,2.646,2.779,21.0
72.533,2.666,2.389,15.0
72.536,2.687,1.992,4.0
120.054,4.481,2.651,15.0
120.104,4.517,2.006,6.0
66.208,2.517,2.956,19.0
66.243,2.537,2.6,14.0
190.858,7.364,6.465,22.0
195.077,7.583,5.537,19.0
194.382,7.611,4.471,19.0
120.101,4.737,2.116,22.0
66.205,2.638,3.016,12.0
66.088,2.652,2.654,26.0
66.114,2.671,2.298,27.0
66.161,2.692,1.936,21.0
66.216,2.713,1.58,19.0
66.179,2.73,1.223,24.0
65.973,2.75,3.063,24.0
66.006,2.77,2.707,24.0
66.014,2.789,2.351,33.0
66.037,2.808,1.988,38.0
64.23,2.749,1.586,8.0
62.965,2.713,1.215,7.0
65.961,2.87,3.117,17.0
52.565,2.302,2.199,16.0
66.078,2.912,2.406,23.0
66.083,2.93,2.042,8.0
62.462,2.788,1.593,7.0
61.206,2.749,1.229,11.0
104.378,4.733,5.015,15.0
52.883,2.413,2.254,26.0
52.771,2.422,1.962,2.0
62.074,2.866,1.965,5.0
61.068,2.836,1.602,15.0
120.091,5.613,2.501,5.0
59.487,2.806,2.902,24.0
52.984,2.514,2.296,22.0
189.927,9.063,7.201,6.0
60.843,2.92,1.97,4.0
125.731,6.071,3.389,2.0
120.129,5.836,2.587,12.0
52.626,2.58,2.604,15.0
59.464,2.931,2.619,9.0
59.48,2.949,2.296,26.0
59.5,2.967,1.967,9.0
59.618,2.99,1.648,0.0
124.797,6.294,2.772,150.0
52.768,2.685,2.647,27.0
59.385,3.038,2.655,22.0
59.401,3.055,2.332,31.0
59.4,3.071,2.002,35.0
59.409,3.089,1.679,39.0
59.417,3.105,1.356,40.0
52.815,2.785,2.683,27.0
52.455,2.78,2.377,26.0
59.425,3.166,2.369,33.0
59.425,3.183,2.039,31.0
59.411,3.199,1.715,33.0
59.387,3.214,1.391,27.0
52.598,2.872,2.702,12.0
52.878,2.902,2.428,22.0
119.695,6.6,4.841,28.0
119.668,6.632,4.175,29.0
119.707,6.666,3.523,22.0
59.514,3.331,1.427,6.0
52.504,2.963,2.726,26.0
53.088,3.011,2.466,5.0
119.556,6.814,4.9,18.0
119.222,6.828,4.223,18.0
118.905,6.842,3.56,14.0
115.859,6.698,2.836,10.0
52.315,3.05,2.743,9.0
52.226,3.059,2.452,4.0
115.476,6.794,4.789,32.0
115.449,6.824,4.144,35.0
115.497,6.859,3.514,40.0
0.0,0.0,0.0,0.0
41.676,2.507,2.205,37.0
115.502,6.981,5.477,10.0
115.474,7.01,4.842,26.0
111.048,6.771,4.036,27.0
111.058,6.801,3.427,68.0
111.066,6.833,2.819,69.0
41.72,2.587,2.225,33.0
90.044,5.607,4.308,14.0
111.115,6.949,4.704,10.0
111.039,6.973,4.08,15.0
110.985,7.0,3.469,19.0
110.901,7.024,2.857,2.0
41.677,2.66,2.239,37.0
52.306,3.352,2.521,35.0
52.33,3.367,2.234,30.0
52.359,3.383,1.943,26.0
52.335,3.395,1.654,25.0
50.731,3.305,1.324,12.0
52.264,3.431,2.825,28.0
52.257,3.444,2.536,43.0
52.252,3.457,2.248,48.0
52.237,3.469,1.955,37.0
50.609,3.375,1.615,3.0
49.636,3.323,1.311,10.0
52.28,3.527,2.842,11.0
52.252,3.539,2.552,25.0
52.23,3.551,2.263,38.0
52.213,3.563,1.968,43.0
49.716,3.405,1.6,13.0
49.105,3.376,1.31,14.0
41.796,2.896,2.283,36.0
52.372,3.642,2.571,19.0
52.314,3.651,2.279,22.0
52.293,3.662,1.984,22.0
49.033,3.447,1.589,13.0
48.318,3.409,1.3,10.0
41.737,2.967,2.289,6.0
90.567,6.46,4.466,12.0
90.297,6.464,3.953,16.0
102.056,7.332,3.893,56.0
48.267,3.479,1.574,10.0
47.483,3.435,1.286,11.0
80.17,5.844,4.412,12.0
90.922,6.65,4.5,18.0
71.322,5.234,3.134,14.0
90.562,6.668,3.469,12.0
47.25,3.49,1.548,29.0
47.329,3.508,1.289,38.0
79.246,5.918,4.372,15.0
71.635,5.366,3.555,9.0
71.335,5.361,3.144,25.0
101.932,7.686,3.917,12.0
102.01,7.716,3.354,36.0
100.266,7.609,2.742,5.0
79.536,6.08,4.397,26.0
71.615,5.491,3.561,12.0
71.652,5.511,3.164,15.0
91.33,7.046,3.517,12.0
101.261,7.838,3.337,18.0
99.16,7.7,2.717,6.0
45.945,3.593,2.542,15.0
45.896,3.6,2.284,31.0
45.949,3.614,2.031,28.0
45.942,3.624,1.771,28.0
45.918,3.633,1.515,35.0
45.92,3.644,1.259,34.0
45.855,3.665,2.538,37.0
45.826,3.673,2.281,39.0
45.841,3.685,2.027,38.0
45.822,3.694,1.766,42.0
45.83,3.706,1.511,43.0
45.814,3.716,1.256,42.0
45.813,3.741,2.535,42.0
45.803,3.75,2.279,40.0
45.802,3.76,2.023,38.0
45.795,3.77,1.763,38.0
45.796,3.781,1.508,43.0
45.798,3.792,1.253,39.0
45.809,3.819,2.532,43.0
45.822,3.829,2.277,38.0
45.83,3.84,2.021,36.0
45.825,3.85,1.761,29.0
45.816,3.86,1.505,30.0
45.809,3.87,1.25,30.0
45.876,3.902,2.531,30.0
45.896,3.913,2.276,19.0
45.921,3.925,2.021,3.0
45.972,3.94,1.761,3.0
45.926,3.947,1.503,11.0
45.888,3.953,1.246,13.0
85.56,7.42,4.711,16.0
86.082,7.484,4.257,18.0
91.924,8.011,4.031,26.0
93.101,8.134,3.553,60.0
93.112,8.155,3.033,60.0
93.151,8.179,2.514,40.0
85.351,7.542,4.684,39.0
85.601,7.581,4.218,33.0
92.397,8.201,4.035,14.0
93.114,8.285,3.536,13.0
93.064,8.301,3.013,4.0
92.771,8.295,2.484,6.0
84.675,7.619,4.629,35.0
85.599,7.72,4.199,40.0
93.027,8.409,4.042,28.0
93.007,8.427,3.51,26.0
92.058,8.361,2.958,2.0
91.821,8.359,2.437,10.0
84.652,7.753,4.608,32.0
85.666,7.863,4.181,30.0
93.024,8.557,4.017,18.0
92.942,8.568,3.483,21.0
91.279,8.433,2.909,7.0
91.118,8.438,2.392,9.0
84.477,7.869,4.574,37.0
92.62,8.645,4.493,14.0
92.451,8.648,3.965,14.0
92.186,8.642,3.427,10.0
90.447,8.497,2.854,12.0
90.35,8.507,2.345,12.0
84.559,8.009,4.551,8.0
91.871,8.718,4.428,13.0
91.626,8.713,3.9,17.0
91.342,8.702,3.365,5.0
89.737,8.568,2.801,12.0
89.619,8.575,2.294,12.0
73.176,7.042,3.912,34.0
91.093,8.782,4.357,14.0
90.817,8.774,3.832,14.0
89.152,8.629,3.251,6.0
88.976,8.63,2.744,13.0
88.89,8.639,2.241,12.0
73.156,7.15,3.883,24.0
88.674,8.682,4.206,15.0
88.555,8.686,3.701,15.0
88.474,8.695,3.19,4.0
88.369,8.701,2.689,1.0
88.215,8.704,2.188,5.0
73.103,7.252,3.849,24.0
88.545,8.799,4.162,34.0
88.547,8.815,3.661,32.0
87.714,8.748,3.123,3.0
87.618,8.754,2.627,7.0
87.524,8.761,2.13,6.0
88.551,8.912,4.621,35.0
88.562,8.928,4.121,38.0
88.573,8.944,3.622,23.0
87.068,8.807,3.059,3.0
87.0,8.816,2.566,11.0
86.926,8.825,2.073,11.0
88.431,9.025,4.572,27.0
88.309,9.027,4.065,24.0
88.161,9.026,3.56,14.0
86.439,8.864,2.994,4.0
86.389,8.874,2.504,12.0
86.27,8.877,2.014,11.0
87.794,9.08,4.492,23.0
87.681,9.082,3.99,18.0
87.509,9.079,3.487,10.0
85.873,8.922,2.927,12.0
85.782,8.927,2.44,12.0
85.69,8.933,1.953,12.0
87.181,9.134,4.413,21.0
87.099,9.139,3.914,24.0
85.381,8.972,3.354,7.0
85.2,8.967,2.856,13.0
84.207,8.876,2.346,24.0
84.172,8.887,1.869,43.0
84.139,8.927,4.209,44.0
84.157,8.941,3.733,57.0
84.146,8.953,3.254,67.0
84.15,8.967,2.769,64.0
84.152,8.98,2.293,56.0
84.204,9.0,1.818,33.0
84.165,9.038,4.157,37.0
84.183,9.052,3.68,25.0
84.202,9.067,3.203,16.0
84.21,9.081,2.718,11.0
84.12,9.084,2.238,7.0
84.069,9.092,1.76,7.0
84.084,9.136,4.098,15.0
84.041,9.142,3.619,13.0
83.873,9.136,3.135,4.0
83.748,9.134,2.647,5.0
83.63,9.134,2.169,7.0
83.465,9.129,1.692,9.0
84.046,9.234,4.038,22.0
84.036,9.245,3.56,14.0
83.194,9.163,3.052,3.0
83.16,9.17,2.57,11.0
83.081,9.174,2.096,12.0
82.994,9.177,1.624,12.0
84.074,9.337,3.981,28.0
84.003,9.339,3.499,5.0
82.699,9.205,2.975,12.0
82.688,9.215,2.496,12.0
82.575,9.214,2.023,11.0
82.5,9.218,1.553,12.0
83.995,9.424,3.915,21.0
82.404,9.256,3.372,3.0
82.275,9.252,2.898,11.0
82.252,9.26,2.421,13.0
82.135,9.258,1.951,11.0
82.051,9.259,1.483,12.0
83.542,9.466,3.83,24.0
81.913,9.291,3.289,2.0
81.786,9.286,2.818,5.0
81.784,9.295,2.345,13.0
81.705,9.297,1.878,12.0
81.615,9.298,1.411,10.0
83.135,9.508,3.746,16.0
81.505,9.331,3.208,4.0
81.457,9.335,2.741,11.0
81.358,9.333,2.267,13.0
81.315,9.338,1.803,11.0
81.251,9.341,1.34,6.0
82.663,9.539,3.658,13.0
81.142,9.372,3.128,7.0
67.756,7.834,2.224,9.0
67.647,7.829,1.829,12.0
66.59,7.714,1.421,13.0
66.37,7.697,1.039,28.0
66.412,7.73,2.883,15.0
66.345,7.729,2.501,33.0
66.33,7.734,2.122,42.0
66.317,7.74,1.737,56.0
66.318,7.747,1.36,75.0
66.321,7.756,0.982,100.0
66.299,7.78,2.82,68.0
66.31,7.788,2.442,69.0
66.311,7.795,2.063,66.0
66.306,7.801,1.678,55.0
66.309,7.808,1.301,46.0
66.355,7.822,0.923,28.0
66.306,7.842,2.762,44.0
66.327,7.85,2.383,35.0
66.407,7.866,2.007,26.0
66.483,7.882,1.624,20.0
66.474,7.888,1.244,14.0
66.403,7.886,0.864,15.0
66.45,7.917,2.707,17.0
66.379,7.914,2.324,17.0
