X,Y,Z,Reflectivity
0.0,0.0,0.0,0.0
39.867,-0.728,-0.484,0.0
139.041,-2.5,2.149,8.0
139.077,-2.451,1.384,15.0
113.575,-1.958,0.504,5.0
0.0,0.0,0.0,0.0
49.981,-0.825,-0.333,0.0
0.0,0.0,0.0,0.0
138.982,-2.202,2.14,9.0
138.903,-2.149,1.373,10.0
139.085,-2.102,0.607,3.0
0.0,0.0,0.0,0.0
49.89,-0.717,-0.337,0.0
0.0,0.0,0.0,0.0
139.137,-1.908,2.129,6.0
139.207,-1.858,1.362,17.0
0.0,0.0,0.0,0.0
0.0,0.0,0.0,0.0
0.0,0.0,0.0,0.0
40.99,-0.487,-0.508,0.0
119.713,-1.385,1.816,7.0
119.742,-1.344,1.155,23.0
119.631,-1.299,0.492,5.0
0.0,0.0,0.0,0.0
0.0,0.0,0.0,0.0
38.573,-0.377,-0.485,0.0
119.74,-1.133,1.796,109.0
119.671,-1.089,1.133,20.0
0.0,0.0,0.0,0.0
0.0,0.0,0.0,0.0
0.0,0.0,0.0,0.0
0.0,0.0,0.0,0.0
119.78,-0.876,1.772,3.0
119.725,-0.831,1.107,19.0
0.0,0.0,0.0,0.0
0.0,0.0,0.0,0.0
47.897,-0.28,-0.357,0.0
40.01,-0.22,-0.52,0.0
0.0,0.0,0.0,0.0
0.0,0.0,0.0,0.0
27.836,-0.092,-0.636,0.0
24.687,-0.082,-0.694,0.0
22.038,-0.073,-0.733,1.0
19.679,-0.065,-0.756,0.0
45.04,-0.147,-0.472,0.0
35.395,-0.116,-0.552,0.0
29.728,-0.097,-0.617,0.0
25.763,-0.084,-0.67,0.0
22.317,-0.072,-0.695,0.0
20.468,-0.066,-0.743,0.0
45.532,-0.145,-0.379,0.0
0.0,0.0,0.0,0.0
31.399,-0.099,-0.585,0.0
27.18,-0.085,-0.649,0.0
23.708,-0.074,-0.688,0.0
21.761,-0.068,-0.744,0.0
0.0,0.0,0.0,0.0
41.583,-0.126,-0.473,0.0
35.234,-0.106,-0.582,0.0
29.277,-0.088,-0.637,0.0
25.435,-0.076,-0.684,0.0
22.121,-0.065,-0.709,0.0
0.0,0.0,0.0,0.0
45.173,-0.129,-0.416,1.0
0.0,0.0,0.0,0.0
31.004,-0.087,-0.607,0.0
26.724,-0.074,-0.661,0.0
23.496,-0.064,-0.702,0.0
0.0,0.0,0.0,0.0
50.403,-0.133,-0.357,0.0
0.0,0.0,0.0,0.0
33.696,-0.087,-0.588,0.0
28.452,-0.072,-0.643,0.0
24.67,-0.062,-0.685,0.0
0.0,0.0,0.0,0.0
0.0,0.0,0.0,0.0
44.993,-0.106,-0.454,1.0
0.0,0.0,0.0,0.0
0.0,0.0,0.0,0.0
26.31,-0.058,-0.674,0.0
0.0,0.0,0.0,0.0
0.0,0.0,0.0,0.0
0.0,0.0,0.0,0.0
37.836,-0.076,-0.499,0.0
32.013,-0.063,-0.587,0.0
0.0,0.0,0.0,0.0
110.617,-0.204,0.491,1.0
0.0,0.0,0.0,0.0
0.0,0.0,0.0,0.0
0.0,0.0,0.0,0.0
35.29,-0.057,-0.572,0.0
29.11,-0.045,-0.622,0.0
111.029,-0.165,0.731,17.0
0.0,0.0,0.0,0.0
0.0,0.0,0.0,0.0
45.451,-0.059,-0.407,1.0
0.0,0.0,0.0,0.0
31.447,-0.037,-0.605,0.0
117.309,-0.128,1.019,15.0
98.852,-0.101,0.351,3.0
0.0,0.0,0.0,0.0
0.0,0.0,0.0,0.0
0.0,0.0,0.0,0.0
0.0,0.0,0.0,0.0
117.373,-0.078,1.267,18.0
110.698,-0.065,0.626,7.0
0.0,0.0,0.0,0.0
56.708,-0.025,-0.269,0.0
44.864,-0.016,-0.443,1.0
0.0,0.0,0.0,0.0
111.08,-0.022,1.434,12.0
111.162,-0.013,0.862,10.0
95.475,-0.003,0.249,1.0
0.0,0.0,0.0,0.0
49.0,0.006,-0.38,0.0
38.668,0.008,-0.5,0.0
117.302,0.035,1.76,10.0
111.113,0.043,1.095,13.0
104.281,0.05,0.49,3.0
73.629,0.042,-0.04,0.0
0.0,0.0,0.0,0.0
44.84,0.033,-0.487,1.0
117.357,0.098,2.004,23.0
111.095,0.104,1.326,21.0
110.788,0.114,0.752,10.0
92.773,0.104,0.14,1.0
0.0,0.0,0.0,0.0
45.652,0.06,-0.401,1.0
117.404,0.166,2.248,20.0
111.027,0.168,1.554,18.0
111.151,0.18,0.983,11.0
0.0,0.0,0.0,0.0
0.0,0.0,0.0,0.0
0.0,0.0,0.0,0.0
117.421,0.238,2.492,3.0
111.077,0.237,1.783,5.0
111.103,0.249,1.21,19.0
104.094,0.245,0.587,9.0
0.0,0.0,0.0,0.0
0.0,0.0,0.0,0.0
119.872,0.321,2.79,20.0
119.845,0.335,2.172,15.0
119.834,0.349,1.553,11.0
110.918,0.336,0.852,16.0
94.806,0.298,0.239,2.0
0.0,0.0,0.0,0.0
119.828,0.404,3.036,15.0
119.869,0.418,2.416,54.0
119.881,0.432,1.796,135.0
111.219,0.415,1.081,10.0
94.655,0.365,0.431,4.0
0.0,0.0,0.0,0.0
194.751,0.796,5.328,11.0
119.829,0.504,2.656,9.0
111.181,0.482,1.889,8.0
111.105,0.496,1.302,25.0
110.798,0.509,0.724,6.0
87.82,0.415,0.12,3.0
111.176,0.536,3.26,19.0
111.168,0.551,2.685,17.0
111.14,0.567,2.11,24.0
111.068,0.581,1.522,16.0
110.997,0.596,0.946,17.0
92.376,0.509,0.31,3.0
111.085,0.624,3.481,20.0
111.086,0.639,2.905,26.0
111.031,0.654,2.327,28.0
101.54,0.614,1.593,3.0
101.43,0.627,1.066,4.0
104.578,0.662,0.558,6.0
69.91,0.45,2.328,7.0
111.053,0.731,3.123,32.0
111.065,0.747,2.547,27.0
101.556,0.699,1.793,7.0
100.78,0.709,1.256,2.0
104.826,0.753,0.764,23.0
69.736,0.509,2.46,22.0
104.801,0.781,3.153,23.0
104.787,0.797,2.608,32.0
101.174,0.785,1.984,4.0
100.342,0.794,1.446,5.0
104.784,0.846,0.967,15.0
69.85,0.571,2.599,8.0
69.813,0.582,2.235,11.0
104.724,0.891,2.81,32.0
0.0,0.0,0.0,0.0
100.087,0.883,1.634,8.0
99.879,0.898,1.113,6.0
97.941,0.892,3.833,18.0
69.645,0.645,2.362,11.0
104.69,0.987,3.007,44.0
104.705,1.004,2.452,14.0
104.736,1.022,1.908,23.0
98.708,0.98,1.286,24.0
97.95,0.985,4.02,8.0
98.401,1.006,3.525,15.0
98.762,1.027,3.023,20.0
98.68,1.042,2.497,24.0
98.663,1.059,1.982,31.0
98.616,1.075,1.468,29.0
70.092,0.774,3.007,11.0
98.193,1.1,3.7,18.0
98.648,1.123,3.202,19.0
98.623,1.14,2.678,26.0
98.592,1.158,2.164,29.0
98.553,1.174,1.65,30.0
98.608,1.189,4.414,29.0
98.655,1.206,3.899,18.0
98.335,1.22,3.374,15.0
98.549,1.24,2.857,30.0
98.549,1.258,2.342,29.0
98.552,1.277,1.829,29.0
78.766,1.031,3.669,8.0
98.238,1.304,4.063,22.0
69.766,0.939,2.519,15.0
98.43,1.342,3.03,18.0
98.534,1.362,2.519,29.0
98.59,1.382,2.006,32.0
98.091,1.389,4.745,14.0
98.17,1.409,4.235,26.0
69.863,1.015,2.647,24.0
69.894,1.029,2.276,15.0
98.548,1.47,2.695,28.0
119.902,1.811,2.65,35.0
85.663,1.307,4.295,8.0
78.74,1.216,3.536,20.0
120.334,1.882,4.771,14.0
70.064,1.109,2.403,14.0
119.878,1.921,3.485,3.0
91.976,1.492,2.193,19.0
85.607,1.403,4.442,3.0
92.287,1.53,4.304,10.0
78.751,1.32,3.259,6.0
70.053,1.189,2.524,8.0
91.963,1.579,2.832,15.0
91.854,1.595,2.347,30.0
73.026,1.281,3.914,2.0
85.524,1.516,4.134,14.0
78.754,1.412,3.393,10.0
70.195,1.273,2.649,16.0
91.861,1.684,2.983,33.0
91.795,1.701,2.499,29.0
81.123,1.517,4.484,4.0
91.432,1.728,4.572,12.0
91.451,1.747,4.092,11.0
91.528,1.768,3.604,16.0
91.742,1.791,3.131,32.0
91.811,1.811,2.65,29.0
77.921,1.551,4.436,4.0
85.294,1.715,4.406,10.0
85.396,1.735,3.961,27.0
78.806,1.617,3.231,12.0
85.368,1.77,3.051,23.0
85.369,1.787,2.602,22.0
74.201,1.567,4.344,1.0
84.129,1.795,4.481,8.0
85.289,1.838,4.093,29.0
85.299,1.856,3.635,33.0
78.902,1.733,2.946,21.0
85.288,1.892,2.735,39.0
74.121,1.658,4.457,5.0
81.235,1.835,4.456,8.0
85.319,1.945,4.229,35.0
85.301,1.963,3.768,33.0
85.3,1.982,3.318,13.0
85.27,2.0,2.867,23.0
74.147,1.754,4.577,15.0
72.953,1.741,4.116,6.0
85.056,2.049,4.349,5.0
117.191,2.848,5.359,7.0
85.394,2.095,3.454,6.0
78.871,1.952,2.773,23.0
72.078,1.799,4.559,37.0
72.846,1.834,4.222,8.0
78.84,2.003,4.151,23.0
78.819,2.02,3.725,31.0
78.836,2.038,3.308,31.0
78.84,2.056,2.891,31.0
70.744,1.86,4.583,11.0
72.55,1.924,4.314,13.0
78.801,2.107,4.267,24.0
78.804,2.124,3.84,37.0
78.829,2.143,3.424,37.0
78.8,2.16,3.005,28.0
65.346,1.806,4.329,18.0
71.609,1.995,4.363,24.0
72.948,2.048,4.055,6.0
79.076,2.238,3.968,15.0
79.184,2.259,3.553,13.0
79.057,2.275,3.128,10.0
65.37,1.896,4.424,13.0
70.93,2.073,4.422,4.0
81.066,2.387,4.621,10.0
82.261,2.44,4.243,5.0
65.444,1.956,3.027,21.0
117.872,3.552,4.826,8.0
78.125,2.372,5.395,22.0
65.505,2.004,4.174,21.0
72.078,2.222,4.208,30.0
72.742,2.258,3.851,14.0
72.629,2.272,3.459,7.0
117.967,3.718,4.988,8.0
66.601,2.115,4.69,26.0
65.541,2.096,4.265,8.0
71.073,2.289,4.244,7.0
72.232,2.344,3.921,28.0
72.523,2.37,3.549,16.0
72.409,2.383,3.157,32.0
45.179,1.499,3.241,11.0
66.558,2.223,4.419,27.0
65.638,2.208,4.006,12.0
72.426,2.453,4.026,33.0
72.294,2.466,3.632,32.0
72.359,2.485,3.249,37.0
40.797,1.412,2.98,35.0
45.298,1.579,3.066,16.0
65.742,2.306,4.096,18.0
66.397,2.345,3.775,26.0
72.237,2.569,3.72,25.0
72.412,2.592,3.342,30.0
40.654,1.466,3.02,41.0
45.187,1.64,3.114,6.0
44.87,1.639,2.852,18.0
66.157,2.432,3.842,29.0
66.288,2.453,3.494,23.0
66.26,2.468,3.138,25.0
40.663,1.526,3.071,35.0
40.758,1.539,2.858,42.0
44.903,1.706,2.907,31.0
65.429,2.502,3.878,41.0
64.631,2.486,3.483,15.0
65.958,2.554,3.201,36.0
40.597,1.584,3.114,41.0
40.727,1.599,2.904,45.0
44.911,1.773,2.96,23.0
64.925,2.579,3.923,10.0
65.834,2.631,3.624,40.0
65.737,2.643,3.265,26.0
40.556,1.642,3.156,35.0
40.855,1.664,2.959,37.0
44.709,1.832,2.997,4.0
44.782,1.845,2.755,16.0
65.848,2.73,3.697,34.0
65.917,2.749,3.346,27.0
40.473,1.701,3.195,37.0
40.584,1.714,2.984,43.0
41.353,1.756,2.816,35.0
41.149,1.757,2.576,31.0
65.616,2.818,3.753,10.0
65.957,2.849,3.417,19.0
40.404,1.758,3.232,36.0
40.418,1.768,3.013,47.0
41.083,1.807,2.84,22.0
41.047,1.815,2.612,42.0
42.09,1.871,2.45,14.0
52.996,2.369,2.799,11.0
40.427,1.82,3.275,31.0
40.424,1.83,3.054,39.0
40.737,1.854,2.857,37.0
41.051,1.878,2.652,39.0
41.966,1.929,2.484,26.0
59.488,2.75,3.199,8.0
40.486,1.885,3.319,45.0
40.37,1.889,3.09,37.0
40.706,1.915,2.894,38.0
40.956,1.936,2.685,42.0
41.011,1.949,2.466,20.0
59.439,2.839,3.253,8.0
40.511,1.949,3.359,31.0
40.279,1.947,3.12,45.0
40.779,1.981,2.937,40.0
40.828,1.993,2.714,44.0
40.968,2.01,2.501,46.0
41.812,2.061,2.325,26.0
40.496,2.011,3.394,35.0
40.422,2.016,3.167,31.0
40.595,2.035,2.959,46.0
40.793,2.054,2.747,43.0
40.922,2.07,2.533,41.0
41.755,2.122,2.358,37.0
40.601,2.079,3.437,16.0
40.451,2.08,3.203,39.0
40.608,2.098,2.994,46.0
40.908,2.123,2.788,38.0
40.946,2.135,2.568,40.0
41.45,2.171,2.374,27.0
40.549,2.139,3.466,40.0
40.472,2.145,3.237,39.0
40.524,2.157,3.02,40.0
40.966,2.19,2.825,43.0
40.995,2.201,2.603,42.0
41.053,2.215,2.383,41.0
40.446,2.198,3.488,43.0
40.831,2.228,3.297,16.0
40.462,2.218,3.046,43.0
40.857,2.248,2.848,45.0
41.232,2.278,2.648,42.0
41.649,2.311,2.447,23.0
40.902,2.286,3.557,52.0
40.68,2.283,3.314,43.0
40.565,2.286,3.082,41.0
40.977,2.318,2.885,38.0
41.154,2.338,2.671,35.0
41.41,2.362,2.461,29.0
41.215,2.368,3.613,21.0
40.876,2.358,3.358,28.0
40.77,2.361,3.125,38.0
41.452,2.41,2.945,31.0
42.035,2.453,2.756,17.0
41.494,2.431,2.493,27.0
41.641,2.457,3.676,38.0
41.02,2.43,3.395,16.0
41.51,2.469,3.207,16.0
41.379,2.47,2.965,44.0
42.1,2.522,2.785,38.0
41.537,2.498,2.52,37.0
41.833,2.534,3.718,27.0
41.548,2.526,3.463,43.0
41.26,2.518,3.212,23.0
41.355,2.533,2.987,39.0
41.955,2.579,2.799,25.0
41.544,2.563,2.543,32.0
42.159,2.619,3.771,38.0
41.719,2.601,3.5,40.0
41.867,2.62,3.281,28.0
41.666,2.616,3.031,36.0
52.298,3.296,3.516,10.0
41.615,2.631,2.569,34.0
42.41,2.701,3.814,32.0
41.941,2.68,3.539,30.0
41.909,2.686,3.305,12.0
51.254,3.297,3.753,6.0
52.257,3.373,3.538,14.0
41.626,2.696,2.589,37.0
42.027,2.742,3.799,39.0
41.937,2.744,3.558,27.0
41.89,2.75,3.322,34.0
42.02,2.767,3.095,28.0
52.256,3.453,3.561,9.0
41.56,2.756,2.602,42.0
42.073,2.809,3.821,31.0
41.64,2.788,3.55,44.0
41.904,2.815,3.34,37.0
41.918,2.825,3.104,38.0
42.242,2.856,2.895,36.0
41.631,2.824,2.622,38.0
42.106,2.876,3.84,17.0
41.726,2.859,3.573,33.0
41.792,2.872,3.346,16.0
41.811,2.882,3.112,38.0
42.147,2.914,2.902,36.0
41.75,2.896,2.644,39.0
41.438,2.894,3.793,32.0
41.671,2.918,3.582,31.0
41.52,2.916,3.338,38.0
41.66,2.935,3.113,43.0
41.762,2.951,2.889,34.0
41.906,2.97,2.666,31.0
41.315,2.948,3.794,35.0
41.351,2.958,3.566,35.0
41.507,2.978,3.348,32.0
41.676,2.998,3.125,33.0
41.701,3.009,2.895,37.0
41.937,3.035,2.679,36.0
41.361,3.013,3.808,38.0
41.453,3.028,3.584,33.0
41.546,3.043,3.361,34.0
41.636,3.058,3.132,43.0
41.721,3.073,2.906,42.0
81.758,6.039,5.24,21.0
41.421,3.08,3.822,30.0
41.254,3.075,3.576,43.0
41.544,3.105,3.368,31.0
41.679,3.123,3.142,25.0
41.765,3.138,2.916,43.0
45.967,3.463,2.953,30.0
41.359,3.136,3.823,17.0
41.261,3.136,3.583,41.0
41.527,3.164,3.373,39.0
41.707,3.186,3.15,16.0
41.771,3.199,2.922,46.0
45.918,3.526,2.956,38.0
41.165,3.182,3.809,26.0
41.401,3.208,3.599,45.0
41.553,3.227,3.38,29.0
41.69,3.246,3.153,37.0
41.818,3.264,2.929,44.0
45.914,3.592,2.959,13.0
41.297,3.252,3.825,39.0
41.228,3.254,3.587,39.0
41.584,3.29,3.385,29.0
41.832,3.317,3.166,41.0
41.808,3.323,2.93,42.0
45.843,3.653,2.956,8.0
41.981,3.366,3.89,38.0
41.152,3.307,3.581,42.0
41.351,3.33,3.366,15.0
41.523,3.352,3.143,32.0
41.803,3.382,2.93,42.0
45.746,3.71,2.95,4.0
42.126,3.438,3.903,29.0
41.302,3.378,3.594,41.0
41.295,3.385,3.361,45.0
41.412,3.402,3.134,44.0
41.71,3.434,2.922,31.0
45.758,3.776,2.949,4.0
41.343,3.432,3.828,22.0
41.298,3.436,3.591,40.0
41.396,3.451,3.366,37.0
41.476,3.465,3.135,38.0
41.717,3.493,2.919,27.0
45.747,3.838,2.945,32.0
41.488,3.503,3.838,21.0
43.249,3.659,3.756,3.0
41.439,3.513,3.365,42.0
41.435,3.519,3.128,36.0
41.815,3.559,2.921,26.0
45.759,3.903,2.94,25.0
41.568,3.567,3.84,27.0
41.808,3.594,3.625,17.0
41.666,3.589,3.378,35.0
41.397,3.572,3.118,42.0
41.732,3.608,2.909,32.0
45.859,3.973,2.938,3.0
41.344,3.603,3.812,35.0
41.222,3.599,3.567,30.0
41.566,3.636,3.362,32.0
41.493,3.636,3.118,45.0
41.631,3.655,2.893,37.0
41.879,3.683,2.675,24.0
41.474,3.669,3.815,34.0
41.262,3.657,3.562,16.0
41.537,3.688,3.35,38.0
41.53,3.694,3.11,36.0
41.551,3.702,2.878,46.0
55.773,4.979,3.549,19.0
41.31,3.71,3.789,31.0
41.425,3.726,3.565,16.0
41.458,3.735,3.333,37.0
41.549,3.749,3.101,44.0
41.621,3.762,2.871,32.0
44.64,4.042,2.828,10.0
41.48,3.778,3.792,22.0
41.493,3.784,3.558,29.0
41.472,3.789,3.321,33.0
41.612,3.807,3.092,37.0
44.748,4.101,3.073,20.0
44.585,4.093,2.81,31.0
41.246,3.808,3.758,42.0
41.604,3.847,3.554,26.0
41.518,3.844,3.311,36.0
41.527,3.851,3.072,43.0
44.539,4.137,3.043,15.0
44.685,4.157,2.8,25.0
41.337,3.867,3.75,38.0
41.807,3.916,3.556,29.0
41.808,3.922,3.318,39.0
41.653,3.913,3.065,38.0
44.331,4.171,3.011,24.0
72.882,6.869,4.539,16.0
41.785,3.959,3.774,11.0
41.933,3.979,3.549,32.0
41.554,3.948,3.281,37.0
41.864,3.983,3.063,33.0
43.816,4.175,2.958,20.0
72.704,6.937,4.497,31.0
41.951,4.024,3.77,17.0
41.95,4.029,3.532,34.0
41.73,4.013,3.276,33.0
42.105,4.055,3.061,21.0
43.548,4.2,2.919,18.0
72.834,7.035,4.469,34.0
43.868,4.259,3.922,4.0
42.059,4.088,3.52,22.0
44.465,4.328,3.468,8.0
42.143,4.107,3.043,14.0
43.281,4.223,2.88,19.0
72.794,7.113,4.43,31.0
43.901,4.311,3.902,17.0
44.001,4.326,3.66,6.0
42.21,4.155,3.27,17.0
42.659,4.204,3.058,13.0
42.928,4.236,2.833,26.0
72.857,7.199,4.395,34.0
43.89,4.359,3.876,10.0
41.964,4.172,3.466,25.0
42.529,4.233,3.271,17.0
42.827,4.267,3.045,17.0
42.928,4.282,2.808,23.0
73.083,7.3,4.366,31.0
43.991,4.415,3.86,19.0
44.092,4.43,3.616,7.0
42.967,4.322,3.278,24.0
42.814,4.311,3.019,34.0
42.906,4.325,2.781,23.0
88.542,8.937,5.235,22.0
49.237,4.993,4.289,5.0
44.086,4.475,3.588,29.0
42.811,4.35,3.239,17.0
42.835,4.357,2.992,22.0
44.774,4.558,2.873,36.0
88.523,9.023,5.177,26.0
43.972,4.502,3.802,13.0
44.077,4.517,3.558,36.0
42.845,4.395,3.213,9.0
42.954,4.411,2.972,36.0
58.597,6.023,3.721,16.0
88.171,9.072,5.098,22.0
44.18,4.566,3.789,29.0
44.116,4.564,3.531,26.0
0.0,0.0,0.0,0.0
42.905,4.446,2.939,27.0
42.723,4.431,2.683,11.0
87.704,9.107,5.008,21.0
44.504,4.641,3.785,19.0
44.089,4.601,3.497,37.0
0.0,0.0,0.0,0.0
42.841,4.479,2.904,27.0
42.768,4.475,2.654,14.0
87.308,9.144,4.921,25.0
44.377,4.668,3.74,31.0
44.012,4.632,3.458,35.0
42.712,4.499,3.111,22.0
42.904,4.523,2.875,17.0
42.899,4.526,2.63,7.0
86.937,9.181,4.834,22.0
44.382,4.707,3.706,20.0
43.941,4.663,3.417,37.0
44.522,4.727,3.208,39.0
42.919,4.561,2.842,21.0
84.129,8.947,5.091,22.0
84.134,8.955,4.611,28.0
44.135,4.716,3.65,32.0
44.347,4.742,3.413,13.0
44.312,4.741,3.157,36.0
43.019,4.606,2.813,36.0
42.905,4.597,2.561,17.0
84.117,9.02,4.541,30.0
44.073,4.745,3.608,34.0
44.43,4.786,3.382,19.0
43.607,4.7,3.069,19.0
43.066,4.644,2.78,40.0
42.761,4.615,2.515,33.0
54.651,5.902,2.903,8.0
44.234,4.795,3.582,39.0
44.307,4.805,3.334,17.0
43.495,4.72,3.023,24.0
43.042,4.673,2.741,33.0
42.882,4.659,2.485,30.0
84.108,9.144,4.394,12.0
44.317,4.836,3.549,36.0
44.338,4.84,3.296,31.0
43.458,4.746,2.982,21.0
42.687,4.664,2.68,27.0
42.852,4.685,2.445,13.0
84.063,9.197,4.315,16.0
44.215,4.854,3.501,44.0
44.811,4.921,3.29,19.0
44.048,4.84,2.981,27.0
42.534,4.676,2.631,31.0
54.686,6.014,3.069,6.0
84.061,9.251,4.237,29.0
44.273,4.889,3.463,37.0
44.809,4.949,3.248,8.0
44.45,4.912,2.966,28.0
42.496,4.698,2.588,39.0
84.06,9.298,4.636,21.0
84.071,9.303,4.157,28.0
52.061,5.78,4.022,14.0
44.79,4.974,3.202,14.0
44.481,4.941,2.924,33.0
54.779,6.088,3.282,7.0
84.051,9.345,4.553,17.0
84.065,9.351,4.073,28.0
52.115,5.815,3.973,18.0
44.37,4.952,3.128,19.0
44.536,4.972,2.884,29.0
84.056,9.386,4.952,23.0
84.071,9.392,4.47,24.0
84.066,9.395,3.988,24.0
51.72,5.797,3.891,12.0
44.353,4.972,3.081,26.0
44.506,4.99,2.836,34.0
84.05,9.427,4.865,22.0
84.044,9.43,4.383,24.0
83.994,9.427,3.9,21.0
51.778,5.828,3.841,12.0
44.196,4.975,3.025,29.0
44.559,5.017,2.793,12.0
83.945,9.454,4.772,25.0
83.859,9.446,4.286,20.0
83.827,9.446,3.804,27.0
54.858,6.198,4.012,11.0
44.304,5.006,2.985,22.0
54.898,6.204,3.383,5.0
83.764,9.468,4.673,22.0
83.707,9.463,4.189,21.0
83.656,9.46,3.708,26.0
44.424,5.036,3.201,16.0
44.542,5.05,2.953,19.0
54.889,6.223,3.324,7.0
83.606,9.481,4.574,22.0
83.562,9.477,4.092,23.0
83.54,9.477,3.612,18.0
44.45,5.054,3.155,33.0
44.529,5.063,2.904,32.0
54.892,6.242,3.264,15.0
83.492,9.495,4.476,19.0
83.442,9.49,3.995,24.0
83.389,9.486,3.514,7.0
44.503,5.074,3.109,37.0
44.546,5.078,2.855,29.0
83.379,9.505,4.865,20.0
83.353,9.503,4.376,15.0
83.321,9.5,3.895,22.0
81.785,9.326,3.355,3.0
44.55,5.09,3.061,35.0
44.554,5.09,2.805,15.0
54.709,6.25,3.13,7.0
83.234,9.509,4.275,19.0
83.227,9.509,3.797,25.0
81.69,9.334,3.259,3.0
55.126,6.31,3.726,8.0
54.773,6.269,3.386,12.0
54.693,6.259,3.067,23.0
83.133,9.514,4.175,20.0
83.129,9.513,3.697,17.0
81.57,9.335,3.159,3.0
44.698,5.124,2.969,21.0
54.819,6.283,3.325,10.0
54.691,6.268,3.002,19.0
83.083,9.521,4.075,17.0
83.071,9.519,3.598,10.0
81.445,9.333,3.06,5.0
44.725,5.133,2.918,23.0
54.802,6.288,3.26,11.0
54.634,6.268,2.935,8.0
83.053,9.526,3.975,14.0
81.583,9.357,3.436,3.0
81.434,9.339,2.963,5.0
44.713,5.135,2.864,8.0
54.837,6.296,3.196,23.0
83.014,9.529,4.361,19.0
83.006,9.526,3.875,14.0
81.477,9.349,3.336,3.0
81.415,9.341,2.866,8.0
54.795,6.295,3.444,4.0
54.788,6.292,3.128,28.0
82.993,9.528,4.26,22.0
83.001,9.527,3.776,14.0
81.45,9.347,3.237,3.0
81.46,9.347,2.769,11.0
54.8,6.295,3.377,16.0
54.714,6.282,3.057,23.0
83.025,9.53,4.16,19.0
83.027,9.527,3.675,13.0
81.455,9.345,3.137,4.0
81.507,9.349,2.671,12.0
54.795,6.291,3.309,14.0
54.674,6.274,2.987,14.0
83.051,9.527,4.06,15.0
82.992,9.517,3.572,6.0
81.45,9.338,3.038,5.0
81.517,9.343,2.572,13.0
54.822,6.288,3.244,11.0
54.636,6.264,2.918,6.0
83.091,9.522,3.96,19.0
81.589,9.346,3.412,3.0
81.505,9.334,2.939,7.0
81.587,9.34,2.474,13.0
54.812,6.279,3.176,11.0
83.164,9.522,4.339,16.0
83.151,9.516,3.86,23.0
81.656,9.34,3.313,3.0
81.597,9.331,2.842,10.0
81.651,9.333,2.375,12.0
54.708,6.256,3.101,14.0
83.263,9.516,4.241,19.0
83.233,9.508,3.76,23.0
81.629,9.32,3.21,3.0
81.721,9.327,2.744,10.0
81.717,9.322,2.276,12.0
54.685,6.24,3.032,9.0
83.356,9.506,4.142,21.0
83.362,9.501,3.662,20.0
81.766,9.314,3.114,3.0
81.821,9.316,2.646,11.0
81.809,9.311,2.176,12.0
83.469,9.501,4.523,20.0
83.462,9.493,4.042,19.0
83.452,9.486,3.561,9.0
81.915,9.307,3.016,4.0
81.958,9.307,2.548,13.0
81.943,9.3,2.078,12.0
83.625,9.49,4.426,25.0
83.627,9.484,3.945,26.0
82.124,9.307,3.402,3.0
82.06,9.295,2.92,8.0
82.074,9.291,2.449,11.0
82.09,9.287,1.979,11.0
83.752,9.473,4.328,23.0
83.775,9.469,3.847,26.0
82.245,9.289,3.304,2.0
82.21,9.279,2.823,13.0
82.257,9.278,2.352,12.0
82.211,9.268,1.879,12.0
83.902,9.454,4.231,21.0
83.919,9.448,3.749,18.0
82.412,9.272,3.207,4.0
82.371,9.261,2.725,12.0
82.443,9.262,2.255,11.0
82.407,9.253,1.781,11.0
84.071,9.434,4.134,18.0
84.033,9.421,3.649,14.0
82.576,9.251,3.111,6.0
82.626,9.249,2.631,12.0
82.661,9.246,2.158,12.0
82.598,9.233,1.682,11.0
84.069,9.391,4.029,28.0
84.062,9.381,3.545,7.0
82.775,9.23,3.016,12.0
82.808,9.226,2.533,11.0
82.834,9.221,2.059,11.0
82.849,9.216,1.585,12.0
84.063,9.343,3.924,26.0
82.968,9.212,3.396,2.0
83.017,9.209,2.922,6.0
83.041,9.204,2.437,12.0
83.072,9.2,1.962,12.0
83.061,9.191,1.487,12.0
84.058,9.291,3.819,28.0
83.379,9.207,3.309,2.0
83.264,9.185,2.827,3.0
83.275,9.178,2.341,11.0
83.306,9.173,1.865,11.0
83.299,9.165,1.387,11.0
84.043,9.234,3.713,22.0
83.632,9.179,3.216,3.0
83.636,9.171,2.736,4.0
83.578,9.156,2.248,8.0
83.588,9.149,1.768,6.0
83.606,9.142,1.291,10.0
84.048,9.177,3.611,13.0
83.952,9.156,3.125,4.0
83.932,9.144,2.642,6.0
83.928,9.134,2.154,6.0
83.949,9.127,1.674,6.0
83.914,9.115,1.192,6.0
84.155,9.126,3.512,14.0
84.183,9.118,3.031,11.0
84.234,9.114,2.55,8.0
84.22,9.103,2.058,12.0
84.233,9.094,1.577,14.0
84.228,9.085,1.095,11.0
84.166,9.062,3.411,37.0
84.157,9.049,2.928,41.0
84.183,9.041,2.446,43.0
84.174,9.031,1.955,40.0
84.19,9.022,1.475,37.0
84.197,9.013,0.993,31.0
84.146,8.989,3.308,64.0
84.148,8.978,2.826,67.0
84.153,8.968,2.344,67.0
84.16,8.957,1.854,68.0
84.157,8.947,1.373,91.0
84.164,8.938,0.891,150.0
84.226,8.925,3.21,21.0
84.225,8.913,2.727,16.0
84.295,8.908,2.246,14.0
84.26,8.893,1.755,15.0
84.242,8.88,1.274,14.0
84.251,8.872,0.792,19.0
85.579,8.99,3.159,12.0
85.609,8.98,2.67,12.0
85.629,8.969,2.181,12.0
85.674,8.963,1.683,11.0
85.677,8.952,1.195,11.0
85.735,8.946,0.705,10.0
85.968,8.948,3.072,8.0
86.004,8.939,2.582,12.0
86.055,8.931,2.091,11.0
86.043,8.918,1.59,11.0
86.098,8.912,1.099,11.0
86.14,8.904,0.609,11.0
86.443,8.911,2.99,5.0
86.498,8.904,2.496,12.0
86.499,8.89,2.002,10.0
86.553,8.883,1.501,11.0
86.565,8.872,1.007,11.0
86.588,8.862,0.513,11.0
86.857,8.864,2.905,9.0
86.941,8.859,2.41,11.0
86.959,8.846,1.913,10.0
86.966,8.833,1.408,11.0
87.023,8.826,0.912,11.0
87.062,8.817,0.417,10.0
87.356,8.82,2.821,3.0
87.431,8.812,2.324,8.0
87.433,8.798,1.824,9.0
87.487,8.789,1.318,11.0
87.546,8.783,0.82,11.0
87.531,8.768,0.321,11.0
87.891,8.774,2.74,10.0
87.918,8.763,2.239,10.0
87.957,8.751,1.738,9.0
87.99,8.74,1.229,12.0
88.053,8.733,0.728,10.0
88.084,8.722,0.226,4.0
88.501,8.733,2.661,4.0
88.503,8.717,2.157,6.0
88.49,8.701,1.652,9.0
88.561,8.693,1.14,13.0
88.602,8.682,0.636,12.0
88.131,8.622,0.13,9.0
88.985,8.673,2.579,13.0
89.049,8.663,2.074,11.0
89.107,8.653,1.567,11.0
89.156,8.642,1.051,12.0
89.155,8.627,0.544,11.0
73.351,7.086,0.03,6.0
89.593,8.622,2.502,12.0
89.633,8.609,1.992,11.0
89.686,8.597,1.483,11.0
89.719,8.584,0.964,12.0
89.756,8.572,0.453,10.0
45.61,4.348,-0.028,8.0
90.225,8.567,2.425,13.0
90.29,8.556,1.913,11.0
90.288,8.539,1.399,10.0
90.334,8.526,0.878,11.0
90.407,8.518,0.365,9.0
45.431,4.272,-0.074,16.0
90.861,8.508,2.35,11.0
90.883,8.491,1.833,10.0
90.984,8.484,1.318,11.0
90.981,8.466,0.791,11.0
91.048,8.455,0.275,9.0
45.115,4.182,-0.119,19.0
91.514,8.446,2.275,10.0
91.592,8.434,1.756,10.0
91.66,8.421,1.237,10.0
91.694,8.407,0.707,11.0
45.67,4.178,0.092,15.0
44.476,4.061,-0.161,20.0
92.208,8.381,2.201,4.0
92.274,8.367,1.679,4.0
92.36,8.356,1.156,7.0
92.383,8.339,0.622,11.0
45.723,4.118,0.049,31.0
43.618,3.92,-0.201,19.0
92.998,8.319,2.13,7.0
93.035,8.302,1.604,9.0
93.081,8.287,1.076,11.0
93.123,8.271,0.539,13.0
45.613,4.042,0.005,19.0
0.0,0.0,0.0,0.0
93.132,8.196,2.047,52.0
93.123,8.174,1.519,138.0
93.142,8.157,0.991,27.0
45.811,4.002,0.223,18.0
45.297,3.948,-0.035,19.0
40.941,3.56,-0.263,16.0
45.834,3.965,0.966,21.0
45.793,3.951,0.705,20.0
45.797,3.941,0.446,23.0
45.708,3.924,0.182,19.0
45.179,3.869,-0.075,19.0
40.672,3.474,-0.298,16.0
45.792,3.891,0.924,37.0
45.763,3.879,0.665,35.0
45.747,3.867,0.406,31.0
45.673,3.851,0.142,20.0
45.059,3.789,-0.114,23.0
40.363,3.385,-0.33,15.0
45.776,3.818,0.885,41.0
45.768,3.807,0.626,39.0
45.758,3.796,0.367,38.0
45.659,3.778,0.103,24.0
44.897,3.705,-0.151,22.0
40.301,3.317,-0.363,8.0
45.805,3.748,0.848,46.0
45.8,3.737,0.589,45.0
45.793,3.726,0.33,34.0
45.659,3.704,0.067,31.0
44.601,3.609,-0.186,18.0
40.339,3.254,-0.396,4.0
45.904,3.682,0.813,35.0
45.9,3.67,0.553,38.0
45.872,3.657,0.294,34.0
45.625,3.627,0.031,25.0
44.06,3.493,-0.218,18.0
40.407,3.194,-0.428,5.0
98.909,7.771,1.676,9.0
99.016,7.754,1.119,9.0
98.826,7.717,0.559,9.0
45.622,3.551,-0.003,20.0
44.269,3.435,-0.253,11.0
40.43,3.128,-0.459,6.0
99.932,7.683,1.618,8.0
100.006,7.664,1.056,10.0
77.889,5.949,0.383,7.0
45.607,3.472,-0.037,20.0
41.409,3.143,-0.266,15.0
40.291,3.048,-0.486,1.0
100.883,7.584,1.561,9.0
100.962,7.563,0.994,8.0
52.296,3.904,0.22,9.0
45.599,3.392,-0.068,20.0
41.799,3.1,-0.298,12.0
37.282,2.756,-0.475,0.0
102.096,7.496,1.51,10.0
52.349,3.83,0.479,5.0
52.119,3.8,0.184,15.0
45.59,3.312,-0.099,20.0
41.936,3.036,-0.327,3.0
37.088,2.676,-0.497,1.0
52.253,3.744,0.738,17.0
52.223,3.728,0.445,19.0
52.006,3.699,0.15,18.0
45.55,3.228,-0.128,20.0
42.321,2.988,-0.357,6.0
36.893,2.595,-0.518,0.0
47.635,3.328,0.643,39.0
47.715,3.321,0.377,32.0
51.902,3.598,0.118,22.0
45.553,3.146,-0.156,20.0
42.92,2.953,-0.387,2.0
35.587,2.439,-0.521,0.0
47.951,3.262,0.619,16.0
47.983,3.252,0.35,15.0
51.826,3.498,0.088,18.0
45.337,3.048,-0.181,20.0
43.564,2.917,-0.418,3.0
35.299,2.355,-0.536,0.0
48.231,3.193,0.596,9.0
48.303,3.184,0.326,9.0
51.764,3.398,0.06,14.0
45.318,2.963,-0.205,20.0
44.21,2.878,-0.448,1.0
33.881,2.197,-0.533,0.0
48.614,3.128,0.575,9.0
52.376,3.355,0.327,5.0
51.679,3.295,0.033,16.0
45.421,2.884,-0.229,19.0
41.814,2.643,-0.445,0.0
33.696,2.121,-0.547,0.0
49.038,3.061,0.556,5.0
111.121,6.906,0.639,11.0
51.738,3.201,0.008,21.0
45.615,2.809,-0.252,19.0
39.676,2.432,-0.441,0.0
32.967,2.012,-0.55,0.0
49.759,3.011,0.541,7.0
106.179,6.395,0.562,8.0
51.647,3.096,-0.014,23.0
46.139,2.753,-0.275,19.0
40.057,2.378,-0.462,0.0
0.0,0.0,0.0,0.0
50.396,2.953,0.527,6.0
59.22,3.453,0.289,5.0
51.605,2.993,-0.035,24.0
47.04,2.715,-0.299,9.0
0.0,0.0,0.0,0.0
32.179,1.839,-0.564,0.0
59.397,3.364,0.598,6.0
59.333,3.343,0.267,18.0
51.658,2.896,-0.055,21.0
47.909,2.672,-0.322,1.0
0.0,0.0,0.0,0.0
31.962,1.763,-0.571,0.0
59.334,3.244,0.576,24.0
59.277,3.223,0.246,20.0
51.788,2.801,-0.073,19.0
48.814,2.626,-0.345,1.0
37.654,2.014,-0.476,0.0
31.307,1.665,-0.57,0.0
59.367,3.127,0.558,34.0
59.352,3.11,0.227,24.0
52.011,2.709,-0.089,25.0
49.65,2.571,-0.366,0.0
0.0,0.0,0.0,0.0
31.443,1.609,-0.581,0.0
120.054,6.085,1.094,15.0
59.498,2.997,0.212,10.0
52.103,2.609,-0.103,25.0
50.328,2.505,-0.384,0.0
37.551,1.857,-0.495,0.0
30.843,1.516,-0.578,0.0
120.022,5.841,1.064,15.0
65.708,3.178,0.218,9.0
52.446,2.52,-0.116,22.0
0.0,0.0,0.0,0.0
36.989,1.755,-0.496,0.0
30.631,1.444,-0.58,0.0
66.175,3.086,0.573,15.0
65.659,3.042,0.205,10.0
53.017,2.44,-0.128,16.0
44.908,2.052,-0.361,0.0
0.0,0.0,0.0,0.0
30.312,1.366,-0.58,0.0
66.053,2.946,0.56,24.0
65.584,2.904,0.194,9.0
53.913,2.371,-0.139,3.0
44.806,1.956,-0.367,1.0
37.168,1.611,-0.51,0.0
30.73,1.322,-0.592,0.0
66.03,2.81,0.551,18.0
65.571,2.769,0.185,11.0
54.966,2.304,-0.148,2.0
44.831,1.865,-0.373,1.0
36.925,1.524,-0.511,0.0
30.328,1.242,-0.587,0.0
66.171,2.68,0.546,14.0
65.585,2.635,0.179,17.0
56.137,2.237,-0.156,2.0
44.792,1.771,-0.376,1.0
35.717,1.401,-0.497,0.0
30.194,1.175,-0.587,0.0
72.384,2.783,0.593,9.0
65.677,2.504,0.176,18.0
57.373,2.17,-0.162,2.0
44.78,1.679,-0.378,1.0
35.887,1.333,-0.5,0.0
0.0,0.0,0.0,0.0
72.352,2.632,0.591,20.0
65.71,2.368,0.175,9.0
58.57,2.092,-0.166,5.0
46.79,1.657,-0.395,0.0
36.956,1.297,-0.515,0.0
29.754,1.034,-0.578,0.0
72.352,2.482,0.592,29.0
65.718,2.233,0.177,5.0
59.985,2.019,-0.168,4.0
45.518,1.517,-0.382,0.0
35.694,1.178,-0.496,0.0
30.489,0.996,-0.591,0.0
72.402,2.333,0.596,31.0
71.289,2.273,0.196,9.0
61.536,1.942,-0.168,5.0
45.815,1.431,-0.382,0.0
37.702,1.165,-0.521,0.0
30.775,0.941,-0.594,0.0
78.859,2.376,0.657,14.0
71.226,2.123,0.202,12.0
63.011,1.856,-0.166,4.0
0.0,0.0,0.0,0.0
36.467,1.05,-0.5,0.0
30.547,0.869,-0.586,0.0
78.822,2.208,0.667,17.0
71.575,1.981,0.213,14.0
64.74,1.77,-0.161,3.0
0.0,0.0,0.0,0.0
37.672,1.004,-0.51,0.0
30.968,0.815,-0.589,0.0
78.938,2.044,0.681,27.0
71.723,1.833,0.226,14.0
66.047,1.666,-0.153,1.0
0.0,0.0,0.0,0.0
0.0,0.0,0.0,0.0
31.294,0.758,-0.589,0.0
85.152,2.026,0.752,25.0
72.029,1.689,0.242,14.0
68.18,1.576,-0.143,0.0
48.461,1.103,-0.371,0.0
0.0,0.0,0.0,0.0
30.784,0.681,-0.572,0.0
85.262,1.849,0.774,27.0
77.733,1.66,0.28,4.0
70.173,1.475,-0.129,0.0
0.0,0.0,0.0,0.0
0.0,0.0,0.0,0.0
32.29,0.646,-0.591,0.0
91.928,1.8,0.86,17.0
77.83,1.496,0.303,5.0
0.0,0.0,0.0,0.0
0.0,0.0,0.0,0.0
38.558,0.702,-0.484,0.0
31.762,0.568,-0.572,0.0
91.856,1.605,0.888,33.0
78.34,1.343,0.331,13.0
0.0,0.0,0.0,0.0
0.0,0.0,0.0,0.0
38.629,0.622,-0.471,0.0
32.157,0.507,-0.567,0.0
92.079,1.417,0.923,12.0
84.858,1.276,0.389,9.0
0.0,0.0,0.0,0.0
0.0,0.0,0.0,0.0
41.047,0.575,-0.485,0.0
32.617,0.445,-0.563,0.0
98.539,1.309,1.026,31.0
85.2,1.102,0.424,15.0
78.976,0.995,-0.035,0.0
0.0,0.0,0.0,0.0
41.72,0.497,-0.476,2.0
33.15,0.384,-0.558,0.0
98.577,1.103,1.069,27.0
91.862,0.996,0.498,5.0
0.0,0.0,0.0,0.0
54.865,0.558,-0.303,0.0
40.98,0.403,-0.449,0.0
33.343,0.316,-0.546,0.0
100.019,0.914,1.131,6.0
98.0,0.861,0.577,13.0
84.293,0.711,0.039,1.0
54.974,0.445,-0.277,0.0
42.931,0.333,-0.449,1.0
35.143,0.26,-0.558,0.0
101.102,0.711,1.194,4.0
104.679,0.701,0.669,6.0
87.088,0.553,0.086,1.0
54.938,0.329,-0.248,0.0
42.933,0.243,-0.426,1.0
34.24,0.182,-0.525,0.0
111.119,0.552,1.372,34.0
104.388,0.482,0.725,9.0
0.0,0.0,0.0,0.0
0.0,0.0,0.0,0.0
42.857,0.153,-0.401,1.0
35.95,0.116,-0.531,0.0
111.163,0.321,1.437,15.0
110.806,0.282,0.834,9.0
92.961,0.205,0.198,2.0
0.0,0.0,0.0,0.0
45.423,0.069,-0.397,2.0
0.0,0.0,0.0,0.0
111.079,0.09,1.505,17.0
111.157,0.053,0.906,10.0
95.54,0.013,0.264,2.0
0.0,0.0,0.0,0.0
45.364,-0.024,-0.368,1.0
0.0,0.0,0.0,0.0
112.842,-0.139,1.602,13.0
114.455,-0.179,1.009,26.0
100.965,-0.193,0.346,1.0
0.0,0.0,0.0,0.0
0.0,0.0,0.0,0.0
0.0,0.0,0.0,0.0
113.497,-0.37,1.689,7.0
119.742,-0.43,1.138,18.0
105.115,-0.414,0.433,1.0
0.0,0.0,0.0,0.0
0.0,0.0,0.0,0.0
39.825,-0.197,-0.482,0.0
0.0,0.0,0.0,0.0
119.715,-0.675,1.226,17.0
110.972,-0.662,0.539,1.0
0.0,0.0,0.0,0.0
0.0,0.0,0.0,0.0
0.0,0.0,0.0,0.0
119.771,-0.874,1.96,51.0
119.674,-0.913,1.316,19.0
114.33,-0.91,0.643,6.0
78.936,-0.655,0.012,0.0
0.0,0.0,0.0,0.0
0.0,0.0,0.0,0.0
119.754,-1.11,2.053,151.0
119.756,-1.151,1.412,150.0
119.741,-1.19,0.769,135.0
0.0,0.0,0.0,0.0
0.0,0.0,0.0,0.0
45.353,-0.496,-0.442,0.0
204.187,-2.298,3.67,16.0
0.0,0.0,0.0,0.0
139.173,-1.66,1.011,15.0
0.0,0.0,0.0,0.0
0.0,0.0,0.0,0.0
46.766,-0.604,-0.415,0.0
204.213,-2.695,3.844,5.0
139.071,-1.883,1.874,4.0
138.862,-1.927,1.129,22.0
0.0,0.0,0.0,0.0
0.0,0.0,0.0,0.0
46.757,-0.695,-0.374,0.0
0.0,0.0,0.0,0.0
139.097,-2.153,2.0,8.0
139.026,-2.198,1.256,16.0
113.421,-1.831,0.407,5.0
0.0,0.0,0.0,0.0
50.369,-0.845,-0.356,0.0
193.78,-3.305,3.998,19.0
139.05,-2.418,2.127,6.0
139.095,-2.465,1.386,22.0
138.791,-2.503,0.628,2.0
0.0,0.0,0.0,0.0
50.474,-0.943,-0.309,0.0
193.764,-3.678,4.185,21.0
193.01,-3.726,3.139,18.0
138.952,-2.726,1.519,4.0
138.88,-2.771,0.765,7.0
0.0,0.0,0.0,0.0
0.0,0.0,0.0,0.0
205.641,-4.291,4.646,6.0
193.438,-4.098,3.339,19.0
0.0,0.0,0.0,0.0
138.891,-3.031,0.904,13.0
0.0,0.0,0.0,0.0
0.0,0.0,0.0,0.0
118.215,-2.686,2.79,16.0
193.274,-4.453,3.533,23.0
0.0,0.0,0.0,0.0
138.9,-3.289,1.048,15.0
0.0,0.0,0.0,0.0
0.0,0.0,0.0,0.0
118.185,-2.901,2.913,19.0
193.283,-4.805,3.735,21.0
138.76,-3.494,1.945,4.0
138.809,-3.54,1.195,23.0
0.0,0.0,0.0,0.0
0.0,0.0,0.0,0.0
205.593,-5.423,5.29,5.0
195.043,-5.203,3.981,9.0
138.702,-3.744,2.095,8.0
138.659,-3.787,1.346,21.0
0.0,0.0,0.0,0.0
0.0,0.0,0.0,0.0
194.217,-5.47,5.212,17.0
194.888,-5.55,4.196,20.0
193.836,-5.58,3.146,6.0
138.738,-4.036,1.503,5.0
138.392,-4.068,0.765,6.0
0.0,0.0,0.0,0.0
193.956,-5.806,5.426,24.0
194.47,-5.881,4.41,17.0
193.744,-5.917,3.366,16.0
0.0,0.0,0.0,0.0
138.58,-4.317,0.927,10.0
0.0,0.0,0.0,0.0
193.29,-6.125,5.634,19.0
193.986,-6.202,4.625,24.0
193.302,-6.237,3.585,19.0
0.0,0.0,0.0,0.0
138.638,-4.554,1.089,21.0
0.0,0.0,0.0,0.0
187.441,-6.258,5.684,56.0
187.434,-6.312,4.693,30.0
187.414,-6.366,3.7,7.0
138.572,-4.748,1.99,6.0
138.597,-4.788,1.257,24.0
0.0,0.0,0.0,0.0
193.261,-6.773,6.094,29.0
193.21,-6.828,5.071,19.0
194.549,-6.931,4.078,6.0
138.423,-4.97,2.155,5.0
138.496,-5.013,1.425,16.0
138.335,-5.048,0.694,4.0
194.104,-7.123,6.361,23.0
192.881,-7.133,5.301,23.0
194.368,-7.244,4.316,9.0
193.306,-7.257,3.252,14.0
138.576,-5.243,1.601,3.0
138.476,-5.278,0.869,11.0
207.061,-7.933,7.046,5.0
0.0,0.0,0.0,0.0
192.873,-7.499,4.529,16.0
193.448,-7.573,3.502,20.0
0.0,0.0,0.0,0.0
138.427,-5.498,1.048,21.0
104.217,-4.161,3.682,19.0
193.84,-7.793,5.826,22.0
192.776,-7.802,4.778,28.0
193.117,-7.87,3.751,23.0
138.121,-5.667,1.955,43.0
138.394,-5.716,1.23,23.0
104.28,-4.329,3.823,36.0
194.013,-8.104,6.09,20.0
193.272,-8.126,5.049,23.0
193.358,-8.181,4.013,20.0
138.081,-5.878,2.138,129.0
138.04,-5.914,1.412,14.0
104.329,-4.49,3.964,20.0
117.124,-5.071,3.833,19.0
193.293,-8.419,5.308,16.0
194.636,-8.53,4.302,18.0
138.046,-6.084,2.324,47.0
194.576,-8.628,2.253,6.0
95.077,-4.234,3.741,30.0
20.098,-0.9,0.685,13.0
20.128,-0.906,0.58,10.0
20.16,-0.913,0.473,4.0
193.521,-8.818,3.526,21.0
194.554,-8.913,2.522,17.0
94.603,-4.353,3.854,28.0
20.094,-0.929,0.712,17.0
20.101,-0.934,0.607,18.0
20.1,-0.939,0.499,16.0
20.132,-0.946,0.394,18.0
20.158,-0.952,0.289,3.0
85.236,-4.044,3.592,55.0
20.086,-0.957,0.74,15.0
20.101,-0.963,0.635,24.0
20.11,-0.968,0.528,25.0
20.137,-0.974,0.423,21.0
20.143,-0.979,0.317,23.0
73.399,-3.584,3.196,15.0
20.092,-0.985,0.769,12.0
20.093,-0.99,0.663,19.0
20.101,-0.995,0.556,20.0
20.12,-1.001,0.451,18.0
20.136,-1.007,0.346,22.0
83.488,-4.192,3.756,19.0
20.074,-1.012,0.797,3.0
19.987,-1.012,0.689,13.0
19.965,-1.016,0.581,14.0
19.975,-1.021,0.477,13.0
19.972,-1.025,0.372,14.0
73.531,-3.788,3.414,21.0
20.068,-1.038,0.826,1.0
20.001,-1.039,0.718,14.0
19.952,-1.041,0.61,18.0
19.957,-1.046,0.506,18.0
19.956,-1.05,0.401,16.0
19.992,-1.056,0.958,17.0
72.026,-3.819,3.073,12.0
20.0,-1.065,0.748,14.0
19.954,-1.067,0.64,19.0
19.974,-1.072,0.536,22.0
19.959,-1.075,0.431,20.0
19.975,-1.08,0.987,22.0
20.013,-1.086,0.883,14.0
20.01,-1.09,0.778,14.0
19.957,-1.091,0.67,17.0
19.967,-1.096,0.566,21.0
19.964,-1.1,0.461,22.0
19.967,-1.104,1.016,21.0
19.975,-1.108,0.912,25.0
20.035,-1.116,0.81,19.0
19.964,-1.116,0.7,17.0
19.961,-1.12,0.595,25.0
19.954,-1.123,0.491,25.0
19.969,-1.128,1.047,24.0
19.946,-1.13,0.941,19.0
20.027,-1.139,0.84,27.0
19.969,-1.139,0.731,18.0
19.965,-1.143,0.626,23.0
19.951,-1.146,0.521,25.0
19.965,-1.15,1.077,15.0
19.975,-1.155,0.973,26.0
19.996,-1.159,0.869,18.0
19.979,-1.162,0.762,18.0
19.956,-1.165,0.657,18.0
19.952,-1.168,0.552,22.0
19.999,-1.175,1.11,5.0
19.978,-1.177,1.004,24.0
19.979,-1.18,0.899,19.0
19.986,-1.185,0.793,17.0
19.962,-1.187,0.688,17.0
19.944,-1.189,0.583,23.0
71.088,-4.253,4.058,27.0
19.971,-1.198,1.035,16.0
19.975,-1.201,0.93,17.0
20.033,-1.208,0.826,13.0
19.971,-1.208,0.719,15.0
19.959,-1.21,0.614,22.0
70.863,-4.312,4.156,45.0
70.954,-4.329,3.79,13.0
20.011,-1.224,0.964,8.0
70.499,-4.324,3.02,7.0
19.986,-1.229,0.751,12.0
19.945,-1.23,0.646,20.0
70.702,-4.373,4.259,35.0
70.915,-4.396,3.9,20.0
70.911,-4.407,3.528,10.0
73.199,-4.56,3.251,22.0
20.001,-1.249,0.783,10.0
19.954,-1.249,0.677,17.0
70.899,-4.452,4.382,30.0
70.85,-4.459,4.008,35.0
71.009,-4.478,3.644,22.0
73.384,-4.639,3.374,27.0
20.03,-1.269,0.816,5.0
19.959,-1.267,0.708,15.0
71.414,-4.549,4.527,35.0
75.463,-4.816,4.387,12.0
70.405,-4.503,3.724,24.0
70.886,-4.542,3.37,18.0
72.254,-4.64,3.057,9.0
19.98,-1.286,0.741,13.0
76.057,-4.909,4.942,9.0
71.029,-4.593,4.242,17.0
70.453,-4.565,3.838,33.0
70.858,-4.601,3.482,9.0
78.969,-5.137,3.467,11.0
20.017,-1.304,0.774,9.0
71.66,-4.685,4.771,24.0
71.106,-4.657,4.361,43.0
70.596,-4.632,3.959,30.0
70.907,-4.66,3.598,9.0
70.695,-4.655,3.218,14.0
72.163,-4.761,2.908,25.0
71.817,-4.752,4.898,10.0
71.738,-4.754,4.515,17.0
70.947,-4.709,4.093,34.0
70.68,-4.699,3.7,25.0
72.728,-4.843,3.426,9.0
70.519,-4.704,2.954,10.0
71.978,-4.815,5.023,12.0
71.699,-4.803,4.627,31.0
71.269,-4.782,4.226,40.0
70.519,-4.739,3.804,36.0
70.902,-4.772,3.454,9.0
70.71,-4.766,3.074,14.0
72.095,-4.873,5.148,8.0
71.641,-4.849,4.739,26.0
71.639,-4.855,4.362,16.0
70.539,-4.787,3.919,39.0
70.698,-4.805,3.557,9.0
72.3,-4.921,3.259,11.0
76.158,-5.198,5.56,10.0
71.624,-4.894,4.853,14.0
71.68,-4.904,4.479,11.0
71.605,-4.905,4.091,16.0
67.898,-4.657,3.524,22.0
67.89,-4.662,3.168,63.0
71.904,-4.951,5.364,14.0
75.993,-5.239,5.269,10.0
71.74,-4.951,4.597,12.0
71.69,-4.952,4.211,17.0
70.399,-4.869,3.765,7.0
67.896,-4.701,3.276,56.0
72.015,-5.0,5.487,15.0
76.181,-5.294,5.404,6.0
71.617,-4.982,4.704,23.0
71.559,-4.982,4.317,18.0
71.257,-4.966,3.926,7.0
67.885,-4.736,3.383,57.0
72.951,-5.104,5.676,18.0
72.256,-5.059,5.242,12.0
76.785,-5.38,5.167,12.0
71.665,-5.026,4.438,10.0
71.323,-5.006,4.043,23.0
67.886,-4.769,3.492,42.0
72.175,-5.084,5.73,11.0
0.0,0.0,0.0,0.0
71.685,-5.056,4.937,5.0
76.031,-5.367,4.829,11.0
71.269,-5.034,4.152,20.0
71.503,-5.054,3.79,13.0
72.188,-5.117,5.847,31.0
74.161,-5.26,5.615,12.0
71.732,-5.09,5.053,10.0
76.857,-5.457,5.002,10.0
71.579,-5.085,4.282,28.0
71.246,-5.064,3.889,37.0
72.47,-5.166,5.984,20.0
74.197,-5.291,5.735,30.0
76.315,-5.445,5.497,11.0
71.593,-5.109,4.773,8.0
71.686,-5.119,4.402,15.0
71.102,-5.08,3.992,27.0
70.539,-5.053,5.936,6.0
74.109,-5.311,5.845,26.0
72.477,-5.195,5.334,5.0
71.578,-5.132,4.883,24.0
75.265,-5.398,4.739,12.0
71.258,-5.113,4.112,17.0
0.0,0.0,0.0,0.0
73.305,-5.275,5.896,20.0
74.441,-5.358,5.594,11.0
76.095,-5.478,5.309,4.0
0.0,0.0,0.0,0.0
71.276,-5.133,4.224,26.0
73.338,-5.297,6.402,8.0
72.382,-5.228,5.935,21.0
74.394,-5.373,5.707,14.0
75.955,-5.487,5.419,14.0
76.174,-5.503,5.032,7.0
71.657,-5.177,4.356,10.0
70.804,-5.13,6.29,17.0
0.0,0.0,0.0,0.0
73.957,-5.357,5.787,13.0
79.16,-5.734,5.768,12.0
71.831,-5.203,4.854,17.0
71.896,-5.208,4.48,14.0
70.976,-5.156,6.413,25.0
70.489,-5.119,5.996,9.0
73.241,-5.318,5.841,21.0
74.647,-5.42,5.551,7.0
71.862,-5.216,4.965,8.0
75.29,-5.464,4.804,6.0
71.137,-5.177,6.535,14.0
72.371,-5.265,6.265,10.0
72.967,-5.307,5.93,27.0
74.644,-5.428,5.664,11.0
75.944,-5.521,5.361,8.0
78.539,-5.708,5.13,3.0
71.28,-5.195,6.657,8.0
70.787,-5.157,6.235,10.0
72.485,-5.278,5.999,8.0
73.682,-5.364,5.7,6.0
79.191,-5.763,5.708,11.0
71.851,-5.226,4.799,9.0
71.351,-5.205,6.769,5.0
70.904,-5.169,6.35,30.0
70.485,-5.136,5.939,12.0
73.391,-5.345,5.787,21.0
79.095,-5.758,5.818,15.0
71.849,-5.228,4.905,15.0
73.283,-5.347,7.062,11.0
71.001,-5.177,6.464,22.0
72.24,-5.264,6.193,19.0
73.122,-5.325,5.873,28.0
74.609,-5.43,5.598,11.0
71.873,-5.228,5.011,7.0
78.025,-5.692,7.634,9.0
71.17,-5.187,6.583,11.0
72.407,-5.274,6.312,4.0
72.821,-5.3,5.954,18.0
74.635,-5.427,5.706,8.0
75.896,-5.516,5.4,9.0
68.039,-4.959,6.755,15.0
71.347,-5.195,6.702,7.0
70.821,-5.152,6.276,21.0
70.532,-5.127,5.868,7.0
73.586,-5.345,5.731,10.0
79.237,-5.75,5.75,11.0
68.047,-4.952,6.854,31.0
73.472,-5.342,7.007,9.0
70.944,-5.152,6.387,27.0
70.516,-5.117,5.966,10.0
73.287,-5.313,5.81,12.0
78.962,-5.719,5.841,10.0
68.036,-4.942,6.948,11.0
73.301,-5.318,7.094,11.0
71.162,-5.157,6.506,16.0
72.251,-5.23,6.213,10.0
72.96,-5.276,5.885,21.0
74.563,-5.387,5.618,13.0
74.313,-5.384,7.692,12.0
78.073,-5.649,7.663,7.0
73.272,-5.295,6.8,7.0
73.396,-5.298,6.412,8.0
72.31,-5.214,5.931,21.0
74.471,-5.363,5.712,17.0
71.796,-5.185,7.531,21.0
72.121,-5.202,7.177,9.0
73.295,-5.279,6.901,10.0
70.857,-5.097,6.286,30.0
0.0,0.0,0.0,0.0
74.102,-5.317,5.783,22.0
71.761,-5.164,7.623,23.0
68.062,-4.89,6.865,29.0
73.349,-5.262,7.004,9.0
71.08,-5.092,6.4,17.0
72.218,-5.167,6.116,8.0
73.907,-5.282,5.864,14.0
70.243,-5.034,7.554,19.0
68.042,-4.868,6.951,30.0
78.085,-5.578,7.558,7.0
72.287,-5.156,6.601,9.0
72.231,-5.145,6.209,20.0
72.152,-5.131,5.817,27.0
70.461,-5.025,7.668,32.0
68.041,-4.844,7.039,7.0
72.702,-5.168,7.13,10.0
78.058,-5.54,7.228,11.0
71.292,-5.051,6.219,21.0
72.573,-5.134,5.942,27.0
70.824,-5.025,7.798,37.0
71.865,-5.089,7.525,7.0
72.209,-5.104,7.172,20.0
78.157,-5.516,7.334,6.0
73.065,-5.147,6.463,5.0
72.32,-5.087,6.009,15.0
71.215,-5.022,7.929,28.0
70.295,-4.949,7.446,22.0
71.327,-5.012,7.171,29.0
69.347,-4.863,6.591,4.0
76.109,-5.328,6.824,7.0
71.993,-5.031,6.069,26.0
70.952,-4.972,7.986,31.0
70.282,-4.915,7.531,21.0
70.72,-4.936,7.195,15.0
69.365,-4.832,6.676,20.0
72.95,-5.072,6.628,19.0
72.328,-5.019,6.183,27.0
70.845,-4.929,8.059,37.0
71.206,-4.945,7.713,24.0
68.059,-4.716,7.003,27.0
69.91,-4.834,6.809,35.0
72.996,-5.038,6.716,18.0
72.578,-4.999,6.287,22.0
69.757,-4.817,8.015,34.0
71.396,-4.92,7.816,13.0
68.052,-4.679,7.081,25.0
69.872,-4.794,6.885,34.0
69.603,-4.765,6.483,24.0
64.335,-4.395,5.645,25.0
69.986,-4.794,8.12,44.0
70.423,-4.813,7.788,25.0
70.736,-4.823,7.439,8.0
70.884,-4.822,7.063,19.0
69.98,-4.75,6.595,26.0
64.259,-4.352,5.709,28.0
69.942,-4.749,8.193,36.0
70.237,-4.758,7.844,27.0
70.95,-4.795,7.538,39.0
71.035,-4.789,7.154,42.0
70.598,-4.748,6.728,13.0
64.237,-4.31,5.774,17.0
69.965,-4.707,8.27,33.0
70.08,-4.702,7.901,31.0
71.134,-4.761,7.632,20.0
73.027,-4.877,7.43,3.0
63.983,-4.262,6.163,34.0
69.655,-4.629,6.332,17.0
70.006,-4.664,8.346,13.0
70.594,-4.69,8.031,44.0
73.237,-4.853,7.931,11.0
59.538,-3.935,6.118,22.0
63.975,-4.217,6.226,24.0
64.139,-4.218,5.893,22.0
0.0,0.0,0.0,0.0
70.919,-4.663,8.137,33.0
70.103,-4.596,7.66,20.0
59.497,-3.891,6.17,31.0
64.032,-4.176,6.292,21.0
64.071,-4.168,5.947,33.0
70.583,-4.603,8.552,49.0
71.167,-4.628,8.233,19.0
70.369,-4.563,7.755,26.0
59.478,-3.846,6.223,29.0
59.525,-3.839,5.904,5.0
64.016,-4.117,6.001,27.0
70.291,-4.531,8.582,39.0
70.026,-4.501,8.165,16.0
70.473,-4.517,7.83,28.0
59.476,-3.801,6.276,22.0
59.538,-3.794,5.958,32.0
64.027,-4.068,6.058,35.0
71.092,-4.527,8.742,29.0
69.984,-4.443,8.221,28.0
70.471,-4.46,7.891,41.0
70.573,-4.454,7.508,12.0
59.302,-3.731,5.985,33.0
64.063,-4.019,6.115,17.0
70.554,-4.436,8.736,18.0
69.869,-4.379,8.266,37.0
70.247,-4.388,7.925,18.0
70.32,-4.379,7.54,15.0
59.356,-3.685,6.039,31.0
59.267,-3.669,5.706,33.0
65.422,-4.058,8.154,26.0
69.805,-4.316,8.315,37.0
58.831,-3.626,6.683,13.0
70.295,-4.318,7.592,18.0
59.545,-3.646,6.104,20.0
59.109,-3.609,5.735,30.0
64.971,-3.974,8.148,42.0
70.886,-4.321,8.498,9.0
58.774,-3.571,6.722,15.0
59.147,-3.581,6.432,34.0
59.325,-3.58,6.126,33.0
59.163,-3.559,5.784,33.0
64.703,-3.9,8.162,41.0
65.414,-3.929,7.89,41.0
58.949,-3.529,6.784,33.0
59.036,-3.522,6.462,33.0
58.634,-3.485,6.095,32.0
58.752,-3.481,5.785,33.0
64.636,-3.837,8.198,32.0
64.935,-3.84,7.876,40.0
58.916,-3.472,6.82,33.0
58.841,-3.456,6.48,30.0
58.285,-3.411,6.097,31.0
58.341,-3.402,5.782,32.0
64.611,-3.774,8.238,9.0
64.852,-3.775,7.908,38.0
58.93,-3.417,6.859,31.0
58.767,-3.395,6.509,33.0
58.255,-3.354,6.13,31.0
58.201,-3.338,5.804,30.0
51.884,-2.981,6.647,26.0
64.704,-3.704,7.929,40.0
58.763,-3.35,6.875,33.0
58.526,-3.325,6.517,33.0
58.34,-3.302,6.173,32.0
58.304,-3.287,5.847,31.0
51.494,-2.907,6.627,43.0
64.641,-3.636,7.958,40.0
58.353,-3.27,6.859,32.0
58.428,-3.261,6.538,15.0
58.66,-3.261,6.239,32.0
58.136,-3.22,5.862,32.0
51.533,-2.857,6.659,29.0
58.098,-3.208,7.184,21.0
51.928,-2.856,6.131,21.0
52.019,-2.849,5.847,25.0
58.85,-3.211,6.288,32.0
58.381,-3.173,5.915,32.0
51.499,-2.802,6.68,41.0
52.104,-2.823,6.467,26.0
51.907,-2.801,6.153,31.0
51.937,-2.791,5.862,23.0
58.701,-3.141,6.299,32.0
58.463,-3.117,5.949,30.0
51.561,-2.751,6.712,37.0
51.824,-2.753,6.456,26.0
51.902,-2.746,6.175,25.0
51.929,-2.736,5.883,29.0
58.439,-3.066,6.295,32.0
56.716,-2.964,5.794,19.0
51.513,-2.694,6.726,26.0
51.949,-2.705,6.491,26.0
51.954,-2.694,6.201,25.0
51.935,-2.681,5.903,26.0
58.253,-2.995,6.296,31.0
56.694,-2.903,5.812,18.0
51.265,-2.626,6.712,26.0
52.013,-2.652,6.518,29.0
52.036,-2.642,6.229,26.0
51.985,-2.627,5.926,25.0
58.268,-2.932,6.317,24.0
56.653,-2.838,5.826,12.0
51.164,-2.564,6.715,35.0
51.914,-2.589,6.521,26.0
52.153,-2.589,6.258,26.0
51.964,-2.569,5.939,34.0
58.622,-2.885,6.372,23.0
56.458,-2.766,5.822,11.0
51.162,-2.507,6.729,32.0
51.755,-2.523,6.515,36.0
51.891,-2.518,6.24,27.0
51.875,-2.506,5.942,38.0
52.184,-2.509,5.685,21.0
46.927,-2.246,4.85,40.0
51.206,-2.45,6.746,31.0
51.615,-2.458,6.509,26.0
51.291,-2.43,6.179,34.0
51.896,-2.447,5.955,26.0
52.557,-2.466,5.736,27.0
46.935,-2.191,4.86,34.0
51.116,-2.387,6.744,25.0
51.403,-2.388,6.491,26.0
51.635,-2.387,6.229,25.0
51.855,-2.386,5.958,25.0
52.27,-2.393,5.712,25.0
46.887,-2.136,4.861,42.0
51.123,-2.328,6.752,7.0
51.277,-2.323,6.482,25.0
51.523,-2.322,6.222,28.0
51.868,-2.325,5.966,24.0
52.046,-2.322,5.693,25.0
46.845,-2.08,4.861,36.0
44.673,-1.982,5.904,38.0
45.224,-1.995,5.721,19.0
51.486,-2.26,6.221,25.0
51.807,-2.262,5.962,26.0
51.711,-2.246,5.66,20.0
46.899,-2.027,4.869,36.0
44.525,-1.923,5.886,32.0
45.158,-1.939,5.714,31.0
51.375,-2.194,6.209,16.0
57.747,-2.454,6.647,8.0
52.045,-2.2,5.697,25.0
52.701,-2.216,5.472,5.0
44.326,-1.862,5.86,40.0
45.0,-1.879,5.693,26.0
51.23,-2.127,6.191,7.0
44.935,-1.855,5.171,41.0
52.136,-2.141,5.705,11.0
52.49,-2.144,5.448,23.0
44.299,-1.806,5.855,35.0
44.742,-1.814,5.658,32.0
45.003,-1.815,5.436,35.0
44.909,-1.8,5.165,30.0
52.738,-2.102,5.767,6.0
52.467,-2.08,5.441,26.0
44.239,-1.75,5.843,39.0
44.653,-1.756,5.643,28.0
44.84,-1.753,5.411,44.0
44.927,-1.746,5.162,32.0
44.789,-1.731,4.892,25.0
0.0,0.0,0.0,0.0
44.213,-1.695,5.833,41.0
44.811,-1.708,5.656,24.0
44.936,-1.703,5.416,39.0
44.844,-1.689,5.145,19.0
44.692,-1.673,4.874,38.0
46.801,-1.743,4.839,10.0
44.312,-1.646,5.838,33.0
44.781,-1.652,5.644,34.0
44.908,-1.647,5.403,27.0
44.832,-1.634,5.134,33.0
44.602,-1.616,4.855,43.0
0.0,0.0,0.0,0.0
44.216,-1.588,5.815,42.0
44.948,-1.604,5.654,27.0
44.703,-1.585,5.368,27.0
44.805,-1.579,5.12,44.0
44.655,-1.564,4.849,35.0
45.713,-1.591,4.704,21.0
44.209,-1.533,5.802,39.0
45.188,-1.557,5.671,19.0
44.71,-1.531,5.356,36.0
44.787,-1.524,5.104,38.0
44.485,-1.504,4.817,33.0
45.48,-1.527,4.666,21.0
44.244,-1.48,5.792,38.0
45.008,-1.496,5.634,19.0
44.435,-1.467,5.308,43.0
44.721,-1.467,5.082,22.0
44.22,-1.441,4.772,34.0
44.803,-1.45,4.58,43.0
44.515,-1.435,5.811,27.0
44.608,-1.428,5.567,32.0
44.169,-1.404,5.259,38.0
43.744,-1.381,4.953,35.0
43.862,-1.375,4.716,37.0
44.785,-1.395,4.561,44.0
44.477,-1.379,5.787,39.0
44.453,-1.368,5.529,33.0
43.809,-1.339,5.197,35.0
43.731,-1.327,4.933,47.0
43.734,-1.318,4.683,43.0
44.752,-1.339,4.537,36.0
44.459,-1.323,5.764,30.0
44.436,-1.313,5.505,42.0
43.822,-1.286,5.177,39.0
43.817,-1.276,4.921,36.0
43.74,-1.265,4.662,49.0
44.914,-1.289,4.531,20.0
55.746,-1.591,7.199,9.0
44.548,-1.262,5.496,19.0
43.913,-1.235,5.165,33.0
43.713,-1.22,4.886,45.0
43.858,-1.215,4.651,43.0
44.576,-1.226,4.473,24.0
44.374,-1.212,5.706,23.0
56.11,-1.521,6.891,7.0
44.258,-1.19,5.18,34.0
43.845,-1.17,4.876,45.0
43.777,-1.159,4.617,41.0
45.589,-1.198,4.547,41.0
44.408,-1.159,5.683,31.0
51.369,-1.33,6.277,13.0
50.232,-1.29,5.849,14.0
43.757,-1.115,4.839,36.0
43.349,-1.096,4.545,47.0
45.758,-1.148,4.535,9.0
44.641,-1.11,5.684,19.0
44.48,-1.097,5.406,29.0
50.52,-1.236,5.849,6.0
43.379,-1.052,4.767,44.0
43.514,-1.047,4.532,40.0
43.609,-1.041,4.292,33.0
47.962,-1.135,6.073,9.0
50.022,-1.174,6.044,14.0
44.971,-1.046,5.174,20.0
43.374,-1.0,4.736,31.0
43.359,-0.991,4.485,44.0
43.526,-0.987,4.252,38.0
47.945,-1.077,6.035,12.0
50.081,-1.115,6.014,27.0
45.038,-0.994,5.148,22.0
43.312,-0.948,4.697,35.0
43.382,-0.941,4.455,48.0
43.488,-0.935,4.216,43.0
47.948,-1.021,5.998,4.0
44.912,-0.947,5.358,19.0
44.199,-0.923,5.017,18.0
43.371,-0.898,4.668,35.0
43.394,-0.89,4.421,40.0
43.445,-0.883,4.176,47.0
44.477,-0.895,5.527,42.0
44.808,-0.893,5.308,19.0
44.028,-0.868,4.961,18.0
43.345,-0.847,4.629,40.0
43.274,-0.838,4.372,41.0
43.51,-0.835,4.146,39.0
48.04,-0.911,5.928,29.0
50.689,-0.951,5.961,6.0
43.909,-0.816,4.909,27.0
43.286,-0.796,4.585,44.0
41.823,-0.762,4.188,24.0
43.939,-0.792,4.147,7.0
44.565,-0.793,5.459,18.0
49.372,-0.87,5.76,26.0
43.813,-0.764,4.858,28.0
43.298,-0.747,4.546,37.0
41.807,-0.714,4.148,31.0
42.067,-0.711,3.931,18.0
47.943,-0.799,5.826,8.0
0.0,0.0,0.0,0.0
43.859,-0.715,4.82,39.0
43.305,-0.699,4.504,31.0
41.914,-0.669,4.118,32.0
41.937,-0.662,3.878,43.0
41.452,-0.644,4.996,28.0
41.31,-0.635,4.738,16.0
43.398,-0.659,4.726,3.0
41.686,-0.626,4.293,16.0
41.933,-0.622,4.076,16.0
42.014,-0.617,3.841,41.0
41.3,-0.596,4.934,42.0
41.248,-0.588,4.688,37.0
41.417,-0.584,4.467,38.0
41.838,-0.582,4.265,25.0
41.855,-0.576,4.025,41.0
41.95,-0.571,3.791,41.0
41.29,-0.551,4.889,38.0
41.301,-0.544,4.649,33.0
41.674,-0.542,4.449,22.0
41.582,-0.534,4.193,36.0
42.193,-0.535,4.01,41.0
41.845,-0.524,3.735,37.0
41.134,-0.504,4.824,32.0
41.25,-0.499,4.597,39.0
41.431,-0.495,4.376,45.0
41.816,-0.492,4.169,24.0
41.79,-0.486,3.925,39.0
41.629,-0.477,3.668,48.0
40.971,-0.459,4.757,48.0
41.246,-0.456,4.548,39.0
41.439,-0.451,4.328,39.0
41.692,-0.447,4.108,30.0
41.674,-0.441,3.864,37.0
41.874,-0.437,3.64,26.0
41.05,-0.417,4.716,35.0
41.282,-0.413,4.502,44.0
41.39,-0.408,4.273,44.0
41.623,-0.404,4.05,48.0
41.47,-0.396,3.795,48.0
41.801,-0.394,3.583,35.0
41.066,-0.376,4.667,45.0
41.304,-0.371,4.453,43.0
41.416,-0.367,4.224,40.0
41.634,-0.363,3.999,41.0
41.517,-0.356,3.747,47.0
41.587,-0.35,3.513,45.0
41.363,-0.337,4.648,29.0
41.189,-0.33,4.388,39.0
41.494,-0.326,4.179,44.0
41.765,-0.323,3.958,42.0
41.693,-0.317,3.709,38.0
41.949,-0.312,3.489,32.0
41.369,-0.297,4.594,38.0
