X,Y,Z,Reflectivity
33.343,-0.611,-0.579,0.0
139.125,-2.511,1.433,12.0
139.032,-2.458,0.681,3.0
62.581,-1.084,-0.031,0.0
0.0,0.0,0.0,0.0
0.0,0.0,0.0,0.0
33.982,-0.553,-0.571,0.0
139.22,-2.225,1.51,6.0
138.837,-2.169,0.755,12.0
0.0,0.0,0.0,0.0
0.0,0.0,0.0,0.0
0.0,0.0,0.0,0.0
0.0,0.0,0.0,0.0
139.334,-1.937,1.582,5.0
139.115,-1.884,0.826,8.0
0.0,0.0,0.0,0.0
0.0,0.0,0.0,0.0
0.0,0.0,0.0,0.0
35.522,-0.43,-0.562,0.0
0.0,0.0,0.0,0.0
119.838,-1.371,0.767,9.0
0.0,0.0,0.0,0.0
0.0,0.0,0.0,0.0
0.0,0.0,0.0,0.0
35.122,-0.352,-0.54,0.0
119.734,-1.162,1.468,98.0
119.727,-1.119,0.818,7.0
0.0,0.0,0.0,0.0
0.0,0.0,0.0,0.0
44.09,-0.364,-0.421,0.0
0.0,0.0,0.0,0.0
119.709,-0.909,1.516,16.0
119.684,-0.867,0.865,6.0
0.0,0.0,0.0,0.0
0.0,0.0,0.0,0.0
46.492,-0.288,-0.427,0.0
0.0,0.0,0.0,0.0
119.691,-0.659,1.558,3.0
119.735,-0.616,0.907,7.0
0.0,0.0,0.0,0.0
0.0,0.0,0.0,0.0
45.275,-0.184,-0.4,1.0
0.0,0.0,0.0,0.0
119.819,-0.405,1.599,4.0
114.462,-0.346,0.904,150.0
0.0,0.0,0.0,0.0
0.0,0.0,0.0,0.0
45.517,-0.089,-0.389,1.0
37.555,-0.06,-0.526,0.0
117.329,-0.146,1.6,13.0
117.185,-0.104,0.959,7.0
95.588,-0.05,0.26,1.0
0.0,0.0,0.0,0.0
45.828,0.008,-0.379,1.0
0.0,0.0,0.0,0.0
111.118,0.098,1.543,20.0
111.139,0.137,0.936,8.0
93.136,0.149,0.276,3.0
0.0,0.0,0.0,0.0
46.304,0.106,-0.373,0.0
0.0,0.0,0.0,0.0
119.876,0.361,1.69,52.0
111.039,0.373,0.959,14.0
0.0,0.0,0.0,0.0
0.0,0.0,0.0,0.0
47.379,0.209,-0.373,0.0
37.528,0.178,-0.5,0.0
111.086,0.57,1.586,33.0
110.997,0.61,0.977,13.0
87.147,0.509,0.29,1.0
0.0,0.0,0.0,0.0
48.468,0.317,-0.374,0.0
0.0,0.0,0.0,0.0
0.0,0.0,0.0,0.0
104.753,0.8,0.936,18.0
85.314,0.682,0.295,4.0
50.414,0.42,-0.107,0.0
48.622,0.422,-0.369,0.0
37.848,0.342,-0.495,0.0
98.699,0.93,1.433,20.0
98.512,0.963,0.89,19.0
85.418,0.866,0.303,8.0
0.0,0.0,0.0,0.0
46.666,0.505,-0.351,0.0
0.0,0.0,0.0,0.0
98.538,1.139,1.437,30.0
98.503,1.174,0.896,21.0
85.12,1.045,0.306,10.0
0.0,0.0,0.0,0.0
48.265,0.625,-0.361,0.0
37.804,0.503,-0.491,0.0
98.519,1.353,1.44,25.0
98.687,1.389,0.899,16.0
84.651,1.221,0.306,5.0
0.0,0.0,0.0,0.0
47.21,0.713,-0.353,0.0
0.0,0.0,0.0,0.0
91.924,1.459,1.342,39.0
91.87,1.489,0.836,30.0
78.334,1.297,0.281,9.0
0.0,0.0,0.0,0.0
47.397,0.817,-0.356,0.0
0.0,0.0,0.0,0.0
87.841,1.581,1.279,1.0
91.88,1.685,0.831,22.0
84.546,1.58,0.298,2.0
0.0,0.0,0.0,0.0
0.0,0.0,0.0,0.0
38.03,0.75,-0.498,0.0
85.374,1.72,1.236,25.0
85.29,1.746,0.764,29.0
78.386,1.632,0.269,1.0
0.0,0.0,0.0,0.0
0.0,0.0,0.0,0.0
39.268,0.857,-0.519,0.0
85.253,1.898,1.223,35.0
85.22,1.926,0.752,26.0
72.025,1.652,0.237,8.0
67.342,1.567,-0.156,2.0
47.533,1.122,-0.373,0.0
37.816,0.905,-0.506,0.0
85.307,2.08,1.211,26.0
78.976,1.952,0.684,18.0
71.798,1.799,0.224,10.0
65.564,1.664,-0.164,4.0
47.365,1.218,-0.38,0.0
0.0,0.0,0.0,0.0
78.683,2.084,1.101,13.0
78.841,2.115,0.667,10.0
71.642,1.946,0.209,14.0
63.826,1.755,-0.173,3.0
0.0,0.0,0.0,0.0
0.0,0.0,0.0,0.0
74.536,2.133,1.026,4.0
78.863,2.283,0.648,15.0
71.448,2.091,0.191,9.0
62.305,1.844,-0.185,3.0
45.557,1.363,-0.388,0.0
0.0,0.0,0.0,0.0
120.013,3.686,1.619,11.0
72.455,2.249,0.575,29.0
71.262,2.234,0.17,10.0
60.775,1.925,-0.198,4.0
45.495,1.455,-0.4,1.0
36.897,1.192,-0.53,0.0
72.386,2.373,0.954,33.0
72.328,2.394,0.552,33.0
65.587,2.192,0.135,5.0
59.404,2.005,-0.213,4.0
44.414,1.513,-0.406,0.0
0.0,0.0,0.0,0.0
72.35,2.521,0.929,31.0
72.331,2.543,0.527,19.0
65.505,2.324,0.112,9.0
0.0,0.0,0.0,0.0
44.66,1.613,-0.424,1.0
35.78,1.303,-0.539,0.0
72.525,2.675,0.904,7.0
72.274,2.689,0.498,11.0
65.269,2.448,0.087,15.0
56.744,2.146,-0.246,5.0
44.761,1.707,-0.443,1.0
34.901,1.342,-0.54,0.0
120.005,4.671,1.447,15.0
64.532,2.532,0.418,5.0
65.196,2.578,0.059,9.0
55.23,2.201,-0.263,2.0
44.8,1.799,-0.463,0.0
35.036,1.418,-0.557,0.0
61.812,2.531,0.717,9.0
66.054,2.725,0.398,27.0
58.961,2.451,0.026,9.0
54.433,2.279,-0.284,2.0
40.909,1.726,-0.442,0.0
0.0,0.0,0.0,0.0
66.036,2.836,0.734,26.0
66.035,2.856,0.365,22.0
58.911,2.567,-0.002,6.0
52.944,2.322,-0.303,7.0
40.568,1.792,-0.459,0.0
33.321,1.482,-0.563,0.0
66.101,2.972,0.701,19.0
66.074,2.99,0.331,13.0
58.659,2.672,-0.034,8.0
52.258,2.396,-0.327,5.0
0.0,0.0,0.0,0.0
0.0,0.0,0.0,0.0
120.04,5.633,1.206,14.0
66.152,3.123,0.295,5.0
58.397,2.774,-0.066,11.0
51.231,2.449,-0.35,0.0
40.304,1.939,-0.501,1.0
32.3,1.563,-0.582,0.0
120.059,5.869,1.136,16.0
66.012,3.246,0.254,6.0
52.213,2.583,-0.09,26.0
50.276,2.502,-0.374,9.0
38.051,1.904,-0.496,0.0
31.481,1.585,-0.587,0.0
59.487,3.024,0.526,21.0
59.367,3.035,0.191,20.0
51.825,2.664,-0.123,25.0
49.203,2.543,-0.397,0.0
36.897,1.918,-0.505,0.0
30.839,1.612,-0.595,0.0
59.337,3.13,0.485,26.0
59.253,3.142,0.152,16.0
51.284,2.734,-0.155,18.0
45.805,2.455,-0.401,0.0
35.973,1.938,-0.517,0.0
30.227,1.637,-0.604,0.0
59.338,3.243,0.444,21.0
59.209,3.253,0.11,11.0
50.944,2.812,-0.19,11.0
42.44,2.355,-0.401,0.0
35.341,1.971,-0.533,0.0
29.643,1.662,-0.614,0.0
59.458,3.362,0.402,13.0
52.399,2.977,0.059,19.0
48.011,2.74,-0.215,5.0
0.0,0.0,0.0,0.0
34.818,2.006,-0.551,0.0
28.874,1.672,-0.619,0.0
93.957,5.485,0.565,4.0
51.925,3.045,0.02,19.0
46.283,2.727,-0.242,20.0
40.87,2.419,-0.448,1.0
33.497,1.991,-0.556,0.0
0.0,0.0,0.0,0.0
111.154,6.689,0.583,6.0
51.663,3.122,-0.02,21.0
45.629,2.769,-0.274,19.0
39.595,2.413,-0.465,0.0
32.56,1.993,-0.566,0.0
27.371,1.683,-0.63,0.0
52.424,3.248,0.232,11.0
51.432,3.199,-0.061,19.0
44.934,2.807,-0.307,8.0
38.28,2.402,-0.481,0.0
31.604,1.991,-0.576,0.0
27.063,1.712,-0.646,0.0
52.216,3.327,0.187,15.0
51.28,3.28,-0.104,12.0
44.292,2.845,-0.34,7.0
0.0,0.0,0.0,0.0
30.98,2.005,-0.59,0.0
26.511,1.722,-0.655,0.0
52.032,3.405,0.142,13.0
45.999,3.022,-0.133,20.0
43.681,2.881,-0.373,10.0
36.022,2.385,-0.515,0.0
30.21,2.008,-0.603,0.0
26.038,1.737,-0.667,0.0
51.885,3.485,0.095,16.0
45.547,3.07,-0.173,20.0
43.033,2.911,-0.407,3.0
34.993,2.375,-0.532,0.0
29.254,1.993,-0.61,0.0
25.247,1.727,-0.67,0.0
51.75,3.562,0.047,18.0
44.77,3.092,-0.212,19.0
42.331,2.933,-0.44,5.0
0.0,0.0,0.0,0.0
28.648,1.999,-0.625,0.0
24.809,1.737,-0.682,0.0
46.064,3.246,-0.001,14.0
0.0,0.0,0.0,0.0
41.198,2.922,-0.467,1.0
32.671,2.324,-0.558,0.0
27.612,1.971,-0.628,0.0
24.131,1.728,-0.686,0.0
45.901,3.307,-0.045,22.0
42.334,3.059,-0.281,16.0
41.236,2.99,-0.507,0.0
31.582,2.296,-0.571,0.0
26.929,1.965,-0.639,0.0
23.557,1.724,-0.693,0.0
45.48,3.347,-0.089,20.0
41.431,3.058,-0.316,10.0
36.864,2.729,-0.49,0.0
30.648,2.276,-0.585,0.0
26.223,1.954,-0.649,0.0
23.03,1.721,-0.701,0.0
45.183,3.395,-0.135,19.0
40.791,3.074,-0.353,4.0
35.844,2.709,-0.514,1.0
29.822,2.26,-0.6,0.0
25.592,1.946,-0.66,0.0
22.537,1.718,-0.709,0.0
44.817,3.435,-0.181,19.0
40.576,3.119,-0.394,4.0
34.843,2.686,-0.536,0.0
28.855,2.23,-0.611,0.0
24.94,1.933,-0.669,0.0
22.001,1.71,-0.716,0.0
43.974,3.435,-0.224,23.0
40.377,3.163,-0.435,5.0
33.017,2.593,-0.543,0.0
28.063,2.21,-0.624,0.0
24.417,1.928,-0.682,0.0
21.533,1.705,-0.724,0.0
0.0,0.0,0.0,0.0
39.633,3.161,-0.47,3.0
31.855,2.547,-0.559,0.0
27.117,2.174,-0.633,0.0
23.792,1.912,-0.691,0.0
20.877,1.682,-0.725,0.0
40.593,3.287,-0.296,17.0
38.331,3.111,-0.498,1.0
30.966,2.519,-0.578,0.0
26.327,2.147,-0.644,0.0
23.151,1.893,-0.698,0.0
20.384,1.671,-0.731,0.0
40.388,3.325,-0.34,12.0
36.414,3.005,-0.514,0.0
30.071,2.487,-0.596,0.0
25.762,2.136,-0.659,0.0
22.56,1.875,-0.706,0.0
20.087,1.673,-0.743,0.0
40.067,3.352,-0.384,5.0
34.077,2.858,-0.521,1.0
28.965,2.434,-0.607,0.0
25.075,2.112,-0.671,0.0
21.89,1.848,-0.711,0.0
19.454,1.646,-0.743,0.0
39.959,3.395,-0.43,10.0
33.152,2.823,-0.546,1.0
27.77,2.37,-0.615,0.0
24.305,2.078,-0.68,0.0
21.703,1.86,-0.731,0.0
19.193,1.649,-0.756,0.0
39.831,3.435,-0.476,5.0
31.876,2.754,-0.563,0.0
26.945,2.333,-0.629,0.0
23.619,2.05,-0.689,0.0
20.816,1.81,-0.726,0.0
18.729,1.632,-0.76,0.0
39.736,3.475,-0.523,0.0
30.802,2.699,-0.581,0.0
26.335,2.312,-0.647,0.0
22.853,2.01,-0.695,0.0
20.344,1.793,-0.734,0.0
18.312,1.618,-0.766,0.0
36.217,3.21,-0.521,0.0
29.557,2.625,-0.594,0.0
25.622,2.279,-0.661,0.0
22.389,1.996,-0.708,0.0
19.942,1.781,-0.745,0.0
17.993,1.61,-0.775,0.0
33.239,2.984,-0.519,0.0
28.837,2.593,-0.616,0.0
24.835,2.237,-0.672,0.0
21.614,1.95,-0.71,0.0
19.51,1.764,-0.753,0.0
17.551,1.59,-0.778,0.0
32.421,2.946,-0.547,1.0
27.689,2.52,-0.625,0.0
23.921,2.181,-0.677,0.0
21.147,1.931,-0.721,0.0
18.933,1.732,-0.754,0.0
17.211,1.578,-0.784,0.0
31.365,2.883,-0.569,1.0
26.701,2.458,-0.637,0.0
23.346,2.153,-0.691,0.0
20.585,1.901,-0.729,0.0
18.51,1.713,-0.761,0.0
16.901,1.567,-0.792,0.0
30.297,2.815,-0.589,0.0
25.92,2.412,-0.652,0.0
22.686,2.115,-0.7,0.0
20.11,1.878,-0.738,0.0
18.077,1.691,-0.767,0.0
16.441,1.54,-0.792,0.0
28.95,2.719,-0.599,0.0
25.16,2.366,-0.665,0.0
22.094,2.081,-0.71,0.0
19.576,1.846,-0.743,0.0
17.668,1.669,-0.772,0.0
16.148,1.528,-0.799,0.0
27.981,2.653,-0.616,0.0
24.39,2.316,-0.676,0.0
21.397,2.035,-0.716,0.0
19.106,1.82,-0.751,0.0
17.244,1.645,-0.776,0.0
15.849,1.514,-0.804,0.0
27.089,2.593,-0.631,0.0
23.615,2.263,-0.686,0.0
20.809,1.997,-0.723,0.0
18.643,1.791,-0.757,0.0
16.965,1.633,-0.786,0.0
15.509,1.495,-0.807,0.0
26.139,2.524,-0.643,0.0
22.953,2.219,-0.696,0.0
20.309,1.966,-0.732,0.0
18.135,1.758,-0.76,0.0
16.514,1.603,-0.787,0.0
15.238,1.481,-0.813,0.0
25.354,2.468,-0.657,0.0
22.122,2.156,-0.7,0.0
19.792,1.931,-0.74,0.0
17.828,1.742,-0.771,0.0
16.311,1.596,-0.799,0.0
14.98,1.467,-0.82,0.0
24.461,2.4,-0.667,0.0
21.616,2.123,-0.713,0.0
19.259,1.894,-0.746,0.0
17.39,1.712,-0.775,0.0
15.943,1.571,-0.802,0.0
14.674,1.448,-0.823,0.0
23.721,2.344,-0.678,0.0
21.093,2.086,-0.724,0.0
18.792,1.861,-0.753,0.0
16.954,1.681,-0.778,0.0
15.581,1.546,-0.805,0.0
14.395,1.43,-0.826,0.0
23.108,2.299,-0.691,0.0
20.363,2.028,-0.726,0.0
18.268,1.821,-0.756,0.0
16.607,1.657,-0.785,0.0
15.329,1.531,-0.812,0.0
14.108,1.411,-0.829,0.0
22.453,2.248,-0.702,0.0
20.0,2.004,-0.74,0.0
17.851,1.79,-0.763,0.0
16.337,1.64,-0.793,0.0
14.971,1.504,-0.813,0.0
13.902,1.399,-0.835,0.0
21.698,2.184,-0.707,0.0
19.476,1.962,-0.746,0.0
17.563,1.771,-0.774,0.0
16.059,1.621,-0.802,0.0
14.729,1.488,-0.82,0.0
13.676,1.383,-0.84,0.0
21.028,2.128,-0.713,0.0
18.857,1.91,-0.748,0.0
17.204,1.744,-0.781,0.0
15.641,1.587,-0.802,0.0
14.52,1.475,-0.828,0.0
13.515,1.374,-0.848,0.0
20.468,2.081,-0.722,0.0
18.388,1.871,-0.754,0.0
16.824,1.713,-0.786,0.0
15.343,1.564,-0.807,0.0
14.224,1.451,-0.83,0.0
13.255,1.354,-0.85,0.0
19.987,2.041,-0.731,0.0
18.054,1.845,-0.764,0.0
16.396,1.677,-0.788,0.0
15.101,1.546,-0.814,0.0
13.905,1.424,-0.83,0.0
13.002,1.333,-0.851,0.0
19.537,2.003,-0.741,0.0
17.667,1.813,-0.771,0.0
16.116,1.655,-0.796,0.0
14.79,1.519,-0.817,0.0
13.72,1.411,-0.837,0.0
12.78,1.315,-0.854,0.0
19.091,1.964,-0.75,0.0
17.178,1.768,-0.773,0.0
15.792,1.627,-0.802,0.0
14.441,1.488,-0.817,0.0
13.549,1.398,-0.845,0.0
12.52,1.292,-0.853,0.0
18.479,1.907,-0.75,0.0
16.906,1.745,-0.783,0.0
15.432,1.594,-0.804,0.0
14.26,1.474,-0.826,0.0
13.227,1.368,-0.842,0.0
12.251,1.268,-0.851,0.0
18.123,1.875,-0.759,0.0
16.557,1.714,-0.789,0.0
15.17,1.571,-0.81,0.0
14.034,1.454,-0.832,0.0
12.968,1.344,-0.843,0.0
12.082,1.253,-0.855,0.0
17.74,1.839,-0.767,0.0
16.169,1.677,-0.792,0.0
14.925,1.549,-0.817,0.0
13.767,1.429,-0.834,0.0
12.759,1.325,-0.847,0.0
11.854,1.232,-0.855,0.0
17.312,1.798,-0.771,0.0
15.896,1.651,-0.799,0.0
14.571,1.514,-0.816,0.0
13.557,1.409,-0.839,0.0
12.751,1.326,-0.863,0.0
11.72,1.22,-0.86,0.0
16.976,1.765,-0.778,0.0
15.511,1.613,-0.8,0.0
14.366,1.494,-0.823,0.0
13.338,1.388,-0.843,0.0
12.489,1.3,-0.861,0.0
11.535,1.202,-0.862,0.0
16.59,1.726,-0.781,0.0
15.3,1.592,-0.808,0.0
14.125,1.47,-0.828,0.0
13.018,1.356,-0.839,0.0
12.184,1.269,-0.856,0.0
11.35,1.183,-0.863,0.0
16.277,1.694,-0.787,0.0
14.988,1.56,-0.811,0.0
13.879,1.445,-0.831,0.0
12.801,1.333,-0.841,0.0
11.944,1.245,-0.854,0.0
11.17,1.164,-0.863,0.0
16.033,1.669,-0.796,0.0
14.711,1.531,-0.815,0.0
13.675,1.424,-0.836,0.0
12.741,1.327,-0.854,0.0
11.752,1.224,-0.855,0.0
11.022,1.149,-0.866,0.0
15.729,1.636,-0.8,0.0
14.451,1.503,-0.818,0.0
13.442,1.399,-0.839,0.0
12.648,1.316,-0.863,0.0
11.635,1.211,-0.861,0.0
10.893,1.134,-0.869,0.0
15.348,1.595,-0.8,0.0
14.226,1.479,-0.823,0.0
13.165,1.368,-0.837,0.0
12.302,1.279,-0.855,0.0
11.438,1.189,-0.861,0.0
10.77,1.12,-0.873,0.0
15.191,1.577,-0.81,0.0
14.029,1.456,-0.829,0.0
12.979,1.347,-0.841,0.0
12.028,1.249,-0.85,0.0
11.267,1.17,-0.861,0.0
10.675,1.108,-0.878,0.0
14.902,1.544,-0.813,0.0
13.759,1.425,-0.829,0.0
12.804,1.326,-0.846,0.0
11.843,1.227,-0.851,0.0
11.14,1.154,-0.865,0.0
10.527,1.091,-0.878,0.0
14.644,1.514,-0.816,0.0
13.641,1.41,-0.838,0.0
12.7,1.313,-0.854,0.0
11.696,1.209,-0.855,0.0
10.941,1.131,-0.863,0.0
10.385,1.074,-0.879,0.0
14.418,1.487,-0.82,0.0
13.391,1.38,-0.839,0.0
12.431,1.281,-0.85,0.0
11.621,1.198,-0.863,0.0
10.856,1.119,-0.868,0.0
10.276,1.059,-0.881,0.0
14.177,1.457,-0.823,0.0
13.218,1.358,-0.843,0.0
12.245,1.258,-0.851,0.0
11.369,1.168,-0.857,0.0
10.704,1.1,-0.868,0.0
10.157,1.044,-0.883,0.0
13.974,1.431,-0.827,0.0
12.946,1.326,-0.84,0.0
12.056,1.234,-0.852,0.0
11.242,1.151,-0.86,0.0
10.649,1.09,-0.876,0.0
10.065,1.03,-0.886,0.0
13.824,1.411,-0.833,0.0
12.867,1.313,-0.849,0.0
11.861,1.21,-0.851,0.0
11.089,1.131,-0.86,0.0
10.47,1.067,-0.873,0.0
10.03,1.022,-0.894,0.0
13.625,1.385,-0.835,0.0
12.619,1.282,-0.846,0.0
11.714,1.19,-0.853,0.0
11.009,1.118,-0.866,0.0
10.349,1.051,-0.874,0.0
9.904,1.005,-0.893,0.0
13.475,1.363,-0.84,0.0
12.406,1.254,-0.845,0.0
11.626,1.175,-0.858,0.0
10.882,1.1,-0.867,0.0
10.286,1.039,-0.879,0.0
9.829,0.993,-0.897,0.0
13.223,1.331,-0.838,0.0
12.362,1.244,-0.855,0.0
11.418,1.148,-0.855,0.0
10.792,1.085,-0.871,0.0
10.22,1.027,-0.884,0.0
9.719,0.976,-0.896,0.0
13.08,1.309,-0.842,0.0
12.126,1.213,-0.85,0.0
11.269,1.127,-0.855,0.0
10.646,1.064,-0.87,0.0
10.128,1.012,-0.886,0.0
9.646,0.963,-0.899,0.0
12.949,1.288,-0.846,0.0
11.908,1.184,-0.846,0.0
11.194,1.113,-0.86,0.0
10.564,1.05,-0.873,0.0
10.062,0.999,-0.89,0.0
9.585,0.951,-0.903,0.0
12.725,1.258,-0.844,0.0
11.829,1.169,-0.852,0.0
11.095,1.096,-0.863,0.0
10.472,1.034,-0.876,0.0
9.98,0.984,-0.892,0.0
9.475,0.934,-0.901,0.0
12.62,1.239,-0.849,0.0
11.737,1.152,-0.856,0.0
10.967,1.076,-0.863,0.0
10.336,1.013,-0.874,0.0
9.892,0.969,-0.893,0.0
9.42,0.922,-0.905,0.0
12.422,1.211,-0.846,0.0
11.633,1.133,-0.859,0.0
10.88,1.059,-0.866,0.0
10.29,1.001,-0.879,0.0
9.732,0.946,-0.887,0.0
9.29,0.903,-0.9,0.0
12.275,1.188,-0.847,0.0
11.426,1.105,-0.854,0.0
10.761,1.04,-0.866,0.0
10.213,0.986,-0.881,0.0
9.781,0.944,-0.9,0.0
9.242,0.891,-0.904,0.0
12.165,1.168,-0.85,0.0
11.331,1.087,-0.856,0.0
10.707,1.026,-0.87,0.0
10.144,0.971,-0.884,0.0
9.643,0.923,-0.895,0.0
9.239,0.883,-0.911,0.0
12.008,1.143,-0.848,0.0
11.235,1.068,-0.858,0.0
10.607,1.008,-0.871,0.0
10.063,0.955,-0.885,0.0
9.618,0.912,-0.901,0.0
9.149,0.867,-0.909,0.0
11.901,1.123,-0.85,0.0
11.145,1.05,-0.859,0.0
10.547,0.993,-0.874,0.0
10.047,0.945,-0.891,0.0
9.563,0.899,-0.903,0.0
9.106,0.855,-0.912,0.0
11.806,1.103,-0.852,0.0
11.044,1.031,-0.86,0.0
10.488,0.978,-0.877,0.0
9.911,0.923,-0.886,0.0
9.504,0.885,-0.904,0.0
9.048,0.841,-0.913,0.0
11.739,1.086,-0.855,0.0
10.96,1.013,-0.861,0.0
10.402,0.961,-0.877,0.0
9.892,0.913,-0.891,0.0
9.397,0.866,-0.9,0.0
9.006,0.829,-0.915,0.0
11.619,1.064,-0.854,0.0
10.879,0.995,-0.862,0.0
10.351,0.946,-0.879,0.0
9.811,0.896,-0.89,0.0
9.406,0.858,-0.907,0.0
8.919,0.813,-0.912,0.0
11.479,1.041,-0.851,0.0
10.791,0.977,-0.862,0.0
10.272,0.929,-0.879,0.0
9.751,0.881,-0.891,0.0
9.316,0.84,-0.904,0.0
8.884,0.801,-0.913,0.0
11.436,1.025,-0.855,0.0
10.739,0.961,-0.864,0.0
10.231,0.915,-0.881,0.0
9.7,0.866,-0.892,0.0
9.247,0.825,-0.903,0.0
8.862,0.79,-0.916,0.0
11.351,1.006,-0.855,0.0
10.708,0.948,-0.867,0.0
10.241,0.905,-0.888,0.0
9.749,0.86,-0.902,0.0
9.219,0.813,-0.905,0.0
8.817,0.776,-0.916,0.0
41.197,1.258,4.002,46.0
40.503,1.246,3.715,47.0
40.412,1.251,3.488,39.0
40.709,1.269,3.289,43.0
45.082,1.416,3.4,14.0
66.612,2.106,4.665,16.0
41.235,1.312,4.054,35.0
40.409,1.295,3.753,39.0
40.398,1.303,3.533,44.0
40.537,1.316,3.322,35.0
40.834,1.335,3.126,30.0
66.573,2.19,4.737,10.0
40.847,1.353,4.062,44.0
40.355,1.345,3.793,41.0
40.539,1.36,3.591,32.0
40.536,1.369,3.367,38.0
40.653,1.381,3.157,46.0
40.733,1.393,2.942,23.0
40.616,1.399,4.084,41.0
40.575,1.406,3.858,25.0
40.412,1.408,3.623,41.0
40.454,1.419,3.403,35.0
40.55,1.431,3.192,37.0
40.655,1.444,2.98,39.0
40.868,1.461,4.152,34.0
40.363,1.452,3.881,47.0
40.313,1.458,3.656,42.0
40.32,1.467,3.433,49.0
40.486,1.482,3.228,43.0
40.61,1.495,3.017,39.0
40.644,1.507,4.17,32.0
40.471,1.509,3.931,41.0
40.438,1.516,3.708,40.0
40.687,1.534,3.504,38.0
40.464,1.535,3.265,39.0
40.705,1.553,3.063,28.0
40.552,1.558,4.2,34.0
40.62,1.569,3.985,26.0
40.399,1.569,3.742,40.0
40.281,1.573,3.508,39.0
40.418,1.588,3.299,38.0
40.597,1.603,3.093,43.0
40.547,1.613,4.237,39.0
40.53,1.62,4.013,34.0
40.465,1.626,3.785,36.0
40.347,1.63,3.549,42.0
40.332,1.639,3.328,44.0
40.603,1.658,3.129,41.0
40.565,1.668,4.275,26.0
40.798,1.686,4.075,16.0
40.431,1.679,3.817,45.0
40.397,1.687,3.588,48.0
40.311,1.692,3.36,42.0
40.421,1.705,3.149,39.0
40.627,1.726,4.316,39.0
41.583,1.776,4.189,16.0
40.589,1.742,3.866,38.0
40.312,1.739,3.614,38.0
40.412,1.751,3.401,36.0
40.345,1.757,3.175,38.0
40.605,1.781,4.346,20.0
41.015,1.807,4.164,37.0
40.666,1.8,3.904,35.0
40.27,1.792,3.641,43.0
41.195,1.842,3.498,16.0
40.446,1.817,3.213,35.0
40.779,1.845,4.395,13.0
41.04,1.865,4.197,40.0
40.692,1.858,3.937,43.0
40.357,1.851,3.678,33.0
40.687,1.874,3.484,15.0
40.646,1.881,3.258,29.0
40.783,1.901,4.424,34.0
40.845,1.912,4.205,40.0
40.751,1.916,3.97,37.0
40.305,1.903,3.7,39.0
40.234,1.908,3.472,40.0
40.552,1.932,3.277,17.0
40.826,1.959,4.456,26.0
40.947,1.973,4.242,44.0
40.909,1.979,4.012,42.0
40.434,1.965,3.738,42.0
40.22,1.963,3.497,38.0
40.334,1.977,3.285,35.0
40.92,2.02,4.492,34.0
40.82,2.023,4.254,40.0
40.938,2.037,4.04,24.0
40.684,2.033,3.785,26.0
40.476,2.031,3.542,35.0
40.29,2.031,3.304,36.0
40.777,2.07,4.5,41.0
40.734,2.075,4.269,43.0
40.779,2.086,4.047,43.0
40.635,2.087,3.803,42.0
41.213,2.125,3.63,37.0
40.372,2.09,3.332,42.0
40.799,2.126,4.524,38.0
40.746,2.132,4.291,34.0
45.19,2.374,4.508,8.0
40.856,2.154,3.845,33.0
41.034,2.172,3.634,30.0
44.601,2.37,3.703,5.0
41.242,2.207,4.593,17.0
40.739,2.188,4.31,43.0
45.609,2.458,4.571,19.0
40.948,2.215,3.872,37.0
41.088,2.231,3.657,43.0
40.462,2.205,3.378,35.0
41.168,2.259,4.603,17.0
40.759,2.245,4.33,41.0
45.963,2.54,4.626,5.0
41.123,2.281,3.906,29.0
41.24,2.296,3.688,44.0
40.602,2.269,3.406,34.0
48.4,2.723,5.431,2.0
40.778,2.302,4.347,36.0
45.894,2.6,4.637,9.0
45.679,2.596,4.356,20.0
41.389,2.36,3.716,43.0
40.541,2.32,3.415,42.0
41.842,2.411,4.709,37.0
40.935,2.366,4.378,33.0
45.228,2.623,4.585,7.0
41.289,2.403,3.95,12.0
41.367,2.415,3.727,47.0
40.78,2.388,3.448,32.0
41.814,2.466,4.719,21.0
40.971,2.424,4.394,31.0
48.133,2.857,4.893,2.0
44.784,2.667,4.297,20.0
41.565,2.483,3.756,29.0
40.877,2.45,3.467,48.0
41.698,2.516,4.717,28.0
46.658,2.824,5.016,4.0
45.532,2.764,4.64,7.0
45.0,2.74,4.329,19.0
42.273,2.582,3.831,18.0
41.762,2.559,3.551,37.0
41.636,2.569,4.719,39.0
52.317,3.237,5.636,13.0
52.302,3.245,5.34,33.0
45.439,2.828,4.38,19.0
42.19,2.634,3.831,13.0
41.836,2.619,3.565,35.0
52.178,3.289,5.923,9.0
52.253,3.303,5.637,17.0
52.283,3.314,5.347,19.0
52.288,3.324,5.048,12.0
42.34,2.699,3.851,23.0
42.032,2.687,3.588,15.0
41.727,2.686,4.742,23.0
52.272,3.373,5.646,19.0
52.391,3.39,5.364,10.0
42.564,2.762,4.114,1.0
42.417,2.759,3.862,31.0
41.982,2.739,3.587,30.0
41.656,2.736,4.737,43.0
46.627,3.07,5.04,14.0
42.28,2.791,4.331,6.0
45.413,3.006,4.392,2.0
42.126,2.795,3.838,16.0
41.936,2.79,3.585,40.0
41.672,2.791,4.741,44.0
42.169,2.832,4.559,25.0
42.201,2.841,4.324,6.0
41.924,2.829,4.056,16.0
42.119,2.85,3.837,19.0
41.74,2.832,3.568,28.0
41.615,2.841,4.734,33.0
42.127,2.883,4.554,14.0
41.928,2.877,4.295,19.0
41.983,2.887,4.06,20.0
42.203,2.909,3.844,31.0
41.685,2.881,3.562,34.0
41.643,2.897,4.736,42.0
53.077,3.701,5.735,8.0
41.971,2.933,4.298,13.0
41.464,2.904,4.007,38.0
41.776,2.933,3.802,17.0
41.506,2.921,3.544,40.0
41.759,2.958,4.745,40.0
53.104,3.77,5.733,7.0
41.901,2.98,4.286,9.0
41.308,2.945,3.987,38.0
41.499,2.965,3.772,41.0
41.478,2.97,3.536,32.0
41.551,2.994,4.716,42.0
46.054,3.326,4.965,13.0
41.877,3.03,4.277,9.0
41.365,2.999,3.986,31.0
41.345,3.004,3.751,26.0
41.406,3.015,3.523,30.0
45.825,3.728,2.066,44.0
45.825,3.719,1.804,42.0
45.837,3.711,1.542,38.0
45.835,3.703,1.275,38.0
45.865,3.697,1.014,39.0
45.867,3.689,0.752,38.0
45.879,3.677,2.01,30.0
45.895,3.669,1.748,27.0
45.906,3.66,1.485,31.0
45.988,3.658,1.221,8.0
98.438,7.813,2.052,8.0
98.484,7.798,1.491,8.0
45.982,3.627,1.956,13.0
100.756,7.928,3.711,16.0
100.814,7.912,3.137,3.0
98.956,7.747,2.505,9.0
99.102,7.739,1.943,8.0
99.225,7.73,1.379,8.0
72.174,5.6,2.981,9.0
101.584,7.862,3.616,17.0
99.781,7.701,2.982,4.0
99.84,7.686,2.405,10.0
99.878,7.67,1.836,8.0
99.961,7.657,1.268,8.0
101.995,7.779,4.089,15.0
102.007,7.759,3.507,39.0
100.552,7.627,2.884,5.0
100.591,7.609,2.302,9.0
100.71,7.599,1.731,8.0
100.737,7.58,1.156,10.0
101.979,7.639,3.966,30.0
101.987,7.617,3.384,36.0
101.622,7.569,2.793,1.0
101.592,7.544,2.202,4.0
101.634,7.526,1.624,5.0
101.675,7.507,1.046,6.0
102.147,7.507,3.849,15.0
102.156,7.485,3.268,15.0
102.164,7.462,2.685,16.0
102.157,7.439,2.093,21.0
102.169,7.42,1.512,18.0
52.276,3.785,0.476,17.0
102.07,7.353,3.727,45.0
102.091,7.332,3.146,43.0
102.109,7.311,2.566,31.0
52.26,3.73,1.011,22.0
52.236,3.717,0.713,22.0
52.201,3.703,0.416,21.0
52.27,3.688,1.849,22.0
52.245,3.674,1.55,24.0
52.207,3.66,1.252,27.0
52.183,3.647,0.95,30.0
52.192,3.635,0.653,38.0
52.188,3.624,0.357,21.0
52.243,3.608,1.789,7.0
52.206,3.593,1.491,37.0
52.187,3.579,1.193,40.0
52.174,3.565,0.891,40.0
52.195,3.556,0.595,29.0
52.177,3.542,0.299,18.0
47.284,3.192,1.567,53.0
52.218,3.512,1.433,44.0
52.212,3.499,1.136,42.0
52.224,3.488,0.835,41.0
52.241,3.476,0.539,35.0
52.18,3.46,0.242,16.0
47.392,3.124,1.519,17.0
52.316,3.436,1.38,17.0
52.326,3.423,1.083,27.0
52.346,3.412,0.781,26.0
52.344,3.4,0.484,25.0
52.202,3.378,0.188,15.0
47.561,3.059,1.475,12.0
47.44,3.039,1.202,62.0
110.278,7.039,2.168,3.0
110.428,7.022,1.535,7.0
110.613,7.007,0.911,7.0
52.16,3.292,0.134,15.0
47.756,2.994,1.432,9.0
47.567,2.97,1.156,21.0
111.107,6.908,2.072,40.0
111.1,6.879,1.431,65.0
111.114,6.853,0.801,62.0
52.043,3.197,0.081,18.0
47.987,2.928,1.391,8.0
47.718,2.899,1.113,27.0
47.614,2.88,0.84,52.0
113.614,6.846,1.352,8.0
113.862,6.831,0.71,4.0
51.888,3.1,0.03,17.0
48.207,2.86,1.35,9.0
47.855,2.826,1.07,26.0
47.774,2.808,0.797,31.0
47.67,2.79,0.521,3.0
59.237,3.451,0.312,6.0
51.73,3.001,-0.018,19.0
70.803,-5.579,8.052,29.0
71.284,-5.6,7.71,22.0
71.648,-5.611,7.351,14.0
70.912,-5.538,6.875,11.0
70.743,-5.508,6.468,10.0
68.006,-5.28,5.841,44.0
70.756,-5.501,8.081,47.0
71.454,-5.538,7.763,28.0
70.91,-5.48,7.309,20.0
71.778,-5.53,6.993,14.0
68.008,-5.223,6.249,79.0
68.018,-5.208,5.873,23.0
70.604,-5.414,8.096,22.0
71.332,-5.452,7.782,34.0
71.218,-5.426,7.373,41.0
68.011,-5.166,6.656,9.0
70.825,-5.363,6.538,14.0
70.983,-5.358,6.159,21.0
70.257,-5.31,8.086,45.0
71.178,-5.362,7.794,45.0
71.141,-5.342,7.394,36.0
68.03,-5.092,6.684,41.0
70.992,-5.297,6.581,13.0
71.053,-5.285,6.192,14.0
70.32,-5.236,8.12,45.0
70.511,-5.233,7.747,39.0
71.529,-5.291,7.459,12.0
68.031,-5.015,6.709,22.0
71.284,-5.238,6.632,10.0
72.663,-5.323,6.357,3.0
71.167,-5.218,8.242,20.0
70.391,-5.144,7.757,27.0
71.867,-5.235,7.517,23.0
72.155,-5.237,7.138,10.0
73.295,-5.303,6.842,12.0
71.035,-5.123,6.235,9.0
70.25,-5.07,8.156,26.0
70.866,-5.096,7.83,40.0
71.985,-5.159,7.55,9.0
72.349,-5.167,7.176,16.0
78.133,-5.561,7.314,11.0
71.349,-5.061,6.281,7.0
70.124,-4.979,8.159,44.0
71.383,-5.049,7.904,33.0
70.788,-4.99,7.441,14.0
71.534,-5.024,7.111,31.0
69.891,-4.891,6.558,33.0
72.407,-5.05,6.39,14.0
69.879,-4.877,8.145,37.0
70.906,-4.93,7.866,12.0
70.657,-4.895,7.441,23.0
70.207,-4.846,6.993,31.0
69.717,-4.795,6.554,19.0
64.383,-4.412,5.693,27.0
69.908,-4.794,8.16,32.0
70.341,-4.805,7.814,32.0
68.058,-4.632,7.178,7.0
70.316,-4.767,7.014,47.0
69.786,-4.714,6.57,17.0
64.333,-4.33,5.696,32.0
70.308,-4.734,8.216,49.0
70.201,-4.708,7.807,12.0
68.068,-4.547,7.186,16.0
0.0,0.0,0.0,0.0
64.083,-4.249,6.038,18.0
64.268,-4.245,5.696,36.0
70.401,-4.652,8.232,27.0
70.453,-4.637,7.84,19.0
59.492,-3.9,6.285,8.0
59.468,-3.883,5.941,10.0
64.068,-4.167,6.04,35.0
64.261,-4.164,5.698,33.0
70.065,-4.541,8.195,17.0
70.447,-4.547,7.841,28.0
59.472,-3.823,6.283,12.0
59.569,-3.814,5.952,32.0
64.093,-4.088,6.043,37.0
64.002,-4.066,5.675,39.0
70.114,-4.454,8.201,24.0
70.347,-4.451,7.829,26.0
59.503,-3.749,6.285,11.0
59.203,-3.715,5.913,33.0
64.134,-4.008,6.044,32.0
63.855,-3.974,5.659,33.0
69.953,-4.354,8.178,33.0
70.128,-4.346,7.801,15.0
59.223,-3.655,6.252,13.0
59.055,-3.629,5.894,33.0
64.002,-3.917,6.026,13.0
63.823,-3.89,5.65,35.0
69.971,-4.264,8.173,27.0
58.934,-3.576,6.549,33.0
58.971,-3.562,6.219,25.0
59.041,-3.552,5.885,33.0
63.995,-3.834,6.018,21.0
63.577,-3.793,5.62,38.0
51.392,-1.959,5.564,8.0
46.5,-1.762,4.765,20.0
46.541,-1.753,4.501,34.0
44.145,-1.652,4.01,35.0
44.104,-1.641,3.752,37.0
44.226,-1.635,3.508,35.0
44.658,-1.643,4.794,39.0
46.572,-1.703,4.73,20.0
46.56,-1.692,4.46,20.0
44.126,-1.594,3.968,39.0
43.971,-1.578,3.7,36.0
44.288,-1.58,3.472,44.0
44.816,-1.591,4.769,42.0
52.716,-1.859,5.304,16.0
46.432,-1.627,4.404,35.0
44.101,-1.536,3.923,45.0
43.842,-1.517,3.647,40.0
44.567,-1.532,3.451,40.0
44.723,-1.529,4.715,20.0
0.0,0.0,0.0,0.0
46.782,-1.579,4.39,20.0
43.914,-1.472,3.863,32.0
43.876,-1.462,3.606,41.0
44.471,-1.472,3.399,42.0
44.491,-1.464,4.646,37.0
46.227,-1.511,4.558,15.0
43.91,-1.426,4.076,21.0
43.788,-1.413,3.807,33.0
43.734,-1.402,3.549,45.0
44.635,-1.421,3.365,31.0
44.625,-1.412,4.612,49.0
43.669,-1.372,4.259,19.0
43.869,-1.369,4.025,33.0
43.775,-1.357,3.758,45.0
44.103,-1.358,3.531,40.0
44.849,-1.371,3.332,37.0
44.666,-1.356,4.567,38.0
43.626,-1.315,4.206,39.0
43.873,-1.313,3.976,36.0
43.657,-1.298,3.699,46.0
43.881,-1.296,3.464,42.0
44.89,-1.317,3.284,17.0
45.089,-1.312,4.557,31.0
43.55,-1.258,4.149,38.0
43.545,-1.249,3.895,39.0
44.03,-1.254,3.679,33.0
43.966,-1.243,3.419,50.0
45.482,-1.277,3.274,20.0
0.0,0.0,0.0,0.0
43.519,-1.203,4.093,38.0
43.699,-1.2,3.856,35.0
43.768,-1.193,3.604,38.0
0.0,0.0,0.0,0.0
45.74,-1.229,3.237,20.0
45.501,-1.212,4.489,24.0
43.503,-1.15,4.038,40.0
43.567,-1.143,3.791,43.0
43.694,-1.138,3.544,45.0
46.648,-1.206,3.513,20.0
45.927,-1.178,3.193,17.0
45.597,-1.159,4.44,3.0
43.309,-1.092,3.965,33.0
43.828,-1.097,3.757,18.0
43.669,-1.085,3.486,42.0
44.928,-1.108,3.325,16.0
51.483,-1.26,3.513,8.0
43.831,-1.062,4.211,36.0
42.983,-1.033,3.878,43.0
43.722,-1.043,3.69,26.0
43.724,-1.035,3.432,18.0
45.089,-1.059,3.278,19.0
51.511,-1.2,3.446,21.0
43.249,-0.997,4.096,29.0
43.089,-0.985,3.83,47.0
43.591,-0.989,3.62,41.0
44.983,-1.013,3.47,24.0
44.931,-1.003,3.205,18.0
51.056,-1.131,3.346,25.0
42.903,-0.94,4.004,41.0
43.349,-0.942,3.793,39.0
42.997,-0.927,3.512,39.0
44.959,-0.961,3.406,31.0
48.546,-1.029,3.396,18.0
51.292,-1.078,3.29,29.0
42.681,-0.887,3.923,42.0
42.822,-0.883,3.686,44.0
42.997,-0.879,3.45,46.0
45.107,-0.914,3.353,22.0
0.0,0.0,0.0,0.0
0.0,0.0,0.0,0.0
42.614,-0.838,3.855,35.0
42.92,-0.837,3.632,40.0
42.949,-0.83,3.383,47.0
48.449,-0.928,3.53,8.0
48.467,-0.921,3.249,18.0
51.885,-0.977,3.177,14.0
42.187,-0.784,3.753,38.0
42.7,-0.786,3.549,40.0
42.892,-0.783,3.314,44.0
48.355,-0.875,3.451,32.0
0.0,0.0,0.0,0.0
61.099,-1.086,3.65,14.0
42.024,-0.736,3.675,53.0
42.646,-0.74,3.48,47.0
42.923,-0.738,3.251,44.0
48.37,-0.824,3.377,32.0
50.017,-0.844,3.201,24.0
61.106,-1.022,3.556,22.0
42.343,-0.698,3.636,47.0
42.718,-0.697,3.419,38.0
42.88,-0.693,3.181,33.0
48.411,-0.776,3.305,35.0
50.653,-0.804,3.162,23.0
61.235,-0.963,3.468,13.0
42.664,-0.66,3.596,41.0
42.701,-0.654,3.349,38.0
48.301,-0.732,3.507,12.0
48.397,-0.727,3.226,36.0
61.521,-0.915,3.743,9.0
73.429,-1.081,4.04,9.0
43.577,-0.631,3.602,19.0
42.186,-0.604,3.24,51.0
48.164,-0.683,3.418,28.0
48.385,-0.679,3.146,28.0
73.729,-1.025,4.365,8.0
81.827,-1.126,4.368,6.0
42.311,-0.572,3.427,23.0
42.474,-0.568,3.192,39.0
48.381,-0.64,3.353,24.0
48.471,-0.634,3.071,25.0
60.727,-0.787,3.494,12.0
81.414,-1.044,4.21,8.0
42.164,-0.53,3.344,41.0
42.458,-0.528,3.119,48.0
48.22,-0.593,3.261,30.0
48.409,-0.589,2.985,12.0
60.531,-0.729,3.38,27.0
81.363,-0.969,4.069,18.0
42.024,-0.49,3.261,40.0
42.501,-0.49,3.049,32.0
48.259,-0.55,3.18,36.0
60.867,-0.686,3.649,10.0
60.58,-0.675,3.278,32.0
81.244,-0.895,3.923,20.0
42.187,-0.455,3.2,39.0
48.036,-0.512,3.363,11.0
48.771,-0.514,3.128,22.0
60.658,-0.631,3.53,28.0
60.554,-0.623,3.171,5.0
85.887,-0.873,3.997,8.0
42.187,-0.419,3.125,42.0
48.004,-0.471,3.275,32.0
48.621,-0.471,3.033,22.0
60.615,-0.58,3.42,28.0
86.0,-0.814,4.352,9.0
80.723,-0.755,3.614,18.0
42.816,-0.39,3.096,18.0
48.363,-0.435,3.213,22.0
60.714,-0.54,3.678,3.0
60.692,-0.532,3.316,11.0
96.073,-0.832,4.689,10.0
95.531,-0.817,4.105,7.0
48.106,-0.4,3.39,13.0
48.203,-0.396,3.115,30.0
80.085,-0.649,4.706,8.0
77.941,-0.623,4.116,7.0
95.989,-0.757,4.507,11.0
95.426,-0.742,3.925,15.0
48.324,-0.365,3.315,25.0
60.102,-0.448,3.771,13.0
60.742,-0.447,3.457,12.0
77.836,-0.564,3.966,6.0
80.749,-0.577,3.642,10.0
190.629,-1.344,7.487,19.0
48.115,-0.328,3.211,35.0
60.708,-0.409,3.696,26.0
60.791,-0.403,3.345,19.0
81.043,-0.529,3.978,5.0
95.328,-0.614,4.122,19.0
190.511,-1.209,7.125,41.0
47.942,-0.294,3.109,39.0
60.613,-0.366,3.575,5.0
77.687,-0.462,4.127,19.0
80.896,-0.473,3.817,17.0
189.807,-1.093,7.846,95.0
190.602,-1.082,6.769,13.0
60.384,-0.33,3.801,17.0
60.659,-0.326,3.463,3.0
77.637,-0.411,3.978,11.0
95.736,-0.498,4.335,13.0
189.96,-0.973,7.49,49.0
206.754,-1.042,6.946,12.0
60.471,-0.292,3.689,10.0
78.435,-0.373,4.326,8.0
80.744,-0.378,3.98,4.0
95.631,-0.439,4.145,12.0
190.541,-0.86,7.146,32.0
206.588,-0.916,6.541,23.0
60.59,-0.257,3.579,10.0
77.776,-0.324,4.138,10.0
81.042,-0.331,3.836,8.0
117.326,-0.471,4.857,18.0
190.572,-0.749,6.772,10.0
205.705,-0.793,6.108,8.0
60.678,-0.223,3.463,17.0
81.429,-0.293,4.17,10.0
81.003,-0.286,3.674,15.0
117.346,-0.406,4.623,30.0
117.518,-0.397,3.943,16.0
119.821,-0.397,3.319,17.0
60.345,-0.189,3.323,20.0
80.905,-0.248,3.981,9.0
95.375,-0.286,4.135,14.0
117.348,-0.345,4.388,34.0
117.497,-0.338,3.707,10.0
119.769,-0.336,3.078,11.0
77.687,-0.205,4.122,13.0
80.813,-0.208,3.813,11.0
117.384,-0.295,4.85,21.0
117.42,-0.288,4.151,29.0
70.17,-0.167,2.069,16.0
119.8,-0.279,2.835,11.0
80.902,-0.176,4.126,14.0
117.362,-0.248,5.297,12.0
117.388,-0.242,4.612,21.0
117.398,-0.235,3.912,26.0
119.797,-0.233,3.293,10.0
114.715,-0.217,2.483,2.0
80.588,-0.141,3.946,12.0
95.373,-0.162,4.11,17.0
117.452,-0.193,4.372,20.0
70.178,-0.111,2.195,9.0
117.504,-0.181,2.987,17.0
112.782,-0.168,2.209,2.0
103.411,-0.14,4.85,3.0
189.88,-0.248,7.791,26.0
117.461,-0.148,4.131,12.0
70.216,-0.085,2.05,8.0
114.648,-0.133,2.675,3.0
112.444,-0.126,1.967,8.0
95.274,-0.095,4.268,6.0
70.139,-0.067,2.73,13.0
70.024,-0.063,2.316,8.0
117.427,-0.102,3.185,27.0
113.938,-0.095,2.423,2.0
117.298,-0.093,1.809,14.0
189.85,-0.128,8.11,19.0
69.995,-0.044,2.579,11.0
70.12,-0.042,2.173,18.0
117.434,-0.067,2.941,19.0
117.325,-0.062,2.25,10.0
111.086,-0.055,1.48,15.0
189.798,-0.075,7.707,30.0
69.924,-0.025,2.43,24.0
70.204,-0.023,2.028,16.0
113.989,-0.034,2.612,9.0
117.295,-0.031,2.003,24.0
111.19,-0.026,1.247,14.0
70.165,-0.01,2.701,21.0
70.052,-0.008,2.286,21.0
117.392,-0.011,3.143,23.0
117.306,-0.008,2.442,7.0
111.151,-0.005,1.663,16.0
111.169,-0.002,1.015,5.0
69.94,0.004,2.544,31.0
70.052,0.005,2.138,23.0
117.448,0.011,2.895,9.0
117.291,0.014,2.194,25.0
111.132,0.015,1.427,20.0
110.758,0.017,0.773,10.0
69.949,0.016,2.396,29.0
70.146,0.017,1.991,12.0
112.699,0.029,2.538,6.0
117.289,0.032,1.942,15.0
111.186,0.032,1.191,17.0
95.744,0.029,0.466,2.0
69.98,0.025,2.247,20.0
117.427,0.044,3.082,20.0
117.322,0.045,2.393,20.0
111.09,0.044,1.603,18.0
111.141,0.045,0.953,8.0
95.434,0.039,0.261,1.0
70.063,0.032,2.101,27.0
117.318,0.055,2.833,4.0
117.327,0.055,2.145,20.0
111.119,0.053,1.368,21.0
110.591,0.053,0.713,6.0
0.0,0.0,0.0,0.0
70.195,0.036,1.955,8.0
117.394,0.061,2.582,7.0
117.396,0.061,1.893,9.0
111.169,0.058,1.131,17.0
95.527,0.049,0.412,3.0
0.0,0.0,0.0,0.0
117.415,0.064,3.019,17.0
117.37,0.063,2.331,20.0
111.171,0.059,1.555,20.0
110.906,0.058,0.892,9.0
92.377,0.048,0.2,1.0
0.0,0.0,0.0,0.0
112.984,0.06,2.661,6.0
117.332,0.061,2.075,20.0
111.181,0.056,1.315,20.0
103.805,0.051,0.609,5.0
0.0,0.0,0.0,0.0
49.935,0.023,-0.291,0.0
117.413,0.056,2.514,12.0
111.13,0.051,1.727,17.0
111.202,0.049,1.078,9.0
95.507,0.041,0.356,5.0
0.0,0.0,0.0,0.0
45.705,0.018,-0.364,2.0
117.338,0.045,2.261,23.0
111.136,0.041,1.489,19.0
110.753,0.038,0.837,9.0
0.0,0.0,0.0,0.0
0.0,0.0,0.0,0.0
44.719,0.012,-0.451,0.0
117.311,0.031,2.009,17.0
111.216,0.026,1.254,15.0
104.014,0.022,0.565,2.0
0.0,0.0,0.0,0.0
49.7,0.007,-0.317,1.0
38.174,0.004,-0.467,0.0
111.138,0.011,1.666,18.0
111.233,0.007,1.016,6.0
95.591,0.003,0.313,5.0
0.0,0.0,0.0,0.0
45.368,-0.001,-0.386,2.0
35.435,-0.002,-0.509,0.0
111.141,-0.011,1.426,17.0
110.732,-0.015,0.774,10.0
0.0,0.0,0.0,0.0
0.0,0.0,0.0,0.0
0.0,0.0,0.0,0.0
33.799,-0.009,-0.558,0.0
111.143,-0.038,1.19,10.0
97.487,-0.037,0.472,1.0
0.0,0.0,0.0,0.0
0.0,0.0,0.0,0.0
37.712,-0.019,-0.483,0.0
0.0,0.0,0.0,0.0
111.24,-0.068,0.956,9.0
95.273,-0.063,0.261,1.0
0.0,0.0,0.0,0.0
44.936,-0.034,-0.407,1.0
0.0,0.0,0.0,0.0
29.345,-0.025,-0.609,0.0
110.681,-0.103,0.715,4.0
0.0,0.0,0.0,0.0
0.0,0.0,0.0,0.0
0.0,0.0,0.0,0.0
0.0,0.0,0.0,0.0
26.868,-0.032,-0.615,0.0
98.871,-0.126,0.431,2.0
0.0,0.0,0.0,0.0
45.494,-0.063,-0.335,1.0
37.495,-0.054,-0.499,0.0
30.457,-0.046,-0.583,0.0
26.281,-0.041,-0.657,0.0
0.0,0.0,0.0,0.0
0.0,0.0,0.0,0.0
45.572,-0.081,-0.431,0.0
34.896,-0.064,-0.538,0.0
28.852,-0.055,-0.614,0.0
24.641,-0.049,-0.668,0.0
0.0,0.0,0.0,0.0
0.0,0.0,0.0,0.0
39.723,-0.088,-0.459,0.0
32.132,-0.073,-0.562,0.0
26.693,-0.063,-0.623,0.0
23.366,-0.057,-0.683,0.0
0.0,0.0,0.0,0.0
45.281,-0.119,-0.353,1.0
0.0,0.0,0.0,0.0
30.407,-0.084,-0.596,0.0
25.841,-0.073,-0.657,0.0
22.145,-0.064,-0.693,0.0
53.442,-0.162,-0.215,0.0
45.113,-0.141,-0.445,0.0
34.582,-0.11,-0.543,0.0
28.252,-0.092,-0.612,0.0
24.359,-0.082,-0.67,0.0
21.709,-0.074,-0.724,0.0
0.0,0.0,0.0,0.0
0.0,0.0,0.0,0.0
31.945,-0.119,-0.568,0.0
26.463,-0.101,-0.628,0.0
23.287,-0.091,-0.689,0.0
20.529,-0.082,-0.728,0.0
45.164,-0.187,-0.368,1.0
0.0,0.0,0.0,0.0
30.225,-0.13,-0.599,0.0
25.452,-0.112,-0.656,0.0
22.188,-0.1,-0.702,0.0
19.686,-0.09,-0.738,0.0
0.0,0.0,0.0,0.0
33.84,-0.163,-0.542,0.0
27.994,-0.138,-0.612,0.0
24.274,-0.122,-0.675,0.0
21.132,-0.108,-0.711,0.0
18.961,-0.099,-0.749,0.0
37.836,-0.203,-0.461,0.0
31.35,-0.171,-0.566,0.0
26.533,-0.148,-0.633,0.0
22.916,-0.13,-0.683,0.0
20.43,-0.118,-0.729,0.0
18.368,-0.108,-0.763,0.0
36.244,-0.219,-0.515,0.0
29.189,-0.179,-0.585,0.0
25.249,-0.158,-0.653,0.0
21.975,-0.139,-0.699,0.0
19.618,-0.127,-0.739,0.0
17.677,-0.116,-0.769,0.0
0.0,0.0,0.0,0.0
28.095,-0.193,-0.619,0.0
24.344,-0.169,-0.678,0.0
21.214,-0.15,-0.717,0.0
19.016,-0.136,-0.754,0.0
17.154,-0.125,-0.78,0.0
31.302,-0.234,-0.567,0.0
26.492,-0.201,-0.635,0.0
22.881,-0.176,-0.682,0.0
20.305,-0.159,-0.726,0.0
18.256,-0.145,-0.759,0.0
16.671,-0.134,-0.791,0.0
0.0,0.0,0.0,0.0
24.981,-0.209,-0.647,0.0
22.106,-0.187,-0.702,0.0
19.587,-0.168,-0.738,0.0
17.577,-0.153,-0.765,0.0
16.044,-0.142,-0.792,0.0
28.023,-0.253,-0.616,0.0
23.943,-0.219,-0.666,0.0
21.146,-0.196,-0.712,0.0
18.972,-0.178,-0.751,0.0
17.114,-0.163,-0.777,0.0
15.687,-0.151,-0.804,0.0
26.441,-0.261,-0.631,0.0
23.075,-0.23,-0.685,0.0
20.428,-0.207,-0.726,0.0
18.358,-0.188,-0.761,0.0
16.605,-0.172,-0.786,0.0
15.162,-0.159,-0.806,0.0
0.0,0.0,0.0,0.0
22.242,-0.241,-0.702,0.0
19.697,-0.216,-0.736,0.0
17.582,-0.195,-0.762,0.0
16.189,-0.182,-0.796,0.0
14.838,-0.169,-0.816,0.0
24.097,-0.28,-0.665,0.0
21.189,-0.249,-0.708,0.0
18.975,-0.225,-0.745,0.0
17.044,-0.205,-0.77,0.0
15.664,-0.191,-0.799,0.0
14.569,-0.179,-0.828,0.0
23.127,-0.29,-0.68,0.0
20.673,-0.262,-0.728,0.0
18.36,-0.235,-0.754,0.0
16.737,-0.217,-0.786,0.0
15.254,-0.2,-0.806,0.0
14.123,-0.187,-0.829,0.0
22.369,-0.301,-0.698,0.0
19.906,-0.271,-0.737,0.0
17.841,-0.246,-0.765,0.0
16.214,-0.226,-0.791,0.0
14.822,-0.208,-0.81,0.0
13.753,-0.196,-0.832,0.0
21.447,-0.31,-0.708,0.0
19.116,-0.279,-0.742,0.0
17.399,-0.257,-0.777,0.0
15.786,-0.235,-0.798,0.0
14.535,-0.219,-0.82,0.0
13.52,-0.206,-0.841,0.0
20.473,-0.317,-0.711,0.0
18.566,-0.29,-0.753,0.0
16.826,-0.265,-0.78,0.0
15.319,-0.244,-0.801,0.0
14.204,-0.229,-0.826,0.0
13.208,-0.215,-0.845,0.0
19.996,-0.33,-0.729,0.0
17.995,-0.3,-0.761,0.0
16.431,-0.276,-0.79,0.0
15.0,-0.255,-0.81,0.0
13.917,-0.239,-0.833,0.0
12.893,-0.223,-0.847,0.0
19.387,-0.341,-0.74,0.0
17.662,-0.313,-0.777,0.0
15.868,-0.284,-0.79,0.0
14.592,-0.264,-0.813,0.0
13.544,-0.247,-0.834,0.0
12.601,-0.232,-0.849,0.0
18.156,-0.339,-0.723,2.0
17.042,-0.321,-0.778,0.0
15.551,-0.295,-0.8,0.0
14.278,-0.274,-0.819,0.0
13.328,-0.258,-0.842,0.0
12.352,-0.241,-0.853,0.0
18.127,-0.358,-0.751,27.0
16.687,-0.333,-0.789,0.0
15.2,-0.306,-0.807,0.0
14.002,-0.284,-0.826,0.0
12.992,-0.266,-0.842,0.0
12.06,-0.249,-0.852,0.0
18.068,-0.378,-0.778,3.0
18.141,-0.382,-0.887,4.0
18.161,-0.386,-0.993,0.0
13.725,-0.294,-0.832,0.0
18.152,-0.393,-1.206,0.0
11.773,-0.257,-0.85,0.0
18.094,-0.399,-0.807,3.0
18.151,-0.404,-0.915,35.0
18.147,-0.407,-1.021,1.0
18.13,-0.41,-1.127,0.0
12.499,-0.285,-0.85,0.0
11.574,-0.266,-0.854,0.0
18.042,-0.419,-0.833,14.0
18.154,-0.426,-0.943,21.0
18.155,-0.429,-1.049,1.0
18.111,-0.432,-1.154,0.0
12.212,-0.293,-0.849,0.0
11.395,-0.276,-0.858,0.0
0.0,0.0,0.0,0.0
18.137,-0.447,-0.97,9.0
18.133,-0.451,-1.075,1.0
18.116,-0.454,-1.181,0.0
11.956,-0.302,-0.849,0.0
11.223,-0.285,-0.862,0.0
18.155,-0.466,-0.892,22.0
18.164,-0.47,-0.998,1.0
13.716,-0.358,-0.833,0.0
12.652,-0.332,-0.843,0.0
11.752,-0.311,-0.852,0.0
11.058,-0.295,-0.866,0.0
18.153,-0.489,-0.918,0.0
14.468,-0.393,-0.816,0.0
13.459,-0.368,-0.837,0.0
12.421,-0.342,-0.845,0.0
11.556,-0.321,-0.854,0.0
10.952,-0.306,-0.873,0.0
21.905,-0.617,-1.139,0.0
14.294,-0.406,-0.826,0.0
13.24,-0.379,-0.841,0.0
12.211,-0.352,-0.848,0.0
11.373,-0.33,-0.856,0.0
10.774,-0.315,-0.874,0.0
15.186,-0.448,-0.81,0.0
13.957,-0.414,-0.825,0.0
12.955,-0.387,-0.841,0.0
11.984,-0.361,-0.848,0.0
11.263,-0.342,-0.863,0.0
10.613,-0.324,-0.875,0.0
14.847,-0.457,-0.811,0.0
13.718,-0.425,-0.829,0.0
12.738,-0.397,-0.844,0.0
11.802,-0.371,-0.851,0.0
11.107,-0.351,-0.865,0.0
10.48,-0.334,-0.877,0.0
14.518,-0.466,-0.812,0.0
13.56,-0.438,-0.837,0.0
12.524,-0.407,-0.845,0.0
11.604,-0.38,-0.851,0.0
10.973,-0.362,-0.869,0.0
10.372,-0.344,-0.882,0.0
14.355,-0.48,-0.821,0.0
13.333,-0.449,-0.84,0.0
12.369,-0.419,-0.85,0.0
11.468,-0.391,-0.856,0.0
10.878,-0.373,-0.875,0.0
10.276,-0.355,-0.886,0.0
14.145,-0.492,-0.826,0.0
13.044,-0.456,-0.837,0.0
12.144,-0.428,-0.849,0.0
11.328,-0.402,-0.859,0.0
10.707,-0.382,-0.874,0.0
10.153,-0.365,-0.888,0.0
13.87,-0.501,-0.826,0.0
12.933,-0.47,-0.845,0.0
11.959,-0.438,-0.851,0.0
11.189,-0.412,-0.862,0.0
10.579,-0.392,-0.876,0.0
10.036,-0.374,-0.889,0.0
13.694,-0.514,-0.832,0.0
12.644,-0.477,-0.841,0.0
11.747,-0.446,-0.849,0.0
11.042,-0.422,-0.863,0.0
10.512,-0.404,-0.882,0.0
9.938,-0.385,-0.891,0.0
13.52,-0.526,-0.836,0.0
12.492,-0.489,-0.844,0.0
11.604,-0.457,-0.851,0.0
10.986,-0.436,-0.87,0.0
10.359,-0.413,-0.881,0.0
9.833,-0.395,-0.893,0.0
13.33,-0.538,-0.839,0.0
12.366,-0.502,-0.849,0.0
11.479,-0.469,-0.854,0.0
10.871,-0.446,-0.873,0.0
10.281,-0.425,-0.885,0.0
9.765,-0.406,-0.897,0.0
13.263,-0.554,-0.848,0.0
12.194,-0.512,-0.85,0.0
11.358,-0.48,-0.857,0.0
10.731,-0.456,-0.872,0.0
10.191,-0.435,-0.887,0.0
9.706,-0.417,-0.901,0.0
13.018,-0.562,-0.845,0.0
12.03,-0.522,-0.85,0.0
11.252,-0.491,-0.859,0.0
10.608,-0.466,-0.872,0.0
10.122,-0.447,-0.891,0.0
9.598,-0.426,-0.9,0.0
12.813,-0.572,-0.843,0.0
11.878,-0.533,-0.85,0.0
11.14,-0.502,-0.861,0.0
10.554,-0.479,-0.878,0.0
10.005,-0.456,-0.89,0.0
9.58,-0.439,-0.907,0.0
12.652,-0.582,-0.844,0.0
11.758,-0.544,-0.852,0.0
11.024,-0.513,-0.862,0.0
10.486,-0.491,-0.881,0.0
9.927,-0.467,-0.891,0.0
9.474,-0.448,-0.905,0.0
12.516,-0.594,-0.846,0.0
11.657,-0.556,-0.854,0.0
10.985,-0.527,-0.868,0.0
10.366,-0.5,-0.88,0.0
9.831,-0.477,-0.891,0.0
9.409,-0.459,-0.907,0.0
12.389,-0.606,-0.847,0.0
11.517,-0.567,-0.853,0.0
10.91,-0.54,-0.871,0.0
10.279,-0.511,-0.88,0.0
9.801,-0.49,-0.896,0.0
9.331,-0.469,-0.907,0.0
12.294,-0.62,-0.85,0.0
11.419,-0.578,-0.855,0.0
10.823,-0.551,-0.872,0.0
10.211,-0.523,-0.882,0.0
9.748,-0.501,-0.898,0.0
9.298,-0.481,-0.91,0.0
12.177,-0.631,-0.851,0.0
11.357,-0.592,-0.858,0.0
10.736,-0.562,-0.873,0.0
10.186,-0.536,-0.887,0.0
9.685,-0.512,-0.899,0.0
9.206,-0.49,-0.908,0.0
12.06,-0.643,-0.851,0.0
11.277,-0.604,-0.86,0.0
10.675,-0.575,-0.875,0.0
10.119,-0.547,-0.888,0.0
9.617,-0.523,-0.899,0.0
9.129,-0.499,-0.906,0.0
11.947,-0.654,-0.85,0.0
11.199,-0.616,-0.861,0.0
10.639,-0.588,-0.878,0.0
10.071,-0.559,-0.89,0.0
9.567,-0.534,-0.9,0.0
9.155,-0.514,-0.914,0.0
11.866,-0.667,-0.852,0.0
11.112,-0.627,-0.861,0.0
10.57,-0.6,-0.879,0.0
10.023,-0.571,-0.892,0.0
9.547,-0.547,-0.904,0.0
9.093,-0.523,-0.913,0.0
11.804,-0.681,-0.854,0.0
11.081,-0.642,-0.864,0.0
10.522,-0.612,-0.881,0.0
9.939,-0.581,-0.889,0.0
9.472,-0.557,-0.902,0.0
9.059,-0.535,-0.914,0.0
11.742,-0.694,-0.855,0.0
11.003,-0.653,-0.864,0.0
10.455,-0.624,-0.88,0.0
9.899,-0.593,-0.891,0.0
9.441,-0.568,-0.903,0.0
9.055,-0.548,-0.918,0.0
11.687,-0.708,-0.856,0.0
11.002,-0.669,-0.869,0.0
10.397,-0.635,-0.88,0.0
9.842,-0.604,-0.89,0.0
9.445,-0.583,-0.908,0.0
8.984,-0.557,-0.915,0.0
11.639,-0.722,-0.858,0.0
10.969,-0.683,-0.871,0.0
10.373,-0.649,-0.882,0.0
9.83,-0.618,-0.893,0.0
9.41,-0.594,-0.908,0.0
8.947,-0.567,-0.914,0.0
11.589,-0.736,-0.858,0.0
10.942,-0.698,-0.872,0.0
10.332,-0.662,-0.882,0.0
9.808,-0.631,-0.894,0.0
9.356,-0.604,-0.906,0.0
8.973,-0.582,-0.92,0.0
11.54,-0.749,-0.859,0.0
10.922,-0.712,-0.874,0.0
10.311,-0.675,-0.884,0.0
9.798,-0.644,-0.896,0.0
9.357,-0.618,-0.909,0.0
8.862,-0.588,-0.911,0.0
11.523,-0.765,-0.861,0.0
10.891,-0.726,-0.875,0.0
10.279,-0.688,-0.884,0.0
9.78,-0.657,-0.897,0.0
9.314,-0.628,-0.907,0.0
8.908,-0.603,-0.918,0.0
11.484,-0.778,-0.861,0.0
10.889,-0.741,-0.877,0.0
10.242,-0.7,-0.883,0.0
9.742,-0.668,-0.896,0.0
9.316,-0.642,-0.91,0.0
8.901,-0.616,-0.92,0.0
11.465,-0.793,-0.861,0.0
10.85,-0.754,-0.876,0.0
10.275,-0.716,-0.888,0.0
9.717,-0.68,-0.895,0.0
9.313,-0.654,-0.911,0.0
8.878,-0.626,-0.919,0.0
11.438,-0.807,-0.861,0.0
10.857,-0.769,-0.878,0.0
10.255,-0.729,-0.888,0.0
9.73,-0.695,-0.898,0.0
9.333,-0.669,-0.914,0.0
8.906,-0.641,-0.923,0.0
11.426,-0.822,-0.862,0.0
10.856,-0.784,-0.88,0.0
10.221,-0.741,-0.886,0.0
9.709,-0.707,-0.897,0.0
9.315,-0.681,-0.913,0.0
8.873,-0.651,-0.92,0.0
11.43,-0.838,-0.863,0.0
10.848,-0.799,-0.88,0.0
10.234,-0.756,-0.887,0.0
9.748,-0.723,-0.901,0.0
9.249,-0.689,-0.907,0.0
8.85,-0.661,-0.918,0.0
11.43,-0.854,-0.863,0.0
10.861,-0.814,-0.881,0.0
10.234,-0.77,-0.887,0.0
9.732,-0.735,-0.9,0.0
9.266,-0.702,-0.909,0.0
8.858,-0.674,-0.919,0.0
11.448,-0.871,-0.864,0.0
10.832,-0.827,-0.878,0.0
10.246,-0.785,-0.888,0.0
9.744,-0.749,-0.9,0.0
9.293,-0.717,-0.911,0.0
8.825,-0.683,-0.915,0.0
11.457,-0.887,-0.864,0.0
10.839,-0.842,-0.878,0.0
10.235,-0.797,-0.886,0.0
9.738,-0.761,-0.899,0.0
9.282,-0.728,-0.909,0.0
8.867,-0.698,-0.918,0.0
11.48,-0.903,-0.865,0.0
10.859,-0.857,-0.879,0.0
10.261,-0.813,-0.888,0.0
9.729,-0.773,-0.897,0.0
9.302,-0.742,-0.91,0.0
8.895,-0.712,-0.92,0.0
11.508,-0.92,-0.865,0.0
10.896,-0.874,-0.88,0.0
10.289,-0.828,-0.888,0.0
9.75,-0.788,-0.897,0.0
9.307,-0.754,-0.909,0.0
8.918,-0.725,-0.921,0.0
11.527,-0.937,-0.865,0.0
10.893,-0.888,-0.878,0.0
10.308,-0.843,-0.888,0.0
9.765,-0.801,-0.897,0.0
9.3,-0.765,-0.906,0.0
8.932,-0.738,-0.92,0.0
11.557,-0.954,-0.864,0.0
10.928,-0.904,-0.878,0.0
10.333,-0.858,-0.888,0.0
9.795,-0.816,-0.897,0.0
9.357,-0.782,-0.909,0.0
8.901,-0.746,-0.915,0.0
11.604,-0.972,-0.865,0.0
10.988,-0.923,-0.88,0.0
10.355,-0.872,-0.887,0.0
9.832,-0.831,-0.898,0.0
9.369,-0.794,-0.908,0.0
8.966,-0.762,-0.919,0.0
11.66,-0.991,-0.865,0.0
11.004,-0.937,-0.878,0.0
10.399,-0.888,-0.887,0.0
9.852,-0.844,-0.896,0.0
9.381,-0.806,-0.906,0.0
8.937,-0.77,-0.913,0.0
11.698,-1.008,-0.864,0.0
11.059,-0.955,-0.878,0.0
10.453,-0.905,-0.888,0.0
9.908,-0.861,-0.898,0.0
9.453,-0.824,-0.909,0.0
9.016,-0.788,-0.917,0.0
11.752,-1.026,-0.864,0.0
11.103,-0.972,-0.877,0.0
10.501,-0.922,-0.888,0.0
9.947,-0.875,-0.897,0.0
9.482,-0.837,-0.908,0.0
9.016,-0.798,-0.913,0.0
11.782,-1.042,-0.861,0.0
11.16,-0.99,-0.877,0.0
10.55,-0.938,-0.887,0.0
9.968,-0.889,-0.895,0.0
9.531,-0.852,-0.908,0.0
9.08,-0.814,-0.916,0.0
11.848,-1.061,-0.86,0.0
11.235,-1.009,-0.878,0.0
10.594,-0.954,-0.886,0.0
10.047,-0.907,-0.897,0.0
9.563,-0.865,-0.907,0.0
9.093,-0.825,-0.912,0.0
11.939,-1.082,-0.861,0.0
11.292,-1.026,-0.876,0.0
10.628,-0.968,-0.883,0.0
10.088,-0.921,-0.895,0.0
9.619,-0.881,-0.907,0.0
9.192,-0.844,-0.918,0.0
11.994,-1.1,-0.858,0.0
11.339,-1.042,-0.874,0.0
10.68,-0.984,-0.882,0.0
10.166,-0.939,-0.896,0.0
9.678,-0.896,-0.907,0.0
9.214,-0.855,-0.914,0.0
12.097,-1.122,-0.859,0.0
11.405,-1.06,-0.872,0.0
10.785,-1.005,-0.884,0.0
10.224,-0.955,-0.896,0.0
9.728,-0.911,-0.906,0.0
9.281,-0.871,-0.915,0.0
12.158,-1.139,-0.856,0.0
11.475,-1.078,-0.871,0.0
10.907,-1.027,-0.888,0.0
10.323,-0.974,-0.898,0.0
9.797,-0.927,-0.906,0.0
9.308,-0.883,-0.912,0.0
12.311,-1.166,-0.859,0.0
11.507,-1.092,-0.866,0.0
10.941,-1.041,-0.883,0.0
10.387,-0.99,-0.897,0.0
9.846,-0.941,-0.904,0.0
9.377,-0.898,-0.912,0.0
12.363,-1.182,-0.854,0.0
11.699,-1.121,-0.872,0.0
11.02,-1.058,-0.882,0.0
10.427,-1.004,-0.893,0.0
9.924,-0.957,-0.904,0.0
9.434,-0.912,-0.911,0.0
12.44,-1.201,-0.851,0.0
11.751,-1.137,-0.868,0.0
11.149,-1.081,-0.884,0.0
10.505,-1.02,-0.892,0.0
10.001,-0.974,-0.904,0.0
9.514,-0.928,-0.912,0.0
12.647,-1.232,-0.855,0.0
11.84,-1.156,-0.865,0.0
11.268,-1.102,-0.885,0.0
10.632,-1.042,-0.894,0.0
10.118,-0.994,-0.907,0.0
9.587,-0.943,-0.911,0.0
12.799,-1.258,-0.856,0.0
11.954,-1.177,-0.864,0.0
11.282,-1.113,-0.877,0.0
10.735,-1.061,-0.894,0.0
10.191,-1.009,-0.905,0.0
9.668,-0.959,-0.911,0.0
12.866,-1.275,-0.85,0.0
12.049,-1.196,-0.861,0.0
11.375,-1.131,-0.875,0.0
10.805,-1.076,-0.891,0.0
10.25,-1.023,-0.901,0.0
9.75,-0.975,-0.911,0.0
13.001,-1.298,-0.848,0.0
12.18,-1.218,-0.86,0.0
11.5,-1.152,-0.875,0.0
10.862,-1.09,-0.887,0.0
10.332,-1.039,-0.9,0.0
9.807,-0.988,-0.908,0.0
13.088,-1.316,-0.842,0.0
12.287,-1.238,-0.857,0.0
11.63,-1.174,-0.875,0.0
11.019,-1.114,-0.89,0.0
10.399,-1.053,-0.896,0.0
9.915,-1.006,-0.909,0.0
13.318,-1.349,-0.845,0.0
12.422,-1.26,-0.855,0.0
11.676,-1.186,-0.867,0.0
11.108,-1.13,-0.887,0.0
10.477,-1.068,-0.893,0.0
10.036,-1.025,-0.91,0.0
13.404,-1.366,-0.838,0.0
12.619,-1.288,-0.857,0.0
11.785,-1.205,-0.865,0.0
11.192,-1.146,-0.883,0.0
10.618,-1.089,-0.895,0.0
10.129,-1.041,-0.909,0.0
13.623,-1.397,-0.839,0.0
12.77,-1.312,-0.855,0.0
11.915,-1.226,-0.863,0.0
11.275,-1.161,-0.878,0.0
10.756,-1.11,-0.896,0.0
10.163,-1.05,-0.902,0.0
13.859,-1.43,-0.84,0.0
12.855,-1.328,-0.848,0.0
12.055,-1.247,-0.861,0.0
11.392,-1.18,-0.876,0.0
10.834,-1.124,-0.892,0.0
10.275,-1.067,-0.902,0.0
14.113,-1.463,-0.841,0.0
13.059,-1.356,-0.849,0.0
12.165,-1.265,-0.856,0.0
11.573,-1.205,-0.878,0.0
11.008,-1.147,-0.895,0.0
10.37,-1.082,-0.899,0.0
14.193,-1.479,-0.831,0.0
13.259,-1.383,-0.848,0.0
12.339,-1.289,-0.856,0.0
11.69,-1.222,-0.875,0.0
11.117,-1.164,-0.892,0.0
10.446,-1.095,-0.895,0.0
14.143,-1.48,-0.814,0.0
13.393,-1.403,-0.843,0.0
12.564,-1.318,-0.858,0.0
11.724,-1.231,-0.865,0.0
11.213,-1.179,-0.888,0.0
10.571,-1.113,-0.894,0.0
14.036,-1.475,-0.793,0.0
13.536,-1.424,-0.837,0.0
12.648,-1.332,-0.85,0.0
11.88,-1.252,-0.864,0.0
11.33,-1.196,-0.885,0.0
10.756,-1.136,-0.898,0.0
13.95,-1.471,-0.773,0.0
13.794,-1.456,-0.838,0.0
12.893,-1.363,-0.852,0.0
12.057,-1.275,-0.863,0.0
11.416,-1.209,-0.879,0.0
10.861,-1.151,-0.895,0.0
13.857,-1.466,-0.752,0.0
13.796,-1.461,-0.823,0.0
13.194,-1.399,-0.857,0.0
12.209,-1.295,-0.86,0.0
11.59,-1.231,-0.879,0.0
11.013,-1.171,-0.895,0.0
13.8,-1.465,-0.733,1.0
13.735,-1.459,-0.803,0.0
13.28,-1.411,-0.848,0.0
12.423,-1.321,-0.861,0.0
11.694,-1.245,-0.873,0.0
11.128,-1.186,-0.891,0.0
13.719,-1.459,-0.713,0.0
13.656,-1.454,-0.783,0.0
13.377,-1.425,-0.838,0.0
12.645,-1.348,-0.862,0.0
11.831,-1.262,-0.87,0.0
11.243,-1.2,-0.887,0.0
13.746,-1.465,-0.698,1.0
13.626,-1.453,-0.765,0.0
13.545,-1.446,-0.833,0.0
12.743,-1.361,-0.853,0.0
11.99,-1.281,-0.867,0.0
11.373,-1.216,-0.884,0.0
