X,Y,Z,Reflectivity
10.144,-0.045,-0.895,0.0
13.939,-0.061,-0.837,0.0
13.042,-0.059,-0.852,0.0
12.083,-0.055,-0.852,0.0
11.371,-0.054,-0.863,0.0
10.828,-0.052,-0.879,0.0
10.305,-0.051,-0.89,0.0
14.287,-0.07,-0.832,0.0
13.379,-0.067,-0.85,0.0
12.407,-0.063,-0.853,0.0
11.569,-0.06,-0.857,0.0
10.973,-0.059,-0.87,0.0
10.456,-0.057,-0.884,0.0
14.622,-0.079,-0.825,0.0
13.712,-0.075,-0.846,0.0
12.677,-0.071,-0.848,0.0
11.824,-0.067,-0.854,0.0
11.192,-0.065,-0.867,0.0
10.639,-0.063,-0.88,0.0
15.048,-0.088,-0.822,0.0
13.912,-0.083,-0.833,0.0
13.102,-0.079,-0.853,0.0
12.169,-0.075,-0.857,0.0
11.409,-0.071,-0.863,0.0
10.86,-0.069,-0.878,0.0
15.377,-0.097,-0.812,0.0
14.295,-0.091,-0.829,0.0
13.444,-0.087,-0.85,0.0
12.467,-0.082,-0.855,0.0
11.63,-0.077,-0.858,0.0
11.04,-0.074,-0.872,0.0
15.795,-0.105,-0.804,0.0
14.718,-0.099,-0.826,0.0
13.706,-0.094,-0.841,0.0
12.888,-0.089,-0.859,0.0
11.917,-0.084,-0.857,0.0
11.276,-0.08,-0.869,0.0
16.447,-0.116,-0.806,0.0
15.103,-0.107,-0.819,0.0
14.107,-0.101,-0.838,0.0
13.163,-0.096,-0.852,0.0
12.26,-0.09,-0.857,0.0
11.492,-0.085,-0.864,0.0
16.884,-0.124,-0.795,0.0
15.535,-0.115,-0.812,0.0
14.441,-0.108,-0.83,0.0
13.513,-0.102,-0.848,0.0
12.621,-0.097,-0.858,0.0
11.725,-0.09,-0.858,0.0
17.236,-0.132,-0.778,0.0
15.848,-0.122,-0.798,0.0
14.817,-0.115,-0.823,0.0
13.789,-0.108,-0.839,0.0
13.031,-0.103,-0.861,0.0
12.035,-0.096,-0.858,0.0
17.799,-0.141,-0.769,0.0
16.508,-0.131,-0.799,0.0
15.296,-0.123,-0.82,0.0
14.242,-0.115,-0.839,0.0
13.266,-0.108,-0.85,0.0
12.392,-0.102,-0.859,0.0
18.563,-0.151,-0.766,0.0
16.906,-0.138,-0.785,0.0
15.684,-0.129,-0.809,0.0
14.549,-0.12,-0.828,0.0
13.698,-0.114,-0.85,0.0
12.77,-0.107,-0.859,0.0
19.221,-0.16,-0.754,0.0
17.498,-0.146,-0.777,0.0
16.171,-0.136,-0.802,0.0
15.009,-0.127,-0.824,0.0
13.965,-0.118,-0.839,0.0
13.132,-0.112,-0.857,0.0
19.963,-0.169,-0.743,0.0
18.281,-0.155,-0.775,0.0
16.79,-0.143,-0.799,0.0
15.441,-0.132,-0.816,0.0
14.347,-0.123,-0.833,0.0
13.513,-0.117,-0.854,0.0
20.875,-0.179,-0.735,0.0
18.872,-0.162,-0.762,0.0
17.202,-0.148,-0.784,0.0
15.853,-0.137,-0.806,0.0
14.783,-0.128,-0.828,0.0
13.803,-0.12,-0.844,0.0
21.681,-0.187,-0.72,0.0
19.591,-0.169,-0.751,0.0
17.763,-0.154,-0.773,0.0
16.454,-0.143,-0.803,0.0
15.266,-0.133,-0.824,0.0
14.107,-0.123,-0.835,0.0
22.674,-0.196,-0.707,0.0
20.39,-0.177,-0.741,0.0
18.473,-0.161,-0.767,0.0
16.971,-0.148,-0.794,0.0
15.708,-0.137,-0.816,0.0
14.568,-0.127,-0.832,0.0
23.575,-0.204,-0.687,0.0
21.298,-0.184,-0.731,0.0
19.231,-0.167,-0.759,0.0
17.429,-0.151,-0.779,0.0
16.182,-0.141,-0.807,0.0
14.971,-0.13,-0.824,0.0
24.907,-0.215,-0.675,0.0
22.281,-0.192,-0.718,0.0
19.995,-0.172,-0.748,0.0
18.225,-0.157,-0.778,0.0
16.778,-0.145,-0.803,0.0
15.466,-0.133,-0.82,0.0
26.326,-0.225,-0.659,0.0
23.542,-0.201,-0.711,0.0
20.761,-0.177,-0.733,0.0
18.841,-0.16,-0.765,0.0
17.231,-0.147,-0.788,0.0
15.899,-0.135,-0.809,0.0
27.773,-0.234,-0.637,0.0
24.446,-0.206,-0.687,0.0
21.703,-0.182,-0.722,0.0
19.579,-0.164,-0.754,0.0
17.896,-0.15,-0.781,0.0
16.569,-0.138,-0.809,0.0
29.506,-0.244,-0.616,0.0
25.554,-0.211,-0.666,0.0
22.569,-0.186,-0.704,0.0
20.337,-0.167,-0.741,0.0
18.548,-0.152,-0.772,0.0
16.954,-0.138,-0.793,0.0
31.216,-0.252,-0.587,0.0
27.122,-0.218,-0.65,0.0
24.016,-0.193,-0.699,0.0
21.294,-0.17,-0.732,0.0
19.237,-0.153,-0.76,0.0
17.486,-0.139,-0.781,0.0
33.825,-0.265,-0.566,0.0
28.637,-0.224,-0.627,0.0
25.06,-0.195,-0.678,0.0
0.0,0.0,0.0,0.0
19.991,-0.154,-0.749,0.0
18.343,-0.141,-0.782,0.0
0.0,0.0,0.0,0.0
30.083,-0.227,-0.596,0.0
26.602,-0.199,-0.664,0.0
23.397,-0.174,-0.707,0.0
20.877,-0.155,-0.738,0.0
18.971,-0.14,-0.769,0.0
39.879,-0.29,-0.502,0.0
0.0,0.0,0.0,0.0
28.031,-0.201,-0.641,0.0
24.479,-0.174,-0.688,0.0
21.706,-0.153,-0.722,0.0
19.716,-0.138,-0.758,0.0
0.0,0.0,0.0,0.0
0.0,0.0,0.0,0.0
29.697,-0.202,-0.618,0.0
25.789,-0.174,-0.672,0.0
22.852,-0.153,-0.713,0.0
20.564,-0.137,-0.748,0.0
0.0,0.0,0.0,0.0
37.502,-0.243,-0.509,0.0
31.352,-0.201,-0.587,0.0
27.508,-0.175,-0.659,0.0
24.065,-0.151,-0.701,0.0
21.387,-0.133,-0.733,0.0
0.0,0.0,0.0,0.0
0.0,0.0,0.0,0.0
34.405,-0.205,-0.572,0.0
28.915,-0.171,-0.632,0.0
25.353,-0.148,-0.685,0.0
22.371,-0.129,-0.72,0.0
0.0,0.0,0.0,0.0
46.444,-0.259,-0.436,1.0
36.178,-0.199,-0.526,0.0
0.0,0.0,0.0,0.0
26.561,-0.142,-0.662,0.0
23.49,-0.123,-0.707,0.0
0.0,0.0,0.0,0.0
0.0,0.0,0.0,0.0
0.0,0.0,0.0,0.0
32.786,-0.161,-0.581,0.0
28.053,-0.135,-0.642,0.0
24.674,-0.117,-0.692,0.0
0.0,0.0,0.0,0.0
53.627,-0.243,-0.282,0.0
0.0,0.0,0.0,0.0
0.0,0.0,0.0,0.0
29.718,-0.126,-0.619,0.0
25.837,-0.107,-0.671,0.0
95.199,-0.386,0.184,1.0
0.0,0.0,0.0,0.0
0.0,0.0,0.0,0.0
0.0,0.0,0.0,0.0
31.814,-0.116,-0.597,0.0
27.392,-0.097,-0.655,0.0
103.236,-0.355,0.413,4.0
0.0,0.0,0.0,0.0
0.0,0.0,0.0,0.0
0.0,0.0,0.0,0.0
35.357,-0.107,-0.591,0.0
28.687,-0.083,-0.627,0.0
111.165,-0.311,0.673,9.0
0.0,0.0,0.0,0.0
0.0,0.0,0.0,0.0
45.068,-0.111,-0.429,1.0
0.0,0.0,0.0,0.0
30.79,-0.069,-0.611,0.0
114.464,-0.242,0.924,100.0
100.247,-0.2,0.293,1.0
0.0,0.0,0.0,0.0
0.0,0.0,0.0,0.0
39.904,-0.065,-0.504,0.0
0.0,0.0,0.0,0.0
117.454,-0.165,1.186,11.0
110.311,-0.141,0.544,4.0
0.0,0.0,0.0,0.0
0.0,0.0,0.0,0.0
44.981,-0.04,-0.479,0.0
35.6,-0.028,-0.563,0.0
111.2,-0.072,1.346,12.0
111.057,-0.058,0.772,12.0
95.557,-0.037,0.171,1.0
0.0,0.0,0.0,0.0
45.658,-0.005,-0.394,1.0
0.0,0.0,0.0,0.0
117.329,0.016,1.657,15.0
111.149,0.03,0.996,7.0
95.608,0.039,0.361,5.0
0.0,0.0,0.0,0.0
0.0,0.0,0.0,0.0
40.434,0.033,-0.478,0.0
117.346,0.112,1.889,15.0
111.145,0.121,1.213,19.0
110.694,0.136,0.635,7.0
0.0,0.0,0.0,0.0
0.0,0.0,0.0,0.0
45.283,0.075,-0.447,1.0
117.455,0.211,2.119,7.0
111.134,0.217,1.431,20.0
110.985,0.233,0.855,9.0
92.824,0.209,0.225,3.0
0.0,0.0,0.0,0.0
49.803,0.127,-0.394,0.0
119.862,0.323,2.399,12.0
119.859,0.342,1.779,21.0
119.687,0.36,1.155,13.0
103.814,0.328,0.454,3.0
0.0,0.0,0.0,0.0
53.092,0.185,-0.317,0.0
119.874,0.435,2.632,58.0
119.872,0.454,2.012,127.0
101.245,0.4,1.174,3.0
104.432,0.429,0.659,9.0
89.238,0.381,0.101,1.0
0.0,0.0,0.0,0.0
119.835,0.55,2.864,16.0
111.148,0.528,2.078,18.0
100.696,0.495,1.36,3.0
110.94,0.563,0.91,18.0
90.825,0.477,0.274,1.0
0.0,0.0,0.0,0.0
111.071,0.619,2.864,28.0
111.074,0.639,2.288,18.0
100.216,0.593,1.543,4.0
111.109,0.677,1.122,6.0
97.633,0.612,0.48,6.0
86.325,0.556,-0.024,0.0
111.064,0.733,3.073,31.0
111.056,0.753,2.497,13.0
99.996,0.696,1.729,7.0
104.875,0.749,1.257,28.0
104.746,0.767,0.71,17.0
85.259,0.639,0.135,6.0
104.754,0.802,3.094,28.0
104.759,0.821,2.549,21.0
104.73,0.84,2.004,26.0
104.745,0.86,1.449,38.0
104.767,0.88,0.904,27.0
91.239,0.783,0.313,3.0
69.808,0.611,2.191,13.0
104.702,0.935,2.74,36.0
104.725,0.956,2.196,36.0
104.75,0.975,1.64,43.0
98.724,0.937,1.03,22.0
98.09,0.95,0.513,9.0
69.707,0.688,2.315,12.0
98.772,0.994,2.765,23.0
98.713,1.012,2.248,17.0
98.668,1.03,1.722,28.0
98.592,1.049,1.207,30.0
98.382,1.066,0.691,13.0
69.826,0.769,2.444,8.0
98.685,1.106,2.939,23.0
98.589,1.124,2.42,26.0
98.546,1.143,1.894,32.0
98.548,1.162,1.38,33.0
98.496,1.181,0.864,25.0
69.886,0.851,2.569,7.0
98.481,1.22,3.106,28.0
98.542,1.24,2.593,34.0
98.518,1.26,2.068,34.0
98.554,1.28,1.552,28.0
98.573,1.3,1.037,34.0
98.269,1.314,3.783,22.0
98.403,1.337,3.273,18.0
98.488,1.358,2.761,31.0
98.591,1.38,2.237,32.0
98.654,1.401,1.722,32.0
98.659,1.422,1.206,26.0
98.239,1.434,3.95,26.0
120.225,1.781,4.205,15.0
98.528,1.481,2.93,17.0
98.607,1.502,2.404,6.0
99.235,1.533,1.9,7.0
91.964,1.441,1.28,33.0
120.471,1.912,5.05,19.0
120.338,1.935,4.413,10.0
120.145,1.957,3.774,20.0
91.935,1.518,2.396,25.0
91.889,1.537,1.914,40.0
91.889,1.557,1.431,42.0
78.735,1.351,3.431,13.0
120.322,2.091,4.612,8.0
91.94,1.617,3.04,19.0
91.795,1.635,2.544,30.0
91.846,1.656,2.063,39.0
91.865,1.677,1.581,35.0
91.493,1.69,4.138,25.0
91.571,1.712,3.659,16.0
91.758,1.736,3.184,29.0
91.806,1.757,2.694,32.0
89.505,1.733,2.156,3.0
87.649,1.717,1.65,6.0
85.426,1.692,4.001,26.0
78.801,1.579,3.276,12.0
85.43,1.731,3.1,13.0
91.84,1.881,2.84,29.0
85.394,1.769,2.191,18.0
85.33,1.786,1.739,33.0
85.291,1.805,4.129,23.0
85.312,1.825,3.679,31.0
78.902,1.705,2.985,18.0
85.284,1.864,2.769,42.0
85.265,1.883,2.319,38.0
85.244,1.901,1.868,38.0
85.313,1.923,4.262,35.0
85.315,1.943,3.81,35.0
85.276,1.962,3.358,16.0
85.261,1.981,2.898,24.0
85.234,2.0,2.447,35.0
85.266,2.022,1.998,34.0
85.122,2.039,4.382,7.0
117.247,2.835,5.413,5.0
85.392,2.085,3.491,8.0
78.85,1.944,2.799,24.0
85.343,2.124,2.578,14.0
119.993,3.016,2.989,24.0
78.833,2.001,4.175,23.0
78.826,2.019,3.756,27.0
78.833,2.038,3.338,34.0
78.827,2.057,2.913,33.0
78.86,2.077,2.497,27.0
78.867,2.097,2.08,31.0
78.786,2.115,4.288,23.0
78.792,2.135,3.87,36.0
78.793,2.153,3.451,35.0
78.816,2.172,3.025,26.0
78.798,2.191,2.606,33.0
78.828,2.21,2.189,31.0
72.917,2.064,4.071,7.0
79.418,2.268,4.012,13.0
79.398,2.286,3.588,9.0
118.117,3.43,4.698,9.0
78.812,2.308,2.717,25.0
78.896,2.329,2.3,26.0
72.149,2.149,4.128,11.0
82.156,2.468,4.263,9.0
65.449,1.981,3.047,11.0
117.983,3.601,4.852,4.0
78.853,2.426,2.823,27.0
211.471,6.562,6.45,16.0
72.089,2.257,4.222,17.0
72.699,2.294,3.869,8.0
72.544,2.306,3.474,20.0
72.504,2.322,3.078,23.0
72.516,2.341,2.691,25.0
72.486,2.357,2.304,25.0
71.341,2.341,4.271,9.0
72.234,2.388,3.937,31.0
72.348,2.41,3.557,18.0
72.377,2.428,3.165,41.0
72.415,2.448,2.78,39.0
72.402,2.466,2.393,36.0
65.682,2.256,4.016,16.0
72.189,2.498,4.027,24.0
72.27,2.518,3.644,28.0
72.366,2.54,3.255,39.0
72.413,2.559,2.87,36.0
72.418,2.578,2.483,33.0
65.704,2.36,4.098,9.0
66.35,2.399,3.783,21.0
66.328,2.414,3.426,29.0
72.47,2.656,3.347,19.0
72.538,2.677,2.962,18.0
190.725,7.088,6.769,20.0
44.916,1.683,2.855,15.0
65.597,2.474,3.817,22.0
0.0,0.0,0.0,0.0
66.223,2.53,3.135,27.0
66.189,2.546,2.779,23.0
190.772,7.39,6.991,20.0
44.937,1.755,2.909,40.0
64.969,2.553,3.855,32.0
64.671,2.558,3.49,5.0
52.776,2.101,2.559,3.0
52.833,2.115,2.278,10.0
66.082,2.663,2.494,24.0
41.068,1.668,2.704,32.0
44.846,1.833,2.711,29.0
65.771,2.705,3.622,41.0
65.425,2.707,3.244,42.0
65.985,2.747,2.916,24.0
66.015,2.765,2.563,29.0
41.332,1.745,2.766,28.0
44.861,1.906,2.76,7.0
65.623,2.804,3.683,34.0
65.962,2.835,3.34,22.0
52.879,2.286,2.393,20.0
66.006,2.871,2.632,18.0
41.099,1.802,2.793,38.0
41.078,1.811,2.57,46.0
52.984,2.349,3.029,4.0
53.004,2.364,2.738,8.0
53.035,2.378,2.453,17.0
52.663,2.375,2.152,23.0
40.868,1.858,2.819,33.0
41.036,1.876,2.608,47.0
52.926,2.433,3.077,10.0
59.502,2.75,3.132,13.0
59.545,2.766,2.812,7.0
52.995,2.476,2.216,6.0
40.818,1.922,2.855,38.0
41.091,1.945,2.651,37.0
52.928,2.518,3.127,8.0
52.744,2.523,2.825,16.0
59.448,2.859,2.862,24.0
59.539,2.878,2.545,13.0
40.763,1.986,2.888,41.0
40.947,2.005,2.679,47.0
41.097,2.022,2.465,38.0
41.851,2.071,2.279,37.0
52.723,2.621,2.586,24.0
59.422,2.969,2.592,17.0
40.658,2.048,2.917,45.0
40.865,2.068,2.709,40.0
41.089,2.09,2.501,28.0
41.774,2.135,2.311,30.0
52.957,2.72,2.642,26.0
59.386,3.065,2.64,18.0
40.741,2.118,2.957,54.0
41.048,2.145,2.755,38.0
40.985,2.152,2.528,41.0
41.706,2.2,2.341,39.0
52.736,2.794,2.673,26.0
52.423,2.791,2.373,33.0
40.627,2.179,2.981,44.0
40.949,2.206,2.781,37.0
41.01,2.219,2.561,39.0
41.424,2.252,2.357,29.0
52.629,2.875,2.708,6.0
53.009,2.909,2.438,21.0
40.924,2.262,3.034,29.0
41.043,2.28,2.818,36.0
41.267,2.302,2.608,16.0
41.861,2.345,2.412,36.0
41.856,2.355,2.184,27.0
91.752,5.187,4.288,11.0
40.685,2.317,3.045,43.0
41.157,2.354,2.855,38.0
41.273,2.371,2.637,23.0
41.588,2.399,2.426,35.0
41.731,2.417,2.206,31.0
91.568,5.328,4.341,11.0
41.24,2.418,3.115,38.0
41.474,2.441,2.905,38.0
42.36,2.503,2.734,17.0
41.525,2.463,2.449,40.0
41.783,2.489,2.235,36.0
52.651,3.149,2.529,3.0
41.388,2.494,3.152,16.0
41.453,2.508,2.929,38.0
42.247,2.565,2.753,16.0
41.537,2.532,2.475,32.0
41.652,2.549,2.253,37.0
90.729,5.575,4.411,11.0
41.804,2.587,3.208,42.0
41.566,2.583,2.961,30.0
41.984,2.618,2.76,14.0
41.572,2.602,2.5,41.0
41.617,2.615,2.274,44.0
52.356,3.303,2.574,28.0
41.894,2.662,3.238,43.0
41.743,2.663,2.996,41.0
41.981,2.688,2.782,21.0
41.579,2.672,2.522,34.0
41.728,2.691,2.302,42.0
52.262,3.384,2.596,41.0
44.768,2.92,3.483,4.0
41.873,2.741,3.027,37.0
41.864,2.749,2.795,24.0
41.622,2.743,2.545,32.0
41.769,2.762,2.324,36.0
52.245,3.468,2.62,39.0
41.92,2.803,3.281,27.0
41.984,2.817,3.054,18.0
42.261,2.845,2.84,30.0
41.646,2.813,2.565,41.0
41.727,2.828,2.34,32.0
52.277,3.556,2.644,24.0
44.57,3.053,3.507,5.0
41.808,2.873,3.058,39.0
42.16,2.907,2.851,22.0
41.704,2.885,2.585,31.0
41.721,2.896,2.356,40.0
52.371,3.648,2.668,18.0
41.619,2.92,3.291,38.0
41.633,2.93,3.061,45.0
52.498,3.706,3.569,6.0
42.055,2.978,2.622,28.0
41.719,2.964,2.37,37.0
80.86,5.763,4.147,22.0
41.508,2.979,3.296,45.0
41.661,2.999,3.077,36.0
41.703,3.011,2.848,35.0
41.989,3.041,2.631,39.0
78.357,5.693,4.476,10.0
81.073,5.909,4.183,20.0
41.615,3.054,3.317,37.0
41.681,3.068,3.09,42.0
41.812,3.086,2.867,42.0
81.813,6.058,5.149,23.0
81.322,6.039,4.666,13.0
72.303,5.385,3.748,5.0
41.884,3.14,3.349,17.0
41.795,3.143,3.109,16.0
41.941,3.163,2.886,42.0
45.993,3.478,2.905,19.0
79.544,6.033,4.582,8.0
71.881,5.467,3.742,7.0
41.569,3.183,3.332,29.0
41.691,3.201,3.11,31.0
41.841,3.221,2.887,45.0
45.913,3.545,2.908,31.0
45.952,3.558,2.655,30.0
45.992,3.571,2.402,14.0
41.555,3.248,3.338,48.0
41.687,3.267,3.116,30.0
41.879,3.29,2.896,38.0
45.885,3.615,2.913,10.0
45.891,3.625,2.658,16.0
45.88,3.634,2.402,15.0
45.616,3.637,3.67,5.0
41.802,3.341,3.129,26.0
41.836,3.352,2.898,40.0
45.752,3.675,2.909,34.0
45.807,3.689,2.657,40.0
45.808,3.699,2.402,40.0
41.419,3.366,3.336,29.0
41.446,3.377,3.105,44.0
41.73,3.408,2.893,36.0
45.723,3.744,2.91,10.0
45.779,3.758,2.658,38.0
45.803,3.769,2.404,40.0
41.383,3.428,3.334,29.0
41.496,3.445,3.111,31.0
41.72,3.472,2.894,32.0
45.758,3.817,2.913,29.0
45.779,3.828,2.659,36.0
45.813,3.84,2.405,36.0
41.488,3.5,3.343,44.0
41.447,3.504,3.107,34.0
41.772,3.54,2.897,20.0
45.764,3.886,2.913,34.0
45.834,3.902,2.661,33.0
45.907,3.917,2.408,25.0
41.603,3.572,3.35,28.0
41.419,3.564,3.103,46.0
41.765,3.601,2.894,16.0
45.871,3.964,2.916,4.0
45.883,3.974,2.66,7.0
78.943,6.853,4.136,23.0
41.555,3.63,3.343,35.0
41.504,3.632,3.105,46.0
41.628,3.651,2.881,37.0
41.908,3.683,2.661,18.0
85.132,7.499,4.927,15.0
84.791,7.484,4.432,19.0
41.541,3.689,3.337,34.0
41.578,3.7,3.105,36.0
41.545,3.704,2.869,48.0
57.823,5.166,3.663,2.0
85.101,7.619,4.913,14.0
84.603,7.59,4.409,32.0
41.424,3.739,3.321,43.0
41.557,3.757,3.097,41.0
41.597,3.768,2.866,39.0
44.669,4.054,2.821,4.0
84.667,7.701,4.872,27.0
85.235,7.768,4.425,41.0
41.5,3.804,3.319,34.0
41.581,3.818,3.09,40.0
44.782,4.119,3.076,16.0
44.66,4.116,2.811,34.0
84.679,7.82,4.853,20.0
84.996,7.864,4.394,39.0
41.714,3.882,3.326,33.0
41.527,3.871,3.076,39.0
0.0,0.0,0.0,0.0
44.726,4.184,2.804,32.0
73.453,6.886,4.19,10.0
85.332,8.014,4.388,22.0
41.696,3.938,3.312,18.0
41.639,3.939,3.072,37.0
0.0,0.0,0.0,0.0
72.694,6.9,4.535,32.0
73.318,6.971,4.161,29.0
91.717,8.737,4.688,13.0
41.666,3.991,3.297,32.0
41.939,4.023,3.081,36.0
43.648,4.194,2.959,20.0
72.922,7.019,4.525,43.0
73.095,7.048,4.122,30.0
73.288,7.079,3.72,9.0
44.283,4.3,3.488,9.0
42.104,4.095,3.078,35.0
43.55,4.242,2.937,18.0
72.766,7.099,4.488,27.0
73.065,7.14,4.094,26.0
88.767,8.689,4.472,12.0
42.058,4.139,3.297,31.0
42.237,4.162,3.07,16.0
43.094,4.253,2.889,16.0
72.945,7.21,4.47,28.0
73.072,7.234,4.064,20.0
88.534,8.778,4.423,29.0
42.037,4.19,3.277,13.0
42.916,4.284,3.101,17.0
43.111,4.309,2.871,34.0
73.198,7.327,4.452,32.0
88.531,8.875,4.884,35.0
88.542,8.89,4.383,37.0
0.0,0.0,0.0,0.0
42.961,4.341,3.084,29.0
43.834,4.435,2.898,20.0
73.288,7.425,4.423,24.0
88.556,8.985,4.843,33.0
88.533,8.995,4.341,25.0
42.886,4.379,3.302,10.0
42.942,4.391,3.061,18.0
44.339,4.539,2.909,28.0
73.324,7.516,4.388,9.0
88.23,9.057,4.778,20.0
88.104,9.056,4.273,17.0
49.575,5.121,3.79,6.0
42.898,4.437,3.035,36.0
44.734,4.632,2.911,4.0
87.843,9.107,5.208,20.0
87.705,9.105,4.702,24.0
87.562,9.102,4.198,19.0
44.242,4.621,3.357,19.0
43.597,4.559,3.059,26.0
44.698,4.679,2.883,4.0
87.284,9.148,5.124,21.0
87.197,9.15,4.624,23.0
87.075,9.149,4.123,25.0
44.427,4.69,3.344,41.0
0.0,0.0,0.0,0.0
42.792,4.527,2.733,32.0
42.814,4.534,2.487,31.0
84.145,8.922,4.409,27.0
84.144,8.932,3.932,42.0
44.487,4.744,3.32,24.0
43.72,4.667,3.014,20.0
42.934,4.588,2.715,17.0
42.799,4.578,2.458,27.0
84.138,9.01,4.354,49.0
84.142,9.021,3.876,47.0
44.408,4.782,3.285,35.0
43.107,4.647,2.943,31.0
42.932,4.632,2.686,28.0
42.772,4.619,2.428,37.0
84.245,9.108,4.302,12.0
84.188,9.112,3.821,19.0
44.387,4.825,3.253,31.0
43.341,4.716,2.928,29.0
42.671,4.647,2.64,28.0
42.864,4.672,2.403,20.0
84.04,9.17,4.232,16.0
84.048,9.18,3.754,23.0
44.661,4.899,3.24,24.0
44.479,4.883,2.973,34.0
42.557,4.675,2.601,38.0
42.777,4.704,2.366,4.0
84.073,9.254,4.172,30.0
84.063,9.262,3.692,27.0
58.31,6.451,4.186,8.0
44.406,4.916,2.934,34.0
42.551,4.714,2.569,29.0
84.059,9.321,4.586,19.0
84.073,9.331,4.107,30.0
84.07,9.339,3.628,26.0
44.785,4.995,3.18,17.0
44.475,4.964,2.904,28.0
42.523,4.749,2.533,16.0
54.797,6.125,2.946,19.0
84.08,9.406,4.04,20.0
84.054,9.412,3.56,10.0
44.409,4.991,3.118,14.0
44.502,5.005,2.869,19.0
83.935,9.447,4.932,17.0
83.866,9.446,4.44,19.0
83.826,9.448,3.96,26.0
83.752,9.448,3.477,3.0
44.458,5.034,3.083,22.0
44.669,5.061,2.842,19.0
83.603,9.478,4.841,20.0
83.549,9.478,4.352,23.0
83.497,9.479,3.872,23.0
81.853,9.299,3.33,2.0
44.55,5.08,3.051,40.0
44.626,5.091,2.801,19.0
83.322,9.511,4.753,15.0
83.213,9.504,4.262,22.0
83.173,9.506,3.785,24.0
81.506,9.322,3.244,4.0
44.668,5.127,3.019,41.0
54.791,6.291,3.39,17.0
54.732,6.288,3.073,10.0
82.892,9.529,4.171,20.0
82.831,9.528,3.694,15.0
81.27,9.354,3.161,10.0
44.713,5.163,2.982,26.0
54.802,6.331,3.341,14.0
54.697,6.322,3.021,14.0
82.607,9.553,4.081,20.0
67.787,7.843,2.962,5.0
67.766,7.846,2.573,8.0
54.999,6.388,3.617,14.0
54.816,6.369,3.291,23.0
67.692,7.869,3.675,8.0
67.647,7.867,3.279,12.0
67.302,7.831,2.877,10.0
66.365,7.726,2.457,20.0
54.706,6.388,3.545,7.0
54.86,6.408,3.24,23.0
66.343,7.752,3.538,16.0
66.32,7.753,3.15,37.0
66.315,7.756,2.77,44.0
66.31,7.76,2.391,56.0
54.111,6.35,3.453,25.0
66.285,7.782,3.85,23.0
66.299,7.786,3.47,57.0
66.302,7.789,3.083,63.0
66.287,7.791,2.703,69.0
66.295,7.796,2.324,70.0
54.48,6.424,3.422,29.0
66.264,7.815,3.782,31.0
66.278,7.819,3.403,65.0
66.286,7.822,3.016,64.0
66.296,7.827,2.637,58.0
66.306,7.831,2.259,50.0
54.187,6.416,3.349,29.0
66.281,7.85,3.715,24.0
66.297,7.854,3.336,44.0
66.303,7.856,2.95,42.0
66.32,7.861,2.57,33.0
66.389,7.872,2.193,27.0
54.093,6.43,3.287,29.0
66.299,7.882,3.647,15.0
66.326,7.887,3.267,30.0
66.391,7.897,2.883,22.0
66.458,7.907,2.505,20.0
66.452,7.909,2.124,17.0
54.319,6.48,3.242,24.0
66.426,7.925,3.584,10.0
66.462,7.93,3.204,17.0
66.417,7.926,2.814,16.0
66.373,7.923,2.432,18.0
66.322,7.92,2.05,16.0
54.386,6.508,3.188,11.0
66.397,7.946,3.51,14.0
66.37,7.943,3.128,15.0
66.304,7.937,2.738,18.0
66.24,7.931,2.355,16.0
66.166,7.924,1.973,17.0
54.389,6.526,3.129,20.0
66.252,7.95,3.431,15.0
66.234,7.948,3.049,14.0
66.177,7.942,2.66,18.0
66.148,7.94,2.279,17.0
66.048,7.93,1.898,17.0
54.35,6.537,3.067,13.0
66.172,7.959,3.354,15.0
66.109,7.951,2.97,14.0
66.056,7.945,2.583,18.0
66.034,7.944,2.203,14.0
65.972,7.938,1.823,16.0
66.113,7.968,3.658,11.0
66.043,7.959,3.273,13.0
66.007,7.954,2.892,14.0
65.963,7.949,2.504,18.0
65.925,7.945,2.125,16.0
65.879,7.941,1.746,16.0
66.039,7.972,3.578,14.0
65.976,7.963,3.196,12.0
65.948,7.96,2.815,15.0
65.915,7.955,2.428,15.0
65.869,7.95,2.048,15.0
65.796,7.942,1.669,15.0
65.983,7.975,3.5,11.0
65.932,7.968,3.118,13.0
65.88,7.96,2.737,14.0
65.837,7.955,2.351,14.0
65.802,7.95,1.972,16.0
65.761,7.946,1.593,17.0
65.92,7.974,3.42,14.0
65.89,7.969,3.04,14.0
65.831,7.961,2.658,15.0
65.817,7.958,2.273,16.0
65.749,7.95,1.894,14.0
65.721,7.946,1.516,16.0
65.902,7.976,3.342,14.0
65.838,7.967,2.96,14.0
65.814,7.962,2.581,16.0
65.781,7.957,2.196,16.0
65.745,7.952,1.817,16.0
65.683,7.944,1.439,14.0
65.891,7.976,3.265,14.0
65.87,7.971,2.885,14.0
65.801,7.961,2.504,16.0
65.777,7.956,2.118,17.0
65.735,7.95,1.74,16.0
65.703,7.945,1.362,15.0
65.885,7.973,3.186,13.0
65.838,7.964,2.806,14.0
65.824,7.96,2.427,15.0
65.776,7.953,2.041,15.0
65.757,7.949,1.664,17.0
65.729,7.944,1.286,15.0
65.911,7.971,3.11,14.0
65.881,7.964,2.729,13.0
65.847,7.957,2.349,14.0
65.802,7.95,1.964,16.0
65.789,7.946,1.585,18.0
65.748,7.94,1.207,15.0
65.938,7.966,3.032,14.0
65.94,7.963,2.653,16.0
65.884,7.953,2.272,15.0
65.877,7.949,1.888,15.0
65.846,7.943,1.509,16.0
65.809,7.937,1.13,16.0
65.999,7.962,2.956,13.0
66.004,7.959,2.577,18.0
65.964,7.951,2.197,15.0
65.926,7.943,1.811,17.0
65.925,7.94,1.433,17.0
65.862,7.93,1.053,15.0
66.096,7.959,2.882,14.0
66.072,7.952,2.501,17.0
66.035,7.944,2.12,15.0
65.997,7.936,1.733,16.0
65.989,7.932,1.355,16.0
65.972,7.928,0.977,14.0
66.161,7.95,2.806,15.0
66.171,7.946,2.426,18.0
66.126,7.937,2.045,16.0
66.096,7.93,1.659,20.0
66.079,7.924,1.279,17.0
66.035,7.917,0.899,14.0
66.288,7.944,2.732,17.0
66.272,7.938,2.351,18.0
66.239,7.93,1.969,16.0
66.201,7.921,1.582,18.0
66.209,7.918,1.203,15.0
66.182,7.912,0.823,14.0
66.404,7.935,2.658,21.0
66.391,7.928,2.276,16.0
66.384,7.922,1.895,12.0
66.329,7.912,1.506,17.0
66.347,7.91,1.126,15.0
66.347,7.907,0.746,15.0
66.462,7.915,2.58,19.0
66.445,7.908,2.199,19.0
66.495,7.908,1.819,14.0
66.482,7.902,1.43,15.0
66.467,7.896,1.049,15.0
66.492,7.895,0.669,14.0
66.334,7.87,2.496,37.0
66.332,7.864,2.115,36.0
66.355,7.861,1.736,29.0
66.379,7.859,1.349,32.0
66.408,7.858,0.969,25.0
66.453,7.859,0.589,25.0
66.29,7.832,2.416,60.0
66.317,7.829,2.037,58.0
66.308,7.823,1.656,54.0
66.315,7.818,1.27,50.0
66.329,7.815,0.89,49.0
66.347,7.812,0.511,46.0
66.295,7.797,2.338,74.0
66.308,7.792,1.958,71.0
66.304,7.786,1.577,74.0
66.317,7.781,1.191,150.0
66.321,7.776,0.811,73.0
66.343,7.774,0.432,82.0
66.315,7.76,2.259,49.0
66.32,7.754,1.88,43.0
66.323,7.748,1.5,50.0
66.328,7.743,1.114,67.0
66.324,7.737,0.733,53.0
66.341,7.733,0.354,60.0
66.501,7.74,2.188,14.0
66.498,7.733,1.807,12.0
66.451,7.721,1.426,17.0
66.45,7.714,1.038,18.0
66.408,7.703,0.657,20.0
66.389,7.696,0.277,21.0
67.805,7.847,2.152,7.0
67.754,7.833,1.762,6.0
67.787,7.83,1.376,7.0
67.739,7.817,0.98,8.0
67.783,7.816,0.593,8.0
67.784,7.81,0.206,9.0
81.394,9.361,2.49,13.0
81.43,9.356,2.025,11.0
81.423,9.346,1.559,11.0
81.404,9.335,1.084,11.0
81.433,9.33,0.619,10.0
81.014,9.274,0.152,14.0
81.707,9.334,2.405,12.0
81.707,9.324,1.938,13.0
81.76,9.321,1.471,10.0
81.725,9.307,0.995,11.0
81.794,9.306,0.527,8.0
80.225,9.12,0.059,11.0
82.02,9.303,2.321,13.0
82.031,9.294,1.852,11.0
82.049,9.286,1.382,11.0
82.069,9.278,0.905,11.0
82.071,9.27,0.436,6.0
67.175,7.58,-0.025,12.0
82.376,9.274,2.238,12.0
82.394,9.264,1.767,11.0
82.414,9.256,1.297,11.0
82.403,9.245,0.816,11.0
79.996,8.966,0.336,10.0
67.337,7.539,-0.101,6.0
82.71,9.237,2.156,11.0
82.746,9.23,1.683,12.0
82.758,9.221,1.212,11.0
82.74,9.208,0.73,9.0
81.188,9.026,0.253,6.0
65.798,7.306,-0.17,6.0
83.077,9.2,2.073,13.0
83.108,9.192,1.599,12.0
83.133,9.184,1.126,11.0
81.122,8.95,0.627,8.0
81.12,8.94,0.164,13.0
45.381,4.996,-0.166,7.0
83.493,9.165,1.994,8.0
83.526,9.156,1.517,9.0
83.54,9.146,1.041,10.0
83.598,9.141,0.557,7.0
80.705,8.814,0.077,14.0
42.689,4.656,-0.202,17.0
83.956,9.13,1.914,7.0
83.975,9.119,1.436,7.0
84.04,9.113,0.958,6.0
84.018,9.1,0.47,9.0
75.938,8.214,-0.007,4.0
40.864,4.415,-0.236,16.0
84.284,9.076,1.835,23.0
84.286,9.063,1.354,21.0
84.287,9.051,0.874,21.0
84.307,9.041,0.385,21.0
70.255,7.524,-0.078,5.0
40.328,4.313,-0.274,16.0
84.148,8.97,1.745,57.0
84.173,8.959,1.266,73.0
84.198,8.948,0.787,150.0
84.151,8.931,0.299,98.0
51.696,5.478,-0.11,3.0
39.865,4.219,-0.312,23.0
84.527,8.914,1.667,10.0
85.205,8.971,1.196,11.0
85.262,8.964,0.712,12.0
85.306,8.956,0.218,13.0
45.511,4.77,-0.142,7.0
39.517,4.136,-0.348,22.0
85.851,8.953,1.609,11.0
85.873,8.94,1.121,12.0
85.893,8.928,0.632,11.0
80.696,8.374,0.126,8.0
43.49,4.506,-0.179,14.0
39.249,4.061,-0.384,13.0
86.348,8.899,1.535,11.0
86.418,8.891,1.045,11.0
86.419,8.876,0.553,12.0
86.46,8.866,0.053,5.0
42.804,4.382,-0.217,17.0
39.119,3.998,-0.42,8.0
86.91,8.848,1.461,12.0
86.987,8.84,0.969,11.0
87.074,8.833,0.475,10.0
45.841,4.642,-0.014,1.0
0.0,0.0,0.0,0.0
39.17,3.953,-0.457,7.0
87.468,8.792,1.389,11.0
87.563,8.785,0.894,11.0
87.547,8.767,0.397,11.0
45.706,4.568,-0.056,8.0
40.437,4.035,-0.28,15.0
39.229,3.907,-0.494,8.0
88.149,8.741,1.32,11.0
88.16,8.726,0.82,11.0
88.224,8.716,0.32,6.0
45.572,4.493,-0.097,20.0
40.04,3.941,-0.312,21.0
39.261,3.858,-0.529,4.0
88.763,8.682,1.252,13.0
88.816,8.669,0.749,10.0
88.829,8.654,0.245,10.0
44.705,4.346,-0.134,20.0
39.714,3.854,-0.344,17.0
34.721,3.363,-0.497,0.0
89.438,8.623,1.185,11.0
89.471,8.607,0.678,12.0
88.139,8.461,0.168,11.0
43.831,4.199,-0.168,18.0
39.542,3.781,-0.375,14.0
34.777,3.319,-0.527,1.0
90.101,8.556,1.119,11.0
90.15,8.542,0.608,11.0
73.411,6.941,0.08,4.0
43.295,4.085,-0.202,18.0
39.477,3.717,-0.407,8.0
35.062,3.295,-0.56,1.0
90.799,8.489,1.053,11.0
90.902,8.479,0.541,10.0
45.556,4.24,0.013,5.0
0.0,0.0,0.0,0.0
39.554,3.665,-0.439,7.0
32.4,2.996,-0.543,1.0
91.584,8.425,0.991,12.0
91.635,8.409,0.474,10.0
45.59,4.174,-0.021,19.0
0.0,0.0,0.0,0.0
39.592,3.608,-0.47,7.0
31.891,2.9,-0.558,1.0
92.335,8.352,0.93,11.0
45.677,4.121,0.202,11.0
45.383,4.085,-0.054,19.0
40.661,3.652,-0.282,16.0
39.655,3.553,-0.499,3.0
31.37,2.804,-0.572,0.0
93.144,8.279,0.871,14.0
93.21,8.264,0.346,5.0
45.19,3.997,-0.086,18.0
40.471,3.57,-0.31,16.0
39.765,3.5,-0.529,0.0
30.678,2.693,-0.581,0.0
45.864,4.003,0.397,17.0
45.722,3.981,0.138,15.0
44.983,3.906,-0.116,19.0
40.269,3.488,-0.335,15.0
36.658,3.167,-0.512,1.0
30.302,2.611,-0.594,0.0
45.762,3.92,0.366,26.0
45.665,3.901,0.108,19.0
44.821,3.819,-0.145,19.0
40.094,3.407,-0.36,9.0
36.487,3.092,-0.533,0.0
29.593,2.501,-0.599,0.0
45.755,3.844,0.337,32.0
45.602,3.82,0.079,19.0
44.649,3.729,-0.173,19.0
40.135,3.342,-0.385,6.0
34.286,2.848,-0.522,1.0
29.16,2.415,-0.608,0.0
45.76,3.767,0.309,35.0
45.61,3.744,0.052,23.0
44.342,3.629,-0.197,19.0
40.222,3.283,-0.409,6.0
33.688,2.742,-0.532,0.0
28.483,2.311,-0.61,0.0
45.814,3.694,0.284,39.0
45.563,3.662,0.027,31.0
43.917,3.519,-0.22,19.0
40.255,3.216,-0.432,6.0
33.343,2.656,-0.545,0.0
28.355,2.252,-0.622,0.0
45.948,3.625,0.26,14.0
45.557,3.582,0.002,20.0
44.131,3.459,-0.245,18.0
40.376,3.155,-0.454,5.0
32.64,2.543,-0.55,0.0
27.435,2.13,-0.616,0.0
97.175,7.494,0.501,4.0
45.729,3.515,-0.019,20.0
44.374,3.399,-0.268,4.0
40.423,3.086,-0.475,2.0
32.2,2.451,-0.558,1.0
27.624,2.096,-0.634,0.0
77.914,5.87,0.365,9.0
45.673,3.429,-0.041,19.0
41.737,3.123,-0.271,16.0
37.789,2.817,-0.461,0.0
31.73,2.358,-0.564,0.0
27.17,2.012,-0.635,0.0
52.224,3.841,0.222,13.0
45.708,3.349,-0.06,20.0
42.189,3.081,-0.292,9.0
37.688,2.743,-0.475,0.0
31.502,2.284,-0.573,0.0
26.723,1.931,-0.636,0.0
52.118,3.738,0.2,14.0
45.784,3.271,-0.079,20.0
42.435,3.02,-0.31,4.0
37.469,2.657,-0.487,1.0
30.991,2.189,-0.576,0.0
26.545,1.868,-0.641,0.0
52.063,3.637,0.181,18.0
45.912,3.194,-0.096,23.0
42.789,2.965,-0.328,4.0
36.932,2.549,-0.493,1.0
30.586,2.103,-0.579,0.0
26.318,1.803,-0.645,0.0
52.012,3.535,0.163,17.0
45.992,3.113,-0.111,20.0
43.446,2.928,-0.347,11.0
37.079,2.489,-0.507,0.0
0.0,0.0,0.0,0.0
26.207,1.745,-0.65,0.0
51.995,3.436,0.148,13.0
45.995,3.026,-0.125,20.0
44.131,2.891,-0.365,8.0
35.842,2.338,-0.5,0.0
30.068,1.953,-0.587,0.0
25.999,1.682,-0.652,0.0
52.052,3.34,0.134,14.0
51.097,3.264,-0.152,5.0
44.769,2.847,-0.382,9.0
35.9,2.272,-0.509,0.0
30.049,1.894,-0.593,0.0
25.647,1.609,-0.649,0.0
52.163,3.246,0.122,23.0
50.957,3.156,-0.162,10.0
45.434,2.801,-0.397,4.0
35.333,2.168,-0.509,0.0
29.368,1.794,-0.586,0.0
25.61,1.557,-0.653,0.0
52.226,3.149,0.113,17.0
50.826,3.049,-0.171,8.0
45.783,2.734,-0.409,2.0
35.492,2.109,-0.517,0.0
29.768,1.76,-0.599,0.0
25.588,1.505,-0.657,0.0
52.554,3.065,0.105,16.0
50.968,2.957,-0.18,4.0
45.581,2.631,-0.413,0.0
35.433,2.035,-0.521,0.0
29.227,1.67,-0.592,0.0
25.555,1.453,-0.659,0.0
52.617,2.965,0.099,10.0
50.846,2.849,-0.184,8.0
42.482,2.368,-0.389,1.0
35.359,1.96,-0.523,0.0
29.562,1.63,-0.601,0.0
25.557,1.402,-0.661,0.0
59.098,3.212,0.107,13.0
50.669,2.738,-0.188,6.0
42.533,2.285,-0.393,1.0
35.343,1.889,-0.525,1.0
29.638,1.575,-0.604,0.0
25.828,1.365,-0.669,0.0
59.114,3.094,0.105,22.0
50.786,2.643,-0.19,5.0
42.574,2.203,-0.394,1.0
0.0,0.0,0.0,0.0
29.624,1.515,-0.604,0.0
25.504,1.296,-0.661,0.0
59.242,2.981,0.104,23.0
51.48,2.574,-0.192,5.0
43.021,2.139,-0.398,2.0
34.753,1.717,-0.517,0.0
29.623,1.455,-0.604,0.0
0.0,0.0,0.0,0.0
65.258,3.153,0.117,9.0
51.987,2.495,-0.192,5.0
43.682,2.083,-0.402,1.0
0.0,0.0,0.0,0.0
0.0,0.0,0.0,0.0
25.569,1.195,-0.66,0.0
65.207,3.017,0.122,9.0
52.767,2.425,-0.191,17.0
44.092,2.013,-0.402,1.0
35.72,1.62,-0.525,0.0
29.511,1.329,-0.597,0.0
25.702,1.149,-0.661,0.0
65.162,2.882,0.129,13.0
53.884,2.366,-0.188,3.0
44.722,1.95,-0.402,1.0
34.876,1.51,-0.508,0.0
29.744,1.278,-0.597,0.0
25.896,1.105,-0.662,0.0
65.319,2.756,0.139,13.0
55.01,2.303,-0.184,3.0
44.764,1.86,-0.395,1.0
35.62,1.469,-0.513,0.0
29.855,1.222,-0.594,0.0
25.797,1.048,-0.655,0.0
65.436,2.627,0.151,19.0
56.161,2.237,-0.177,2.0
44.789,1.769,-0.386,1.0
0.0,0.0,0.0,0.0
30.263,1.177,-0.596,0.0
26.214,1.011,-0.66,0.0
65.626,2.501,0.167,20.0
57.466,2.171,-0.168,2.0
44.796,1.678,-0.376,1.0
36.103,1.341,-0.504,0.0
30.129,1.109,-0.585,0.0
26.17,0.955,-0.652,0.0
65.814,2.372,0.185,8.0
58.723,2.097,-0.155,7.0
46.805,1.657,-0.38,1.0
0.0,0.0,0.0,0.0
30.412,1.056,-0.582,0.0
26.397,0.909,-0.649,0.0
71.232,2.419,0.222,9.0
60.066,2.021,-0.14,4.0
45.602,1.519,-0.355,0.0
37.727,1.244,-0.503,0.0
0.0,0.0,0.0,0.0
26.371,0.852,-0.64,0.0
71.472,2.279,0.247,15.0
61.58,1.944,-0.122,6.0
48.997,1.531,-0.364,1.0
37.907,1.172,-0.492,0.0
0.0,0.0,0.0,0.0
26.759,0.81,-0.639,0.0
71.672,2.138,0.275,13.0
63.077,1.862,-0.101,5.0
0.0,0.0,0.0,0.0
38.468,1.111,-0.484,0.0
31.461,0.898,-0.567,0.0
27.186,0.767,-0.638,0.0
71.921,1.999,0.305,15.0
64.697,1.777,-0.076,7.0
0.0,0.0,0.0,0.0
41.176,1.104,-0.5,0.0
32.447,0.859,-0.571,0.0
27.783,0.727,-0.64,0.0
78.667,2.024,0.37,6.0
66.307,1.683,-0.047,4.0
0.0,0.0,0.0,0.0
0.0,0.0,0.0,0.0
33.177,0.81,-0.567,0.0
28.052,0.675,-0.632,0.0
78.683,1.863,0.409,9.0
68.041,1.588,-0.015,7.0
0.0,0.0,0.0,0.0
0.0,0.0,0.0,0.0
0.0,0.0,0.0,0.0
28.519,0.628,-0.627,0.0
84.858,1.836,0.486,12.0
70.057,1.492,0.022,3.0
0.0,0.0,0.0,0.0
0.0,0.0,0.0,0.0
34.07,0.692,-0.546,0.0
29.082,0.581,-0.623,0.0
85.266,1.672,0.536,16.0
72.025,1.388,0.063,3.0
0.0,0.0,0.0,0.0
0.0,0.0,0.0,0.0
35.009,0.64,-0.54,0.0
29.378,0.527,-0.612,0.0
91.783,1.611,0.633,20.0
74.038,1.274,0.111,3.0
0.0,0.0,0.0,0.0
0.0,0.0,0.0,0.0
35.76,0.58,-0.529,0.0
29.823,0.474,-0.602,0.0
92.041,1.429,0.694,25.0
81.024,1.23,0.174,1.0
0.0,0.0,0.0,0.0
44.0,0.639,-0.384,1.0
0.0,0.0,0.0,0.0
30.582,0.424,-0.597,0.0
98.484,1.329,0.809,24.0
81.045,1.067,0.229,4.0
0.0,0.0,0.0,0.0
46.493,0.582,-0.373,0.0
0.0,0.0,0.0,0.0
30.785,0.365,-0.579,0.0
98.454,1.131,0.879,16.0
85.45,0.954,0.303,5.0
0.0,0.0,0.0,0.0
48.605,0.511,-0.355,0.0
38.06,0.387,-0.482,0.0
32.034,0.316,-0.579,0.0
98.646,0.938,0.954,14.0
85.339,0.784,0.367,5.0
0.0,0.0,0.0,0.0
48.735,0.416,-0.319,0.0
40.006,0.328,-0.476,0.0
0.0,0.0,0.0,0.0
104.878,0.789,1.097,28.0
97.364,0.7,0.496,6.0
0.0,0.0,0.0,0.0
0.0,0.0,0.0,0.0
42.622,0.264,-0.473,0.0
33.735,0.198,-0.555,0.0
111.077,0.615,1.253,6.0
104.279,0.543,0.618,7.0
0.0,0.0,0.0,0.0
0.0,0.0,0.0,0.0
42.788,0.181,-0.438,1.0
34.32,0.134,-0.535,0.0
119.689,0.428,1.453,7.0
110.702,0.36,0.751,6.0
0.0,0.0,0.0,0.0
0.0,0.0,0.0,0.0
45.338,0.104,-0.425,1.0
36.151,0.071,-0.532,0.0
111.14,0.181,1.448,23.0
0.0,0.0,0.0,0.0
95.574,0.095,0.222,2.0
0.0,0.0,0.0,0.0
45.489,0.016,-0.384,2.0
37.495,0.0,-0.517,0.0
111.324,-0.032,1.553,19.0
117.355,-0.072,1.01,12.0
99.344,-0.092,0.324,2.0
0.0,0.0,0.0,0.0
0.0,0.0,0.0,0.0
0.0,0.0,0.0,0.0
113.184,-0.251,1.688,10.0
114.469,-0.29,1.096,16.0
102.902,-0.293,0.436,4.0
0.0,0.0,0.0,0.0
0.0,0.0,0.0,0.0
0.0,0.0,0.0,0.0
114.246,-0.47,1.817,14.0
119.706,-0.531,1.266,17.0
110.805,-0.527,0.581,4.0
0.0,0.0,0.0,0.0
0.0,0.0,0.0,0.0
0.0,0.0,0.0,0.0
115.196,-0.693,1.951,3.0
119.701,-0.757,1.39,18.0
113.885,-0.756,0.716,6.0
0.0,0.0,0.0,0.0
55.237,-0.401,-0.245,0.0
44.485,-0.337,-0.434,0.0
119.736,-0.943,2.154,48.0
119.676,-0.978,1.516,23.0
119.727,-1.017,0.88,9.0
0.0,0.0,0.0,0.0
0.0,0.0,0.0,0.0
0.0,0.0,0.0,0.0
119.745,-1.162,2.283,152.0
119.733,-1.197,1.646,150.0
119.75,-1.235,1.011,24.0
0.0,0.0,0.0,0.0
0.0,0.0,0.0,0.0
47.214,-0.531,-0.357,0.0
0.0,0.0,0.0,0.0
139.248,-1.648,2.073,9.0
139.189,-1.69,1.334,21.0
0.0,0.0,0.0,0.0
0.0,0.0,0.0,0.0
0.0,0.0,0.0,0.0
0.0,0.0,0.0,0.0
204.083,-2.786,3.276,8.0
139.016,-1.939,1.494,9.0
138.816,-1.977,0.742,11.0
0.0,0.0,0.0,0.0
0.0,0.0,0.0,0.0
206.963,-3.13,4.663,6.0
193.877,-2.989,3.342,12.0
0.0,0.0,0.0,0.0
139.02,-2.226,0.91,16.0
0.0,0.0,0.0,0.0
59.274,-0.985,-0.238,0.0
206.46,-3.484,4.901,13.0
193.789,-3.328,3.576,22.0
0.0,0.0,0.0,0.0
139.054,-2.47,1.081,22.0
0.0,0.0,0.0,0.0
0.0,0.0,0.0,0.0
112.94,-2.102,2.822,4.0
193.394,-3.656,3.81,27.0
139.006,-2.669,2.005,6.0
138.974,-2.71,1.257,24.0
0.0,0.0,0.0,0.0
0.0,0.0,0.0,0.0
206.505,-4.198,5.422,9.0
193.921,-3.997,4.068,12.0
138.882,-2.902,2.18,6.0
138.951,-2.944,1.434,12.0
138.81,-2.982,0.702,3.0
0.0,0.0,0.0,0.0
0.0,0.0,0.0,0.0
0.0,0.0,0.0,0.0
193.172,-4.363,3.287,16.0
0.0,0.0,0.0,0.0
138.838,-3.214,0.885,12.0
0.0,0.0,0.0,0.0
118.172,-2.795,3.411,4.0
118.181,-2.828,2.788,18.0
193.17,-4.674,3.539,17.0
0.0,0.0,0.0,0.0
138.884,-3.439,1.069,20.0
0.0,0.0,0.0,0.0
120.859,-3.054,3.651,7.0
118.111,-3.018,2.947,4.0
0.0,0.0,0.0,0.0
138.821,-3.625,1.99,4.0
138.816,-3.661,1.259,23.0
0.0,0.0,0.0,0.0
120.741,-3.245,3.814,20.0
207.436,-5.629,5.46,6.0
195.075,-5.346,4.108,18.0
138.548,-3.835,2.176,9.0
138.583,-3.871,1.448,10.0
138.418,-3.905,0.72,6.0
120.312,-3.422,3.968,10.0
194.199,-5.575,5.385,20.0
194.757,-5.64,4.376,17.0
193.946,-5.668,3.319,5.0
0.0,0.0,0.0,0.0
138.606,-4.126,0.92,9.0
106.032,-3.178,3.648,18.0
193.975,-5.865,5.654,19.0
194.161,-5.921,4.641,25.0
194.24,-5.975,3.605,8.0
0.0,0.0,0.0,0.0
138.691,-4.337,1.119,20.0
120.396,-3.792,4.317,10.0
194.809,-6.186,5.964,9.0
193.969,-6.205,4.919,23.0
193.892,-6.252,3.88,16.0
138.593,-4.504,2.047,7.0
138.636,-4.54,1.322,25.0
101.321,-3.34,3.781,19.0
187.417,-6.225,6.012,41.0
187.448,-6.27,5.028,52.0
187.442,-6.317,4.028,56.0
187.384,-6.362,3.046,14.0
138.612,-4.739,1.527,8.0
101.306,-3.484,3.93,15.0
193.835,-6.715,6.505,23.0
193.175,-6.736,5.469,25.0
193.407,-6.792,4.444,22.0
193.653,-6.847,3.436,8.0
0.0,0.0,0.0,0.0
104.052,-3.724,4.192,23.0
194.742,-7.017,6.826,16.0
193.118,-7.002,5.758,22.0
193.024,-7.045,4.727,24.0
193.746,-7.117,3.73,8.0
138.477,-5.118,1.941,7.0
103.855,-3.86,4.343,24.0
104.524,-3.909,3.824,5.0
193.541,-7.282,6.067,23.0
192.753,-7.297,5.015,25.0
194.658,-7.412,4.046,5.0
138.51,-5.306,2.156,5.0
95.571,-3.681,4.145,13.0
103.861,-4.022,3.96,27.0
193.705,-7.544,6.371,13.0
192.853,-7.552,5.313,16.0
193.139,-7.607,4.313,12.0
193.067,-7.647,3.303,14.0
94.966,-3.779,4.264,15.0
104.177,-4.168,4.133,17.0
104.212,-4.192,3.589,14.0
193.956,-7.842,5.645,21.0
192.851,-7.84,4.607,21.0
192.773,-7.879,3.6,19.0
80.882,-3.322,3.76,25.0
100.21,-4.136,4.133,26.0
104.243,-4.324,3.754,34.0
193.902,-8.084,5.952,24.0
193.136,-8.09,4.918,20.0
193.325,-8.139,3.914,23.0
80.883,-3.42,3.886,29.0
94.693,-4.023,4.055,9.0
104.231,-4.449,3.918,24.0
117.225,-5.027,3.783,12.0
193.372,-8.331,5.231,21.0
194.834,-8.434,4.253,8.0
80.802,-3.513,4.012,36.0
94.249,-4.116,4.187,22.0
100.092,-4.391,3.923,13.0
20.107,-0.885,0.681,2.0
20.139,-0.891,0.577,0.0
194.0,-8.622,4.547,6.0
80.695,-3.601,4.137,26.0
83.563,-3.745,3.846,5.0
94.839,-4.268,3.871,24.0
20.09,-0.907,0.713,13.0
20.111,-0.912,0.608,15.0
20.135,-0.917,0.504,11.0
79.429,-3.635,4.202,22.0
80.669,-3.705,3.845,14.0
85.834,-3.958,3.644,16.0
20.086,-0.929,0.745,12.0
20.087,-0.933,0.641,18.0
20.115,-0.938,0.537,20.0
80.006,-3.748,4.364,22.0
80.533,-3.786,3.972,34.0
83.346,-3.933,3.676,27.0
20.096,-0.951,0.779,6.0
20.1,-0.955,0.674,22.0
20.108,-0.959,0.57,24.0
76.66,-3.671,4.308,9.0
80.129,-3.851,4.085,23.0
83.403,-4.022,3.816,33.0
73.407,-3.552,2.968,10.0
20.071,-0.974,0.707,16.0
20.105,-0.979,0.603,22.0
58.35,-2.854,3.377,22.0
73.417,-3.602,3.865,9.0
83.505,-4.109,3.961,10.0
73.362,-3.622,3.089,40.0
20.079,-0.994,0.74,12.0
20.09,-0.998,0.636,18.0
58.382,-2.912,3.477,30.0
73.467,-3.675,3.992,10.0
73.628,-3.694,3.615,30.0
83.495,-4.201,3.656,39.0
20.044,-1.011,0.773,7.0
19.991,-1.011,0.667,13.0
58.471,-2.971,3.581,33.0
58.883,-2.999,3.298,32.0
79.275,-4.049,4.026,12.0
73.383,-3.759,3.337,18.0
20.072,-1.031,0.808,2.0
20.003,-1.03,0.701,15.0
58.538,-3.026,3.683,33.0
58.683,-3.041,3.386,32.0
20.005,-1.039,1.049,3.0
20.018,-1.042,0.944,4.0
83.901,-4.381,3.519,28.0
20.003,-1.047,0.735,14.0
58.453,-3.071,3.777,33.0
58.449,-3.078,3.471,32.0
19.998,-1.055,1.083,5.0
19.973,-1.056,0.975,17.0
20.035,-1.062,0.874,1.0
20.03,-1.064,0.769,14.0
58.276,-3.108,3.864,27.0
58.607,-3.133,3.579,32.0
58.869,-3.154,3.288,16.0
19.966,-1.071,1.009,17.0
19.979,-1.074,0.905,18.0
20.038,-1.08,0.803,10.0
58.62,-3.172,3.987,33.0
58.359,-3.164,3.663,32.0
58.556,-3.181,3.37,29.0
19.954,-1.086,1.042,16.0
19.983,-1.089,0.939,24.0
20.052,-1.095,0.838,16.0
58.944,-3.232,4.109,15.0
58.33,-3.204,3.761,32.0
58.642,-3.227,3.474,28.0
19.964,-1.1,1.076,10.0
19.947,-1.101,0.971,18.0
19.978,-1.105,0.868,16.0
64.54,-3.583,4.609,12.0
58.53,-3.255,3.873,32.0
58.69,-3.268,3.577,32.0
19.988,-1.115,1.111,3.0
19.961,-1.115,1.006,22.0
19.971,-1.117,0.902,24.0
58.718,-3.297,4.292,13.0
58.684,-3.3,3.982,26.0
58.742,-3.308,3.679,32.0
71.69,-4.043,4.108,14.0
19.966,-1.127,1.04,20.0
19.944,-1.128,0.934,18.0
58.809,-3.338,4.399,18.0
64.484,-3.664,4.485,10.0
58.878,-3.349,3.787,33.0
71.456,-4.07,4.215,15.0
19.971,-1.139,1.074,13.0
19.958,-1.14,0.969,23.0
63.523,-3.641,4.86,20.0
58.934,-3.381,4.2,33.0
59.09,-3.394,3.902,21.0
71.193,-4.094,4.322,12.0
19.997,-1.151,1.109,3.0
19.967,-1.15,1.003,23.0
63.437,-3.669,4.961,35.0
58.77,-3.402,4.287,21.0
59.137,-3.426,4.005,24.0
59.028,-3.423,3.683,33.0
71.428,-4.147,4.082,13.0
19.971,-1.16,1.037,22.0
63.447,-3.699,5.07,29.0
58.831,-3.433,4.392,29.0
58.945,-3.443,4.092,33.0
58.854,-3.439,3.771,33.0
71.527,-4.184,4.21,34.0
19.976,-1.169,1.071,12.0
63.483,-3.73,5.181,20.0
63.494,-3.733,4.848,17.0
58.792,-3.458,4.181,32.0
58.992,-3.472,3.879,30.0
71.165,-4.192,4.307,42.0
71.043,-4.187,3.928,11.0
63.443,-3.752,5.284,31.0
63.456,-3.754,4.951,38.0
58.743,-3.477,4.274,30.0
58.983,-3.493,3.976,33.0
71.007,-4.207,4.415,25.0
71.126,-4.216,4.05,30.0
63.396,-3.771,5.386,38.0
63.514,-3.779,5.062,38.0
58.88,-3.504,4.382,32.0
58.714,-3.496,4.056,33.0
58.829,-3.504,3.755,32.0
71.267,-4.246,4.177,37.0
63.493,-3.796,5.499,35.0
63.477,-3.796,5.164,28.0
58.904,-3.523,4.482,18.0
58.655,-3.509,4.149,33.0
58.878,-3.523,3.855,32.0
71.389,-4.273,4.301,27.0
63.629,-3.821,5.617,38.0
63.406,-3.808,5.263,38.0
63.546,-3.817,4.94,29.0
58.715,-3.526,4.25,27.0
58.915,-3.539,3.955,32.0
58.975,-3.543,3.65,24.0
63.85,-3.849,5.742,46.0
63.425,-3.823,5.369,38.0
63.542,-3.829,5.043,34.0
58.865,-3.547,4.357,27.0
58.818,-3.544,4.044,32.0
58.839,-3.545,3.736,31.0
63.965,-3.868,5.857,36.0
63.546,-3.841,5.483,38.0
63.49,-3.837,5.143,32.0
58.913,-3.559,4.455,16.0
58.638,-3.542,4.126,32.0
58.851,-3.554,3.832,30.0
64.002,-3.879,5.964,27.0
63.593,-3.852,5.59,38.0
63.415,-3.84,5.24,38.0
63.553,-3.847,4.91,30.0
58.698,-3.552,4.225,29.0
58.899,-3.563,3.93,30.0
63.917,-3.88,6.06,13.0
63.803,-3.871,5.711,38.0
63.469,-3.849,5.346,36.0
63.529,-3.85,5.009,34.0
58.841,-3.565,4.329,30.0
58.854,-3.564,4.02,29.0
59.097,-3.591,5.697,29.0
63.912,-3.881,5.823,37.0
63.541,-3.856,5.453,38.0
63.535,-3.853,5.11,38.0
58.881,-3.568,4.425,16.0
58.683,-3.554,4.101,32.0
59.115,-3.593,5.792,33.0
64.004,-3.887,5.931,34.0
63.577,-3.858,5.554,38.0
63.403,-3.845,5.198,38.0
63.6,-3.854,4.877,21.0
58.646,-3.551,4.188,32.0
59.087,-3.59,5.881,34.0
63.948,-3.881,6.025,22.0
63.762,-3.867,5.67,38.0
63.449,-3.844,5.299,37.0
63.555,-3.848,4.972,36.0
58.767,-3.555,4.287,24.0
59.125,-3.588,5.977,29.0
59.064,-3.581,5.656,29.0
63.877,-3.869,5.777,38.0
63.44,-3.838,5.394,38.0
63.541,-3.841,5.067,33.0
58.898,-3.557,4.385,21.0
59.538,-3.607,6.108,35.0
59.056,-3.574,5.744,33.0
63.982,-3.867,5.883,34.0
63.55,-3.837,5.499,39.0
63.462,-3.828,5.154,32.0
58.927,-3.55,4.474,12.0
59.375,-3.589,6.18,34.0
59.217,-3.575,5.848,33.0
63.982,-3.857,5.977,34.0
63.634,-3.831,5.6,38.0
63.402,-3.813,5.242,37.0
63.54,-3.817,4.917,21.0
59.137,-3.564,6.242,29.0
59.086,-3.556,5.921,32.0
63.858,-3.837,6.059,16.0
63.852,-3.832,5.711,39.0
63.445,-3.803,5.337,35.0
63.514,-3.801,5.006,34.0
59.009,-3.544,6.314,29.0
59.208,-3.55,6.019,33.0
59.119,-3.539,5.694,33.0
63.928,-3.821,5.809,39.0
63.391,-3.784,5.423,37.0
63.498,-3.784,5.094,26.0
58.986,-3.527,6.396,26.0
59.167,-3.532,6.098,33.0
59.112,-3.523,5.776,33.0
63.956,-3.805,5.902,34.0
63.491,-3.772,5.52,37.0
63.47,-3.764,5.18,17.0
59.081,-3.515,6.489,34.0
58.694,-3.486,6.132,34.0
58.864,-3.49,5.834,33.0
59.451,-3.518,5.568,24.0
63.551,-3.755,5.613,37.0
63.442,-3.742,5.265,34.0
58.895,-3.485,6.55,34.0
59.159,-3.494,6.261,33.0
58.755,-3.463,5.904,33.0
59.348,-3.491,5.64,30.0
63.888,-3.751,5.729,38.0
63.352,-3.713,5.343,34.0
58.837,-3.459,6.624,34.0
58.985,-3.461,6.322,33.0
58.804,-3.444,5.987,33.0
59.116,-3.455,5.696,34.0
64.06,-3.736,5.829,9.0
63.364,-3.688,5.428,32.0
58.788,-3.433,6.696,34.0
58.774,-3.424,6.378,33.0
58.327,-3.391,6.015,32.0
58.442,-3.39,5.707,33.0
59.262,-3.43,5.47,32.0
63.32,-3.658,5.505,36.0
58.828,-3.409,6.778,34.0
58.787,-3.399,6.455,33.0
58.222,-3.358,6.079,31.0
58.155,-3.347,5.754,31.0
59.289,-3.405,5.547,32.0
63.254,-3.624,5.579,34.0
58.932,-3.387,6.864,28.0
58.697,-3.366,6.519,33.0
58.371,-3.339,6.167,32.0
58.253,-3.324,5.835,32.0
59.12,-3.365,5.604,33.0
63.017,-3.579,5.635,38.0
58.949,-3.358,6.939,34.0
58.539,-3.326,6.574,30.0
58.638,-3.323,6.268,33.0
58.379,-3.3,5.92,33.0
58.702,-3.31,5.636,32.0
59.059,-3.322,5.353,33.0
64.973,-3.665,7.728,16.0
58.274,-3.279,6.614,14.0
59.076,-3.315,6.386,33.0
58.33,-3.264,5.984,32.0
58.109,-3.244,5.647,31.0
58.566,-3.261,5.376,33.0
64.881,-3.623,7.793,23.0
58.294,-3.246,6.685,11.0
59.264,-3.291,6.474,34.0
58.193,-3.222,6.037,32.0
58.026,-3.205,5.705,31.0
57.752,-3.181,5.367,34.0
58.158,-3.212,7.052,24.0
52.134,-2.871,6.038,26.0
58.883,-3.233,6.5,33.0
58.272,-3.191,6.11,32.0
58.071,-3.171,5.775,31.0
57.452,-3.127,5.403,31.0
58.099,-3.172,7.11,14.0
52.101,-2.835,6.092,20.0
58.669,-3.183,6.54,15.0
58.472,-3.163,6.195,33.0
58.194,-3.139,5.85,31.0
56.88,-3.058,5.41,29.0
52.176,-2.813,6.441,27.0
51.973,-2.793,6.133,34.0
52.042,-2.788,5.857,24.0
58.742,-3.137,6.285,33.0
58.424,-3.111,5.934,32.0
56.845,-3.017,5.466,27.0
51.843,-2.758,6.455,26.0
51.97,-2.756,6.186,23.0
52.012,-2.749,5.907,28.0
58.386,-3.076,6.307,33.0
0.0,0.0,0.0,0.0
56.99,-2.983,5.537,24.0
51.879,-2.722,6.512,26.0
52.1,-2.724,6.254,26.0
52.073,-2.714,5.966,26.0
58.185,-3.022,6.342,32.0
56.744,-2.937,5.876,17.0
56.832,-2.932,5.576,30.0
52.049,-2.692,6.583,28.0
52.208,-2.691,6.317,26.0
52.052,-2.673,6.013,21.0
52.058,-2.664,5.724,22.0
0.0,0.0,0.0,0.0
56.754,-2.884,5.621,27.0
51.854,-2.641,6.607,34.0
52.064,-2.642,6.348,33.0
51.927,-2.624,6.046,25.0
52.073,-2.623,5.773,26.0
58.27,-2.924,6.141,30.0
56.676,-2.833,5.664,31.0
51.529,-2.582,6.612,26.0
52.056,-2.599,6.393,36.0
51.891,-2.58,6.088,25.0
51.931,-2.572,5.802,26.0
58.201,-2.872,6.184,24.0
56.518,-2.779,5.697,13.0
51.248,-2.525,6.62,34.0
51.983,-2.551,6.428,30.0
51.98,-2.541,6.142,25.0
51.936,-2.528,5.846,31.0
58.676,-2.846,6.283,28.0
56.466,-2.728,5.737,8.0
51.318,-2.483,6.672,37.0
51.974,-2.505,6.469,27.0
51.701,-2.482,6.15,26.0
51.887,-2.48,5.882,23.0
52.355,-2.493,5.647,12.0
46.88,-2.223,4.799,44.0
51.21,-2.433,6.697,32.0
51.689,-2.445,6.474,27.0
51.592,-2.43,6.177,25.0
51.93,-2.436,5.925,24.0
52.792,-2.466,5.733,26.0
46.944,-2.184,4.84,32.0
51.201,-2.386,6.734,24.0
51.597,-2.393,6.5,26.0
51.868,-2.396,6.247,26.0
51.931,-2.388,5.962,26.0
52.248,-2.392,5.711,25.0
46.968,-2.142,4.875,28.0
51.164,-2.336,6.765,7.0
51.244,-2.33,6.49,25.0
51.628,-2.337,6.253,26.0
51.906,-2.338,5.994,26.0
51.868,-2.326,5.703,25.0
46.958,-2.097,4.905,41.0
44.825,-2.004,5.956,35.0
51.276,-2.282,6.528,23.0
51.349,-2.274,6.252,22.0
51.822,-2.284,6.017,26.0
51.733,-2.27,5.721,39.0
46.853,-2.047,4.922,38.0
44.508,-1.946,5.941,32.0
51.146,-2.226,6.542,6.0
44.89,-1.944,5.492,31.0
51.732,-2.229,6.037,26.0
51.779,-2.221,5.756,35.0
46.878,-2.001,4.952,38.0
44.558,-1.904,5.973,24.0
44.705,-1.9,5.744,26.0
51.307,-2.17,6.306,5.0
51.843,-2.182,6.078,20.0
51.775,-2.168,5.783,36.0
46.906,-1.954,4.98,43.0
44.431,-1.853,5.98,36.0
44.406,-1.843,5.728,36.0
44.938,-1.854,5.546,38.0
45.019,-1.849,5.301,34.0
51.802,-2.116,5.812,17.0
52.709,-2.143,5.621,33.0
44.273,-1.8,5.981,41.0
44.501,-1.8,5.762,35.0
45.098,-1.814,5.587,27.0
44.988,-1.801,5.318,34.0
44.971,-1.79,5.066,33.0
52.834,-2.092,5.658,26.0
44.187,-1.75,5.989,43.0
44.265,-1.744,5.751,35.0
44.949,-1.761,5.588,29.0
44.843,-1.747,5.32,41.0
44.922,-1.74,5.079,34.0
52.217,-2.013,5.613,26.0
44.338,-1.709,6.027,37.0
44.372,-1.7,5.782,36.0
45.016,-1.715,5.613,27.0
44.967,-1.704,5.351,19.0
44.796,-1.688,5.081,32.0
51.56,-1.931,5.561,4.0
44.415,-1.664,6.053,36.0
44.4,-1.654,5.801,38.0
44.946,-1.664,5.62,31.0
45.007,-1.657,5.371,28.0
44.82,-1.64,5.098,35.0
44.618,-1.623,4.826,40.0
44.584,-1.621,6.09,30.0
44.239,-1.599,5.793,40.0
44.859,-1.612,5.622,36.0
44.709,-1.596,5.348,18.0
44.845,-1.592,5.113,46.0
44.627,-1.574,4.839,37.0
44.664,-1.574,6.113,33.0
44.179,-1.547,5.797,38.0
45.272,-1.576,5.685,26.0
44.672,-1.545,5.354,31.0
44.868,-1.542,5.126,40.0
44.535,-1.521,4.839,34.0
44.872,-1.531,6.151,20.0
44.302,-1.501,5.822,33.0
45.231,-1.523,5.689,24.0
44.676,-1.495,5.363,43.0
44.926,-1.494,5.141,33.0
44.369,-1.466,4.828,27.0
44.935,-1.482,6.167,27.0
44.407,-1.455,5.843,19.0
53.317,-1.736,6.714,10.0
44.597,-1.442,5.36,44.0
44.397,-1.426,5.086,20.0
44.07,-1.406,4.802,34.0
44.307,-1.411,6.087,28.0
44.671,-1.413,5.883,17.0
44.687,-1.403,5.633,19.0
43.858,-1.368,5.276,43.0
43.714,-1.354,5.012,29.0
43.845,-1.349,4.781,43.0
44.452,-1.364,6.11,33.0
44.668,-1.361,5.886,19.0
44.602,-1.349,5.625,33.0
43.932,-1.319,5.287,28.0
43.741,-1.304,5.017,37.0
43.774,-1.296,4.775,45.0
44.374,-1.31,6.101,36.0
52.353,-1.535,6.9,13.0
44.493,-1.294,5.612,37.0
44.005,-1.27,5.296,19.0
43.684,-1.252,5.011,37.0
43.774,-1.246,4.775,44.0
44.606,-1.265,6.132,20.0
44.942,-1.265,5.923,20.0
44.445,-1.241,5.604,38.0
44.281,-1.227,5.328,19.0
43.735,-1.203,5.015,37.0
43.792,-1.195,4.774,39.0
44.158,-1.201,6.068,25.0
45.2,-1.219,5.953,40.0
44.499,-1.191,5.608,20.0
44.432,-1.179,5.342,22.0
44.042,-1.159,5.046,30.0
43.64,-1.14,4.753,47.0
44.264,-1.151,6.078,28.0
44.997,-1.161,5.921,20.0
44.53,-1.138,5.606,36.0
50.239,-1.274,6.034,17.0
50.399,-1.268,5.768,16.0
43.644,-1.089,4.747,44.0
44.487,-1.104,6.101,20.0
44.732,-1.1,5.879,19.0
44.58,-1.087,5.605,34.0
50.012,-1.21,5.998,19.0
44.632,-1.07,5.099,19.0
43.326,-1.03,4.705,44.0
44.248,-1.046,6.06,37.0
45.304,-1.061,5.945,20.0
48.031,-1.115,6.029,8.0
50.076,-1.152,5.995,19.0
44.918,-1.024,5.122,19.0
43.279,-0.978,4.689,35.0
44.188,-0.992,6.041,38.0
52.771,-1.174,6.912,7.0
47.968,-1.057,6.008,12.0
50.247,-1.096,6.002,5.0
44.998,-0.973,5.118,21.0
43.404,-0.93,4.69,36.0
44.532,-0.947,6.075,22.0
45.302,-0.954,5.92,20.0
44.54,-0.929,5.565,24.0
44.695,-0.923,5.324,19.0
0.0,0.0,0.0,0.0
43.316,-0.877,4.667,29.0
55.412,-1.113,7.54,11.0
44.934,-0.894,5.856,20.0
48.037,-0.946,5.985,5.0
48.61,-0.947,5.773,4.0
44.136,-0.851,4.99,18.0
43.34,-0.827,4.653,40.0
43.906,-0.831,5.957,39.0
45.627,-0.854,5.928,21.0
44.391,-0.822,5.513,25.0
48.438,-0.888,5.733,9.0
44.246,-0.802,4.984,21.0
43.407,-0.778,4.642,44.0
43.889,-0.779,5.936,53.0
45.681,-0.802,5.915,21.0
44.397,-0.77,5.494,40.0
48.469,-0.831,5.715,15.0
43.929,-0.745,4.928,28.0
43.371,-0.727,4.618,32.0
43.397,-0.719,5.849,19.0
45.372,-0.743,5.853,21.0
44.643,-0.723,5.502,14.0
41.54,-0.664,4.877,28.0
43.895,-0.694,4.902,24.0
43.245,-0.675,4.583,39.0
43.21,-0.666,5.801,19.0
44.365,-0.675,5.7,19.0
41.422,-0.623,5.083,26.0
48.439,-0.719,5.661,6.0
41.368,-0.607,4.597,36.0
0.0,0.0,0.0,0.0
42.936,-0.612,5.74,35.0
44.261,-0.623,5.661,18.0
41.367,-0.574,5.052,38.0
41.169,-0.564,4.787,34.0
41.313,-0.558,4.566,27.0
0.0,0.0,0.0,0.0
43.051,-0.564,5.728,39.0
41.284,-0.534,5.254,19.0
41.369,-0.527,5.026,29.0
41.159,-0.517,4.76,25.0
41.246,-0.51,4.532,37.0
41.504,-0.506,4.323,37.0
43.346,-0.518,5.738,45.0
41.252,-0.485,5.222,17.0
41.362,-0.479,4.997,26.0
