X,Y,Z,Reflectivity
71.085,-3.685,3.372,30.0
83.621,-4.308,3.493,36.0
20.001,-1.023,0.72,11.0
20.062,-1.02,0.608,15.0
20.119,-1.016,0.496,20.0
79.501,-4.005,4.168,17.0
83.413,-4.174,3.9,14.0
73.389,-3.648,3.015,28.0
20.063,-0.99,0.708,16.0
20.105,-0.986,0.596,24.0
20.13,-0.981,0.482,22.0
80.006,-3.886,4.138,22.0
83.428,-4.023,3.84,26.0
85.287,-4.085,3.442,20.0
20.072,-0.954,0.694,19.0
20.105,-0.949,0.581,18.0
20.152,-0.945,0.468,14.0
80.388,-3.757,4.097,30.0
85.742,-3.979,3.882,12.0
95.063,-4.38,3.763,33.0
20.098,-0.919,0.679,14.0
20.135,-0.914,0.566,2.0
0.0,0.0,0.0,0.0
80.754,-3.628,4.051,41.0
94.246,-4.203,4.191,21.0
100.076,-4.43,3.881,10.0
117.174,-5.15,3.867,21.0
193.426,-8.44,5.285,24.0
193.775,-8.393,4.195,10.0
80.883,-3.488,3.99,38.0
94.583,-4.047,4.127,12.0
104.235,-4.425,3.954,18.0
193.832,-8.168,6.232,19.0
192.99,-8.072,5.107,25.0
193.544,-8.033,4.021,21.0
80.969,-3.345,3.923,34.0
97.23,-3.985,4.157,6.0
104.083,-4.232,3.856,32.0
194.003,-7.827,6.064,24.0
192.777,-7.716,4.929,25.0
193.68,-7.69,3.85,6.0
81.263,-3.21,3.863,37.0
103.768,-4.066,4.34,22.0
104.57,-4.063,3.777,6.0
193.451,-7.455,5.866,22.0
192.718,-7.367,4.746,29.0
193.507,-7.336,3.663,7.0
94.268,-3.553,4.39,14.0
103.851,-3.882,4.244,22.0
194.664,-7.215,6.844,11.0
193.093,-7.095,5.666,25.0
193.385,-7.046,4.572,22.0
0.0,0.0,0.0,0.0
94.226,-3.384,4.295,27.0
101.417,-3.61,4.042,9.0
193.81,-6.84,6.62,18.0
193.274,-6.76,5.478,20.0
187.429,-6.497,4.242,28.0
187.484,-6.438,3.173,38.0
94.241,-3.216,4.197,14.0
101.137,-3.42,3.926,30.0
194.721,-6.525,6.446,7.0
194.116,-6.446,5.298,9.0
194.045,-6.386,4.189,23.0
193.182,-6.298,3.067,13.0
101.224,-3.277,4.4,7.0
101.703,-3.262,3.84,28.0
206.165,-6.548,6.604,7.0
194.0,-6.101,5.085,28.0
194.433,-6.055,3.984,19.0
138.697,-4.278,2.05,9.0
94.541,-2.895,4.005,13.0
106.012,-3.214,3.884,9.0
205.211,-6.158,6.343,17.0
194.428,-5.778,4.88,24.0
194.42,-5.719,3.767,21.0
138.511,-4.034,1.892,10.0
94.478,-2.729,3.895,14.0
120.202,-3.437,4.267,21.0
0.0,0.0,0.0,0.0
205.749,-5.758,4.924,6.0
194.959,-5.4,3.552,5.0
0.0,0.0,0.0,0.0
106.485,-2.895,4.266,16.0
120.64,-3.243,4.14,18.0
207.488,-5.515,5.931,7.0
0.0,0.0,0.0,0.0
193.272,-5.025,3.292,14.0
0.0,0.0,0.0,0.0
96.579,-2.459,3.75,10.0
120.765,-3.041,3.998,12.0
118.207,-2.942,3.235,12.0
0.0,0.0,0.0,0.0
192.993,-4.69,3.048,5.0
138.877,-3.334,1.397,15.0
106.486,-2.532,4.003,6.0
112.663,-2.645,3.587,19.0
0.0,0.0,0.0,0.0
193.973,-4.445,3.932,15.0
138.86,-3.142,2.018,7.0
138.923,-3.103,1.221,25.0
113.33,-2.504,4.114,24.0
112.552,-2.455,3.439,32.0
205.608,-4.428,5.102,8.0
193.714,-4.119,3.677,28.0
139.003,-2.917,1.841,2.0
138.977,-2.877,1.043,21.0
112.644,-2.305,3.943,23.0
112.831,-2.277,3.3,23.0
205.604,-4.089,4.83,22.0
193.063,-3.786,3.407,24.0
0.0,0.0,0.0,0.0
138.957,-2.65,0.858,14.0
112.541,-2.118,3.786,25.0
112.606,-2.088,3.14,27.0
206.459,-3.773,4.573,11.0
193.411,-3.483,3.152,16.0
139.169,-2.469,1.47,10.0
139.063,-2.429,0.669,3.0
112.847,-1.943,3.641,2.0
112.551,-1.906,2.983,19.0
0.0,0.0,0.0,0.0
139.105,-2.282,2.074,10.0
138.916,-2.242,1.272,17.0
0.0,0.0,0.0,0.0
209.91,-3.279,6.477,6.0
113.16,-1.738,2.84,5.0
194.712,-2.937,3.765,14.0
138.956,-2.058,1.872,8.0
138.874,-2.021,1.073,24.0
0.0,0.0,0.0,0.0
0.0,0.0,0.0,0.0
206.745,-2.847,4.886,10.0
204.407,-2.764,3.656,16.0
0.0,0.0,0.0,0.0
139.184,-1.808,0.871,8.0
0.0,0.0,0.0,0.0
9.756,-0.442,-0.897,0.0
9.417,-0.428,-0.916,0.0
8.92,-0.407,-0.916,0.0
8.481,-0.388,-0.917,0.0
8.205,-0.376,-0.932,0.0
7.89,-0.363,-0.938,0.0
9.848,-0.452,-0.893,0.0
9.461,-0.435,-0.908,0.0
9.005,-0.415,-0.913,0.0
0.0,0.0,0.0,0.0
8.322,-0.386,-0.934,0.0
7.949,-0.37,-0.935,0.0
9.996,-0.464,-0.893,0.0
9.525,-0.443,-0.902,0.0
9.072,-0.423,-0.908,0.0
0.0,0.0,0.0,0.0
8.335,-0.391,-0.924,0.0
8.06,-0.379,-0.937,0.0
10.125,-0.475,-0.891,0.0
9.663,-0.454,-0.902,0.0
9.225,-0.435,-0.911,0.0
8.827,-0.417,-0.92,0.0
8.511,-0.403,-0.932,0.0
8.119,-0.386,-0.933,0.0
10.214,-0.484,-0.885,0.0
9.754,-0.463,-0.897,0.0
9.397,-0.447,-0.915,0.0
8.953,-0.427,-0.92,0.0
8.56,-0.409,-0.926,0.0
8.226,-0.394,-0.934,0.0
10.348,-0.494,-0.882,0.0
9.862,-0.472,-0.894,0.0
9.519,-0.457,-0.913,0.0
9.008,-0.433,-0.913,0.0
8.604,-0.415,-0.918,0.0
8.345,-0.403,-0.936,0.0
10.5,-0.506,-0.881,0.0
10.017,-0.483,-0.894,0.0
9.554,-0.462,-0.903,0.0
9.162,-0.444,-0.916,0.0
8.65,-0.42,-0.911,0.0
8.375,-0.408,-0.927,0.0
10.631,-0.516,-0.877,0.0
10.15,-0.494,-0.891,0.0
9.689,-0.472,-0.902,0.0
0.0,0.0,0.0,0.0
8.89,-0.435,-0.923,0.0
8.53,-0.418,-0.931,0.0
10.811,-0.528,-0.876,0.0
10.264,-0.502,-0.886,0.0
9.798,-0.48,-0.897,0.0
9.359,-0.46,-0.908,0.0
8.926,-0.439,-0.914,0.0
8.563,-0.422,-0.922,0.0
10.976,-0.539,-0.873,0.0
10.42,-0.513,-0.884,0.0
9.926,-0.489,-0.894,0.0
9.507,-0.469,-0.908,0.0
9.102,-0.45,-0.918,0.0
8.644,-0.428,-0.918,0.0
11.131,-0.55,-0.868,0.0
10.563,-0.522,-0.88,0.0
10.108,-0.501,-0.895,0.0
9.661,-0.479,-0.908,0.0
9.183,-0.456,-0.912,0.0
8.783,-0.437,-0.919,0.0
11.309,-0.561,-0.865,0.0
10.738,-0.533,-0.878,0.0
10.194,-0.507,-0.887,0.0
9.74,-0.485,-0.9,0.0
9.338,-0.466,-0.912,0.0
8.931,-0.446,-0.92,0.0
11.471,-0.571,-0.859,0.0
10.937,-0.545,-0.877,0.0
10.359,-0.517,-0.885,0.0
9.898,-0.494,-0.899,0.0
9.445,-0.472,-0.908,0.0
9.014,-0.451,-0.915,0.0
11.735,-0.585,-0.861,0.0
11.055,-0.552,-0.869,0.0
10.553,-0.528,-0.885,0.0
10.054,-0.503,-0.897,0.0
9.607,-0.481,-0.908,0.0
9.146,-0.459,-0.913,0.0
11.934,-0.596,-0.856,0.0
11.266,-0.564,-0.867,0.0
10.677,-0.535,-0.878,0.0
10.175,-0.51,-0.892,0.0
9.708,-0.487,-0.902,0.0
9.284,-0.466,-0.912,0.0
12.24,-0.613,-0.858,0.0
11.443,-0.573,-0.862,0.0
10.892,-0.546,-0.878,0.0
10.316,-0.517,-0.887,0.0
9.86,-0.495,-0.9,0.0
9.418,-0.473,-0.909,0.0
12.432,-0.622,-0.851,0.0
11.707,-0.586,-0.863,0.0
11.035,-0.553,-0.872,0.0
10.501,-0.527,-0.886,0.0
10.009,-0.502,-0.897,0.0
9.59,-0.482,-0.91,0.0
20.067,-1.004,-1.341,0.0
11.905,-0.596,-0.858,0.0
11.241,-0.563,-0.869,0.0
10.641,-0.533,-0.88,0.0
10.14,-0.508,-0.892,0.0
9.709,-0.487,-0.905,0.0
20.0,-0.999,-1.303,0.0
12.2,-0.61,-0.859,0.0
11.399,-0.57,-0.862,0.0
10.848,-0.543,-0.879,0.0
10.283,-0.515,-0.887,0.0
9.843,-0.493,-0.901,0.0
13.384,-0.667,-0.849,0.0
12.419,-0.619,-0.853,0.0
11.691,-0.583,-0.864,0.0
11.025,-0.55,-0.874,0.0
10.512,-0.525,-0.889,0.0
10.018,-0.5,-0.9,0.0
13.571,-0.675,-0.838,0.0
19.96,-0.993,-1.338,0.0
11.892,-0.591,-0.859,0.0
11.207,-0.557,-0.87,0.0
10.636,-0.529,-0.881,0.0
10.148,-0.505,-0.894,0.0
13.932,-0.69,-0.837,0.0
19.992,-0.99,-1.306,0.0
12.185,-0.603,-0.859,0.0
11.414,-0.565,-0.866,0.0
10.897,-0.539,-0.884,0.0
10.317,-0.511,-0.891,0.0
14.261,-0.703,-0.832,0.0
13.393,-0.66,-0.852,0.0
12.424,-0.612,-0.855,0.0
11.669,-0.575,-0.865,0.0
11.019,-0.543,-0.875,0.0
10.476,-0.516,-0.887,0.0
14.613,-0.717,-0.828,0.0
13.583,-0.666,-0.84,0.0
19.914,-0.976,-1.336,0.0
11.881,-0.582,-0.86,0.0
11.224,-0.549,-0.872,0.0
10.663,-0.522,-0.884,0.0
14.943,-0.728,-0.821,0.0
13.918,-0.678,-0.837,0.0
19.992,-0.973,-1.307,0.0
12.184,-0.593,-0.861,0.0
11.422,-0.555,-0.867,0.0
10.896,-0.529,-0.884,0.0
15.32,-0.741,-0.814,0.0
14.227,-0.688,-0.831,0.0
13.354,-0.645,-0.849,0.0
12.425,-0.6,-0.856,0.0
11.664,-0.563,-0.865,0.0
11.03,-0.532,-0.876,0.0
20.116,-0.966,-1.035,0.0
14.594,-0.7,-0.826,0.0
13.604,-0.652,-0.841,0.0
12.712,-0.608,-0.854,0.0
11.927,-0.57,-0.863,0.0
11.248,-0.537,-0.873,0.0
20.096,-0.956,-0.998,0.0
14.944,-0.71,-0.82,0.0
13.981,-0.664,-0.84,0.0
13.1,-0.621,-0.857,0.0
12.19,-0.577,-0.861,0.0
11.436,-0.541,-0.867,0.0
16.658,-0.785,-0.798,0.0
15.257,-0.718,-0.81,0.0
14.277,-0.671,-0.832,0.0
13.36,-0.627,-0.85,0.0
12.456,-0.584,-0.857,0.0
11.688,-0.547,-0.866,0.0
17.099,-0.797,-0.789,0.0
15.844,-0.737,-0.813,0.0
14.552,-0.676,-0.823,0.0
13.589,-0.63,-0.84,0.0
12.83,-0.594,-0.86,0.0
11.958,-0.553,-0.864,0.0
17.592,-0.81,-0.78,0.0
16.308,-0.75,-0.808,0.0
15.0,-0.688,-0.822,0.0
13.968,-0.64,-0.839,0.0
13.118,-0.6,-0.857,0.0
12.227,-0.558,-0.862,0.0
18.124,-0.824,-0.772,0.0
16.687,-0.757,-0.797,0.0
15.313,-0.693,-0.811,0.0
14.318,-0.647,-0.835,0.0
13.378,-0.603,-0.85,0.0
12.454,-0.561,-0.856,0.0
64.92,7.951,0.096,11.0
45.556,5.582,-0.193,10.0
38.988,4.779,-0.388,14.0
29.889,3.666,-0.472,3.0
29.358,3.603,-0.631,1.0
24.824,3.048,-0.676,0.0
64.765,7.96,0.022,12.0
41.7,5.127,-0.224,17.0
38.602,4.748,-0.428,12.0
29.759,3.662,-0.504,2.0
27.477,3.383,-0.622,0.0
24.12,2.971,-0.684,0.0
64.651,7.971,-0.051,6.0
40.722,5.022,-0.265,16.0
38.496,4.75,-0.471,9.0
29.668,3.662,-0.536,2.0
26.77,3.306,-0.637,1.0
23.481,2.901,-0.694,0.0
45.747,5.656,-0.089,4.0
39.827,4.925,-0.305,16.0
38.478,4.76,-0.515,6.0
29.422,3.641,-0.566,6.0
26.119,3.233,-0.652,1.0
22.882,2.834,-0.703,0.0
45.633,5.655,-0.141,15.0
39.157,4.854,-0.345,27.0
29.936,3.712,-0.436,1.0
29.295,3.633,-0.597,10.0
25.426,3.155,-0.664,0.0
22.359,2.775,-0.713,0.0
0.0,0.0,0.0,0.0
38.897,4.831,-0.388,14.0
29.666,3.685,-0.466,2.0
29.212,3.63,-0.629,6.0
24.699,3.07,-0.674,0.0
21.712,2.7,-0.717,0.0
41.697,5.186,-0.226,17.0
38.53,4.793,-0.429,11.0
29.549,3.676,-0.498,2.0
27.346,3.403,-0.621,0.0
24.041,2.993,-0.684,0.0
21.152,2.634,-0.723,0.0
40.71,5.069,-0.267,17.0
38.45,4.789,-0.473,9.0
29.451,3.668,-0.531,4.0
26.621,3.316,-0.636,1.0
23.381,2.914,-0.692,0.0
20.562,2.563,-0.727,0.0
39.779,4.958,-0.307,23.0
38.469,4.795,-0.517,5.0
29.323,3.655,-0.563,12.0
26.05,3.248,-0.652,1.0
22.725,2.834,-0.699,0.0
20.192,2.519,-0.737,0.0
39.248,4.894,-0.349,39.0
30.095,3.753,-0.44,6.0
29.295,3.653,-0.596,14.0
25.329,3.159,-0.663,0.0
22.24,2.774,-0.71,0.0
19.759,2.465,-0.744,0.0
38.843,4.844,-0.39,15.0
29.605,3.692,-0.466,3.0
29.209,3.643,-0.628,5.0
24.627,3.071,-0.673,0.0
21.661,2.702,-0.717,0.0
19.259,2.403,-0.747,0.0
38.518,4.802,-0.43,10.0
29.516,3.68,-0.499,2.0
27.299,3.403,-0.618,0.0
23.928,2.983,-0.681,0.0
21.092,2.63,-0.721,0.0
18.864,2.352,-0.754,0.0
38.471,4.794,-0.473,8.0
29.435,3.667,-0.531,4.0
26.718,3.329,-0.635,1.0
23.298,2.902,-0.69,0.0
20.558,2.561,-0.727,0.0
18.461,2.3,-0.758,0.0
38.47,4.789,-0.517,5.0
29.332,3.651,-0.562,11.0
26.009,3.237,-0.647,1.0
22.704,2.825,-0.698,0.0
20.178,2.511,-0.736,0.0
18.161,2.26,-0.767,0.0
29.85,3.711,-0.434,2.0
29.306,3.642,-0.595,14.0
25.414,3.158,-0.661,0.0
22.244,2.764,-0.708,0.0
19.764,2.456,-0.743,0.0
17.829,2.215,-0.773,0.0
29.683,3.683,-0.465,2.0
29.204,3.623,-0.625,4.0
24.688,3.062,-0.67,0.0
21.658,2.686,-0.714,0.0
19.362,2.401,-0.749,0.0
17.457,2.165,-0.776,0.0
42.728,-0.61,3.571,38.0
42.347,-0.601,3.317,44.0
42.627,-0.602,3.116,41.0
48.429,-0.68,3.282,36.0
50.675,-0.708,3.17,9.0
61.274,-0.851,3.514,9.0
42.187,-0.591,3.605,45.0
42.455,-0.591,3.405,17.0
42.248,-0.585,3.167,46.0
48.37,-0.665,3.369,22.0
48.553,-0.664,3.127,33.0
61.565,-0.837,3.644,5.0
41.94,-0.574,3.662,49.0
43.609,-0.594,3.578,18.0
42.375,-0.573,3.254,48.0
42.6,-0.572,3.044,36.0
48.425,-0.646,3.207,42.0
61.799,-0.819,3.77,17.0
41.942,-0.56,3.738,45.0
42.698,-0.567,3.581,19.0
42.172,-0.555,3.315,39.0
42.613,-0.557,3.121,41.0
48.371,-0.628,3.289,36.0
48.527,-0.625,3.046,27.0
41.973,-0.545,3.817,41.0
42.24,-0.545,3.618,35.0
42.487,-0.543,3.416,27.0
42.246,-0.536,3.17,47.0
48.233,-0.607,3.367,5.0
48.503,-0.605,3.131,28.0
42.12,-0.53,3.905,36.0
41.882,-0.522,3.662,41.0
41.857,-0.517,3.439,45.0
42.093,-0.516,3.233,41.0
42.508,-0.516,3.041,39.0
48.495,-0.584,3.215,28.0
42.219,-0.512,3.989,42.0
41.85,-0.503,3.732,37.0
41.803,-0.498,3.508,42.0
42.309,-0.499,3.323,39.0
42.301,-0.494,3.1,45.0
48.663,-0.563,3.311,21.0
41.859,-0.488,4.028,30.0
41.831,-0.483,3.804,41.0
41.813,-0.477,3.581,41.0
42.671,-0.482,3.425,23.0
42.13,-0.471,3.16,38.0
42.519,-0.47,2.965,40.0
41.667,-0.464,4.081,40.0
41.666,-0.459,3.86,40.0
41.711,-0.454,3.643,47.0
42.213,-0.455,3.46,46.0
42.119,-0.448,3.23,39.0
42.538,-0.447,3.038,39.0
41.71,-0.442,4.155,40.0
41.772,-0.437,3.94,40.0
41.702,-0.431,3.712,41.0
41.666,-0.426,3.484,40.0
41.991,-0.423,3.29,40.0
42.526,-0.423,3.107,32.0
41.557,-0.416,4.21,26.0
41.704,-0.412,4.002,43.0
41.556,-0.405,3.768,45.0
41.622,-0.4,3.549,46.0
42.012,-0.399,3.36,36.0
41.997,-0.392,3.137,42.0
41.366,-0.389,4.258,45.0
41.623,-0.386,4.063,49.0
41.407,-0.378,3.821,53.0
41.888,-0.377,3.639,35.0
41.722,-0.37,3.403,42.0
42.06,-0.366,3.208,40.0
41.352,-0.363,4.322,46.0
41.541,-0.359,4.121,39.0
41.673,-0.354,3.912,37.0
41.67,-0.347,3.686,41.0
41.663,-0.342,3.464,44.0
41.94,-0.338,3.264,45.0
41.22,-0.334,4.373,43.0
41.468,-0.33,4.178,43.0
41.734,-0.326,3.982,50.0
41.511,-0.318,3.736,43.0
41.595,-0.312,3.522,40.0
42.03,-0.309,3.336,41.0
41.299,-0.306,4.445,43.0
41.301,-0.3,4.225,45.0
41.814,-0.297,4.054,34.0
41.464,-0.288,3.795,40.0
41.45,-0.281,3.573,42.0
42.167,-0.28,3.41,41.0
41.372,-0.276,4.516,38.0
41.423,-0.27,4.3,34.0
41.595,-0.265,4.095,43.0
41.628,-0.259,3.872,44.0
41.409,-0.25,3.63,46.0
41.769,-0.246,3.44,37.0
138.978,-2.517,0.975,17.0
0.0,0.0,0.0,0.0
0.0,0.0,0.0,0.0
44.738,-0.857,-0.442,0.0
34.592,-0.675,-0.536,0.0
29.278,-0.582,-0.618,0.0
138.913,-2.8,0.896,11.0
0.0,0.0,0.0,0.0
0.0,0.0,0.0,0.0
0.0,0.0,0.0,0.0
34.259,-0.739,-0.549,0.0
28.892,-0.634,-0.625,0.0
138.872,-3.088,0.821,8.0
0.0,0.0,0.0,0.0
54.565,-1.251,-0.287,0.0
0.0,0.0,0.0,0.0
34.027,-0.804,-0.563,0.0
0.0,0.0,0.0,0.0
0.0,0.0,0.0,0.0
0.0,0.0,0.0,0.0
0.0,0.0,0.0,0.0
0.0,0.0,0.0,0.0
0.0,0.0,0.0,0.0
21.906,-0.571,-0.495,152.0
0.0,0.0,0.0,0.0
0.0,0.0,0.0,0.0
48.215,-1.305,-0.298,0.0
0.0,0.0,0.0,0.0
32.999,-0.917,-0.576,0.0
21.892,-0.616,-0.504,155.0
0.0,0.0,0.0,0.0
0.0,0.0,0.0,0.0
0.0,0.0,0.0,0.0
41.195,-1.215,-0.505,1.0
0.0,0.0,0.0,0.0
21.883,-0.661,-0.512,0.0
0.0,0.0,0.0,0.0
0.0,0.0,0.0,0.0
47.667,-1.489,-0.332,1.0
37.994,-1.2,-0.48,0.0
31.658,-1.012,-0.576,0.0
0.0,0.0,0.0,0.0
0.0,0.0,0.0,0.0
0.0,0.0,0.0,0.0
47.609,-1.585,-0.347,0.0
37.883,-1.275,-0.491,0.0
31.566,-1.074,-0.585,0.0
26.521,-0.912,-0.639,0.0
0.0,0.0,0.0,0.0
0.0,0.0,0.0,0.0
0.0,0.0,0.0,0.0
38.017,-1.358,-0.503,0.0
32.092,-1.158,-0.603,0.0
26.503,-0.967,-0.646,0.0
0.0,0.0,0.0,0.0
0.0,0.0,0.0,0.0
48.207,-1.804,-0.378,0.0
37.572,-1.42,-0.507,0.0
29.87,-1.139,-0.569,0.0
26.32,-1.014,-0.647,0.0
0.0,0.0,0.0,0.0
0.0,0.0,0.0,0.0
47.789,-1.887,-0.385,0.0
0.0,0.0,0.0,0.0
0.0,0.0,0.0,0.0
26.398,-1.071,-0.654,0.0
0.0,0.0,0.0,0.0
0.0,0.0,0.0,0.0
47.168,-1.959,-0.388,1.0
38.355,-1.607,-0.532,0.0
30.645,-1.295,-0.595,0.0
26.256,-1.12,-0.655,0.0
0.0,0.0,0.0,0.0
0.0,0.0,0.0,0.0
47.347,-2.063,-0.396,0.0
38.232,-1.68,-0.535,0.0
0.0,0.0,0.0,0.0
26.188,-1.17,-0.656,0.0
0.0,0.0,0.0,0.0
0.0,0.0,0.0,0.0
20.006,-0.912,-0.169,9.0
20.023,-0.92,-0.282,15.0
20.047,-0.929,-0.393,11.0
20.085,-0.938,-0.505,0.0
0.0,0.0,0.0,0.0
19.999,-0.945,-0.06,19.0
19.995,-0.953,-0.17,28.0
20.02,-0.961,-0.283,25.0
20.032,-0.969,-0.394,27.0
20.063,-0.978,-0.505,23.0
20.022,-0.98,0.049,13.0
19.98,-0.985,-0.06,27.0
19.985,-0.992,-0.17,32.0
20.01,-1.001,-0.283,25.0
20.015,-1.009,-0.394,30.0
20.043,-1.018,-0.505,32.0
95.216,-1.689,4.297,14.0
106.452,-1.866,4.186,17.0
112.789,-1.953,3.78,11.0
112.534,-1.925,3.109,19.0
206.613,-3.493,4.51,7.0
193.725,-3.234,3.105,6.0
106.439,-1.753,4.628,9.0
112.759,-1.833,4.248,9.0
0.0,0.0,0.0,0.0
113.08,-1.792,2.936,7.0
194.803,-3.048,3.928,12.0
138.946,-2.145,1.995,9.0
112.015,-1.704,4.681,11.0
190.604,-2.862,6.859,22.0
0.0,0.0,0.0,0.0
206.327,-3.014,5.006,20.0
194.912,-2.808,3.599,5.0
0.0,0.0,0.0,0.0
112.296,-1.571,4.5,10.0
210.636,-2.902,7.214,11.0
208.911,-2.838,5.943,6.0
210.541,-2.818,4.743,12.0
204.226,-2.694,3.416,10.0
139.357,-1.812,1.523,9.0
190.432,-2.434,7.3,47.0
210.247,-2.647,6.836,7.0
206.456,-2.559,5.511,7.0
210.513,-2.57,4.378,6.0
139.206,-1.673,2.086,9.0
139.215,-1.646,1.277,21.0
190.573,-2.213,6.969,29.0
211.215,-2.414,6.495,7.0
119.739,-1.345,2.985,8.0
119.706,-1.323,2.277,36.0
119.749,-1.301,1.581,150.0
119.753,-1.279,0.886,150.0
190.59,-1.996,6.629,8.0
119.697,-1.232,3.467,110.0
119.727,-1.209,2.77,150.0
119.734,-1.187,2.061,150.0
119.731,-1.166,1.365,68.0
114.351,-1.093,0.639,2.0
214.682,-2.008,7.074,8.0
119.72,-1.098,3.248,81.0
119.724,-1.078,2.553,72.0
119.731,-1.057,1.845,62.0
119.687,-1.035,1.147,17.0
0.0,0.0,0.0,0.0
205.6,-1.702,6.4,9.0
119.736,-0.969,3.028,42.0
119.73,-0.948,2.331,12.0
119.668,-0.927,1.621,12.0
119.758,-0.908,0.926,9.0
83.056,-0.615,0.159,1.0
208.041,-1.502,6.086,9.0
119.8,-0.844,2.807,40.0
119.847,-0.825,2.11,3.0
119.68,-0.804,1.4,19.0
110.942,-0.727,0.652,5.0
0.0,0.0,0.0,0.0
119.736,-0.744,3.281,9.0
119.821,-0.724,2.584,50.0
114.671,-0.675,1.807,8.0
119.704,-0.685,1.176,16.0
0.0,0.0,0.0,0.0
0.0,0.0,0.0,0.0
119.81,-0.626,3.056,16.0
115.64,-0.585,2.275,2.0
113.997,-0.559,1.58,4.0
119.721,-0.568,0.949,6.0
0.0,0.0,0.0,0.0
0.0,0.0,0.0,0.0
119.787,-0.511,2.825,8.0
114.49,-0.47,2.032,16.0
119.717,-0.473,1.426,15.0
110.981,-0.421,0.664,8.0
0.0,0.0,0.0,0.0
0.0,0.0,0.0,0.0
119.786,-0.399,2.591,8.0
113.323,-0.36,1.789,7.0
114.463,-0.348,1.141,150.0
101.428,-0.293,0.41,1.0
0.0,0.0,0.0,0.0
45.477,-0.118,-0.345,0.0
114.154,-0.279,2.247,14.0
112.897,-0.26,1.565,10.0
111.118,-0.24,0.892,12.0
0.0,0.0,0.0,0.0
0.0,0.0,0.0,0.0
45.415,-0.078,-0.434,0.0
112.924,-0.179,2.0,14.0
117.365,-0.17,1.393,17.0
110.755,-0.144,0.668,6.0
0.0,0.0,0.0,0.0
52.041,-0.054,-0.297,0.0
0.0,0.0,0.0,0.0
138.806,-3.005,0.664,5.0
0.0,0.0,0.0,0.0
0.0,0.0,0.0,0.0
42.492,-0.878,-0.48,0.0
0.0,0.0,0.0,0.0
29.183,-0.584,-0.64,0.0
138.964,-2.748,0.8,10.0
0.0,0.0,0.0,0.0
0.0,0.0,0.0,0.0
45.027,-0.846,-0.465,1.0
0.0,0.0,0.0,0.0
0.0,0.0,0.0,0.0
139.08,-2.483,0.935,15.0
0.0,0.0,0.0,0.0
0.0,0.0,0.0,0.0
46.266,-0.78,-0.434,0.0
0.0,0.0,0.0,0.0
30.552,-0.495,-0.613,0.0
138.805,-2.212,1.061,19.0
0.0,0.0,0.0,0.0
0.0,0.0,0.0,0.0
46.67,-0.697,-0.396,1.0
37.586,-0.548,-0.519,0.0
31.158,-0.444,-0.597,0.0
138.952,-1.943,1.186,22.0
0.0,0.0,0.0,0.0
0.0,0.0,0.0,0.0
47.503,-0.616,-0.361,0.0
0.0,0.0,0.0,0.0
32.624,-0.401,-0.597,0.0
139.226,-1.672,1.308,20.0
0.0,0.0,0.0,0.0
0.0,0.0,0.0,0.0
0.0,0.0,0.0,0.0
40.003,-0.426,-0.485,0.0
33.059,-0.341,-0.578,0.0
119.753,-1.2,1.224,150.0
119.794,-1.159,0.582,2.0
78.986,-0.739,-0.039,0.0
0.0,0.0,0.0,0.0
0.0,0.0,0.0,0.0
34.145,-0.284,-0.57,0.0
119.712,-0.961,1.318,19.0
113.795,-0.876,0.641,4.0
82.993,-0.61,0.022,1.0
0.0,0.0,0.0,0.0
0.0,0.0,0.0,0.0
0.0,0.0,0.0,0.0
119.727,-0.722,1.408,16.0
114.143,-0.651,0.728,5.0
95.257,-0.51,0.095,1.0
0.0,0.0,0.0,0.0
45.278,-0.211,-0.445,1.0
36.061,-0.156,-0.549,0.0
119.743,-0.48,1.494,10.0
114.343,-0.42,0.811,6.0
0.0,0.0,0.0,0.0
0.0,0.0,0.0,0.0
45.2,-0.119,-0.413,1.0
0.0,0.0,0.0,0.0
112.841,-0.223,1.485,9.0
117.314,-0.191,0.912,8.0
0.0,0.0,0.0,0.0
0.0,0.0,0.0,0.0
45.5,-0.027,-0.386,1.0
37.324,-0.009,-0.518,0.0
111.091,0.007,1.534,15.0
111.219,0.045,0.935,10.0
94.838,0.071,0.286,1.0
0.0,0.0,0.0,0.0
49.688,0.071,-0.391,0.0
37.899,0.067,-0.503,0.0
119.841,0.253,1.728,16.0
111.125,0.273,1.002,11.0
94.557,0.264,0.341,4.0
0.0,0.0,0.0,0.0
49.92,0.174,-0.364,0.0
39.938,0.153,-0.507,0.0
111.207,0.466,1.668,6.0
111.023,0.504,1.065,14.0
90.755,0.444,0.379,2.0
0.0,0.0,0.0,0.0
0.0,0.0,0.0,0.0
42.79,0.253,-0.519,0.0
100.142,0.631,1.557,5.0
104.872,0.696,1.062,21.0
97.492,0.681,0.46,8.0
0.0,0.0,0.0,0.0
52.696,0.403,-0.327,0.0
42.9,0.343,-0.499,0.0
104.737,0.877,1.681,39.0
104.793,0.915,1.114,19.0
98.007,0.889,0.51,9.0
78.677,0.74,-0.025,0.0
53.529,0.522,-0.307,0.0
41.092,0.415,-0.458,0.0
98.59,1.033,1.628,27.0
98.549,1.067,1.093,31.0
97.829,1.093,0.553,7.0
79.173,0.911,0.01,4.0
0.0,0.0,0.0,0.0
43.861,0.534,-0.471,0.0
98.547,1.24,1.67,30.0
98.559,1.276,1.135,34.0
98.295,1.305,0.597,8.0
76.961,1.047,0.041,2.0
0.0,0.0,0.0,0.0
41.939,0.6,-0.433,0.0
99.312,1.461,1.722,18.0
92.014,1.384,1.095,31.0
91.826,1.413,0.593,15.0
74.551,1.173,0.068,3.0
0.0,0.0,0.0,0.0
45.882,0.753,-0.457,0.0
91.863,1.545,1.626,39.0
91.891,1.577,1.125,41.0
91.798,1.607,0.624,19.0
73.117,1.305,0.091,7.0
57.872,1.053,-0.243,0.0
45.242,0.838,-0.436,0.0
87.701,1.662,1.58,9.0
87.493,1.688,1.099,37.0
85.373,1.675,0.606,25.0
72.081,1.438,0.111,8.0
0.0,0.0,0.0,0.0
0.0,0.0,0.0,0.0
85.275,1.797,1.56,34.0
85.262,1.824,1.094,38.0
85.212,1.853,0.628,21.0
71.895,1.588,0.129,14.0
0.0,0.0,0.0,0.0
0.0,0.0,0.0,0.0
85.246,1.976,1.58,32.0
85.265,2.004,1.114,38.0
85.156,2.031,0.647,18.0
71.703,1.733,0.145,13.0
0.0,0.0,0.0,0.0
46.965,1.167,-0.419,0.0
78.999,1.996,1.48,21.0
78.946,2.021,1.047,34.0
78.885,2.046,0.614,27.0
71.492,1.879,0.158,16.0
64.629,1.719,-0.211,3.0
0.0,0.0,0.0,0.0
78.733,2.157,1.489,14.0
77.146,2.138,1.035,4.0
78.844,2.212,0.625,10.0
71.37,2.027,0.168,12.0
63.002,1.81,-0.197,4.0
45.597,1.325,-0.392,0.0
74.979,2.212,1.427,10.0
74.591,2.225,1.01,5.0
78.968,2.381,0.635,12.0
71.361,2.175,0.175,12.0
61.51,1.896,-0.186,6.0
45.699,1.423,-0.389,0.0
72.497,2.291,1.386,21.0
72.434,2.313,0.987,33.0
72.329,2.334,0.588,34.0
71.366,2.326,0.18,10.0
59.996,1.975,-0.178,5.0
45.555,1.515,-0.385,0.0
72.382,2.442,1.388,35.0
72.356,2.465,0.989,40.0
72.342,2.487,0.59,29.0
71.479,2.481,0.183,7.0
58.707,2.057,-0.172,5.0
46.588,1.647,-0.393,0.0
72.403,2.594,1.389,25.0
72.427,2.619,0.99,27.0
72.375,2.641,0.591,19.0
65.807,2.422,0.168,9.0
57.868,2.148,-0.171,4.0
44.887,1.681,-0.38,0.0
120.087,4.556,2.302,16.0
120.101,4.595,1.639,22.0
119.973,4.627,0.975,18.0
65.681,2.553,0.165,18.0
56.229,2.204,-0.169,3.0
44.881,1.774,-0.382,0.0
193.767,7.752,3.702,22.0
120.068,4.842,1.631,17.0
66.102,2.686,0.532,30.0
65.615,2.687,0.159,15.0
54.823,2.263,-0.169,1.0
44.744,1.86,-0.386,0.0
63.805,2.684,1.212,10.0
62.57,2.652,0.843,8.0
66.027,2.82,0.524,9.0
65.52,2.818,0.151,10.0
54.109,2.344,-0.174,3.0
44.659,1.949,-0.39,0.0
13.037,1.131,-0.842,0.0
12.118,1.049,-0.851,0.0
11.323,0.978,-0.859,0.0
10.635,0.917,-0.868,0.0
10.174,0.876,-0.888,0.0
9.649,0.829,-0.896,0.0
13.031,1.113,-0.844,0.0
12.106,1.032,-0.852,0.0
11.279,0.959,-0.857,0.0
10.646,0.904,-0.87,0.0
10.149,0.86,-0.887,0.0
9.615,0.813,-0.895,0.0
13.076,1.099,-0.849,0.0
12.078,1.013,-0.852,0.0
11.272,0.943,-0.858,0.0
10.636,0.888,-0.871,0.0
10.102,0.842,-0.884,0.0
9.679,0.805,-0.902,0.0
13.081,1.081,-0.85,0.0
12.023,0.992,-0.849,0.0
11.282,0.928,-0.86,0.0
10.62,0.872,-0.87,0.0
10.097,0.827,-0.884,0.0
9.607,0.786,-0.895,0.0
13.003,1.057,-0.846,0.0
12.036,0.976,-0.85,0.0
11.258,0.911,-0.859,0.0
10.592,0.855,-0.868,0.0
10.124,0.815,-0.887,0.0
9.676,0.778,-0.902,0.0
13.038,1.041,-0.849,0.0
11.991,0.955,-0.847,0.0
11.242,0.893,-0.857,0.0
10.628,0.843,-0.871,0.0
10.106,0.799,-0.885,0.0
9.634,0.76,-0.898,0.0
13.04,1.023,-0.848,0.0
11.983,0.937,-0.846,0.0
11.251,0.878,-0.858,0.0
10.636,0.828,-0.871,0.0
10.128,0.786,-0.886,0.0
9.665,0.749,-0.9,0.0
13.045,1.004,-0.848,0.0
12.06,0.926,-0.851,0.0
11.267,0.863,-0.858,0.0
10.665,0.814,-0.873,0.0
10.16,0.774,-0.888,0.0
9.676,0.735,-0.9,0.0
13.009,0.982,-0.844,0.0
12.099,0.911,-0.852,0.0
11.292,0.848,-0.858,0.0
10.654,0.798,-0.87,0.0
10.152,0.759,-0.886,0.0
9.683,0.722,-0.899,0.0
13.092,0.969,-0.847,0.0
12.05,0.89,-0.847,0.0
11.332,0.834,-0.859,0.0
10.679,0.784,-0.871,0.0
10.18,0.745,-0.887,0.0
9.668,0.706,-0.896,0.0
13.108,0.951,-0.846,0.0
12.17,0.881,-0.853,0.0
11.335,0.818,-0.857,0.0
10.663,0.767,-0.867,0.0
10.185,0.731,-0.885,0.0
9.684,0.693,-0.895,0.0
13.196,0.938,-0.848,0.0
12.188,0.864,-0.851,0.0
11.357,0.802,-0.856,0.0
10.72,0.755,-0.869,0.0
10.211,0.717,-0.884,0.0
9.712,0.68,-0.895,0.0
13.188,0.917,-0.844,0.0
12.19,0.845,-0.848,0.0
11.38,0.787,-0.854,0.0
10.74,0.74,-0.867,0.0
10.263,0.705,-0.886,0.0
9.762,0.669,-0.897,0.0
13.235,0.901,-0.843,0.0
12.264,0.832,-0.849,0.0
11.419,0.772,-0.853,0.0
10.796,0.728,-0.868,0.0
10.256,0.689,-0.881,0.0
9.82,0.658,-0.899,0.0
13.278,0.883,-0.841,0.0
12.305,0.816,-0.847,0.0
11.509,0.761,-0.856,0.0
10.843,0.714,-0.867,0.0
10.289,0.675,-0.88,0.0
9.827,0.643,-0.895,0.0
13.354,0.868,-0.84,0.0
12.413,0.804,-0.849,0.0
11.572,0.747,-0.856,0.0
10.869,0.699,-0.865,0.0
10.355,0.664,-0.881,0.0
9.876,0.631,-0.895,0.0
41.314,0.515,4.038,43.0
41.073,0.519,3.794,41.0
41.465,0.531,3.609,16.0
40.995,0.533,3.345,34.0
41.275,0.545,3.148,41.0
41.446,0.554,2.94,34.0
41.15,0.554,4.082,41.0
41.174,0.561,3.864,40.0
41.242,0.57,3.649,36.0
40.918,0.573,3.398,36.0
40.86,0.58,3.174,43.0
41.364,0.595,2.993,35.0
41.345,0.598,4.161,43.0
41.096,0.602,3.915,41.0
40.993,0.608,3.685,36.0
41.042,0.617,3.466,33.0
40.878,0.622,3.233,44.0
41.371,0.637,3.051,33.0
41.262,0.639,4.21,32.0
41.182,0.646,3.98,44.0
40.84,0.648,3.728,41.0
40.843,0.656,3.505,42.0
40.842,0.663,3.286,43.0
41.118,0.676,3.088,38.0
40.989,0.678,4.238,41.0
41.071,0.687,4.025,41.0
41.119,0.696,3.809,38.0
40.757,0.698,3.552,27.0
40.78,0.706,3.335,44.0
40.968,0.718,3.131,40.0
40.936,0.722,4.288,41.0
41.198,0.734,4.093,34.0
41.272,0.743,3.877,41.0
40.703,0.741,3.601,43.0
41.032,0.755,3.409,39.0
40.832,0.76,3.173,38.0
40.729,0.763,4.319,45.0
41.108,0.777,4.137,38.0
40.975,0.783,3.902,39.0
40.825,0.788,3.663,39.0
40.932,0.799,3.452,41.0
40.859,0.805,3.226,47.0
40.613,0.806,4.357,48.0
40.968,0.821,4.173,40.0
41.157,0.833,3.969,37.0
40.632,0.83,3.695,45.0
40.734,0.84,3.484,36.0
40.78,0.849,3.269,38.0
40.62,0.851,4.407,47.0
40.783,0.863,4.203,43.0
41.331,0.883,4.036,23.0
40.993,0.884,3.777,26.0
40.673,0.885,3.527,29.0
40.667,0.893,3.307,38.0
40.539,0.896,4.446,47.0
40.748,0.909,4.247,33.0
40.917,0.921,4.042,20.0
40.749,0.925,3.8,36.0
40.608,0.93,3.567,45.0
40.639,0.939,3.35,38.0
40.503,0.942,4.487,44.0
40.81,0.958,4.299,35.0
40.907,0.968,4.086,29.0
40.728,0.972,3.843,35.0
40.879,0.984,3.636,26.0
40.651,0.987,3.395,36.0
40.577,0.992,4.54,34.0
40.652,1.002,4.326,44.0
40.929,1.017,4.133,30.0
40.694,1.019,3.883,40.0
40.716,1.028,3.664,41.0
40.651,1.035,3.438,26.0
40.352,1.034,4.557,43.0
40.817,1.055,4.387,28.0
40.894,1.065,4.172,36.0
40.567,1.065,3.913,34.0
40.734,1.078,3.707,31.0
40.586,1.082,3.474,41.0
40.369,1.084,4.601,35.0
40.765,1.103,4.422,42.0
41.17,1.123,4.241,37.0
40.682,1.117,3.964,38.0
40.793,1.129,3.753,19.0
40.513,1.129,3.506,40.0
40.45,1.136,4.649,42.0
40.744,1.153,4.459,41.0
40.926,1.166,4.255,44.0
40.755,1.169,4.01,23.0
40.772,1.178,3.789,20.0
40.528,1.18,3.545,39.0
40.503,1.187,4.692,30.0
40.656,1.2,4.487,31.0
40.929,1.216,4.292,36.0
0.0,0.0,0.0,0.0
41.1,1.238,3.855,35.0
40.53,1.229,3.581,40.0
40.552,1.239,4.734,43.0
41.304,1.27,4.594,18.0
40.789,1.262,4.312,37.0
40.707,1.268,4.076,39.0
41.091,1.288,3.889,37.0
40.455,1.277,3.608,39.0
40.637,1.292,4.778,40.0
41.433,1.326,4.643,31.0
40.944,1.318,4.362,38.0
40.766,1.321,4.115,35.0
45.641,1.488,4.357,7.0
40.394,1.326,3.634,38.0
40.637,1.343,4.81,44.0
41.777,1.389,4.714,39.0
40.712,1.362,4.369,38.0
40.71,1.37,4.14,39.0
40.557,1.373,3.902,47.0
40.334,1.374,3.659,42.0
41.219,1.414,4.91,34.0
41.48,1.432,4.711,51.0
41.045,1.425,4.435,16.0
40.639,1.419,4.162,45.0
40.477,1.422,3.923,44.0
40.267,1.422,3.681,40.0
41.048,1.461,4.918,11.0
41.525,1.486,4.745,17.0
40.777,1.467,4.434,41.0
40.94,1.482,4.221,16.0
40.559,1.476,3.958,38.0
40.383,1.478,3.719,37.0
40.976,1.511,4.937,38.0
0.0,0.0,0.0,0.0
41.048,1.53,4.49,21.0
40.507,1.518,4.202,43.0
0.0,0.0,0.0,0.0
40.347,1.528,3.74,42.0
40.969,1.563,4.962,27.0
42.636,1.635,4.926,17.0
40.706,1.569,4.477,39.0
40.482,1.568,4.224,39.0
40.507,1.578,4.002,44.0
40.386,1.582,3.767,41.0
40.944,1.615,4.982,27.0
42.607,1.689,4.947,12.0
40.683,1.621,4.497,41.0
40.492,1.621,4.247,35.0
40.467,1.628,4.02,32.0
40.446,1.635,3.794,43.0
41.077,1.673,5.02,5.0
66.421,2.718,7.746,11.0
40.689,1.673,4.519,41.0
42.904,1.773,4.521,4.0
41.347,1.717,4.128,17.0
40.41,1.685,3.81,42.0
41.617,1.749,5.106,4.0
41.706,1.76,4.884,24.0
40.65,1.724,4.533,45.0
40.582,1.729,4.295,37.0
41.49,1.776,4.161,16.0
40.634,1.747,3.849,38.0
41.614,1.803,5.124,18.0
41.679,1.813,4.898,35.0
40.789,1.782,4.566,33.0
40.604,1.782,4.314,24.0
41.002,1.807,4.128,35.0
40.64,1.799,3.866,37.0
41.534,1.853,5.13,37.0
41.717,1.869,4.919,39.0
45.668,2.054,5.129,4.0
40.798,1.843,4.35,15.0
41.12,1.865,4.155,27.0
40.672,1.853,3.883,39.0
41.705,1.914,5.166,25.0
41.724,1.923,4.934,39.0
0.0,0.0,0.0,0.0
40.781,1.894,4.361,28.0
40.855,1.906,4.141,42.0
40.884,1.915,3.916,30.0
41.806,1.972,5.191,19.0
41.647,1.973,4.937,41.0
42.09,2.001,4.753,29.0
45.138,2.155,4.839,3.0
40.931,1.961,4.159,34.0
41.087,1.976,3.946,31.0
41.626,2.017,5.179,17.0
41.583,2.023,4.939,46.0
42.093,2.055,4.763,30.0
40.802,1.999,4.384,42.0
41.216,2.027,4.197,16.0
40.765,2.013,3.924,37.0
41.594,2.069,5.184,33.0
41.618,2.077,4.952,38.0
42.089,2.108,4.771,28.0
40.804,2.051,4.392,37.0
41.183,2.077,4.201,16.0
40.901,2.071,3.944,34.0
41.525,2.118,5.182,37.0
41.681,2.133,4.966,37.0
41.803,2.146,4.745,11.0
40.746,2.099,4.391,35.0
53.428,2.763,5.458,12.0
40.894,2.121,3.948,35.0
41.61,2.174,5.197,30.0
41.675,2.184,4.969,39.0
41.805,2.199,4.749,42.0
40.738,2.149,4.394,32.0
40.946,2.167,4.186,23.0
40.924,2.174,3.954,36.0
41.677,2.229,5.208,17.0
41.795,2.243,4.986,33.0
41.747,2.247,4.744,35.0
40.723,2.198,4.394,27.0
45.988,2.491,4.703,10.0
40.916,2.223,3.955,34.0
41.738,2.284,5.217,20.0
41.879,2.299,4.997,18.0
41.785,2.3,4.749,44.0
40.831,2.254,4.406,15.0
40.919,2.266,4.185,20.0
40.872,2.27,3.95,27.0
44.709,2.501,5.587,7.0
41.583,2.333,4.961,26.0
41.812,2.352,4.751,35.0
40.914,2.308,4.413,25.0
40.867,2.312,4.177,15.0
45.829,2.601,4.426,24.0
44.73,2.557,5.587,5.0
41.577,2.383,4.957,29.0
41.825,2.403,4.749,39.0
40.9,2.357,4.408,27.0
40.88,2.362,4.175,7.0
45.057,2.61,4.348,19.0
44.733,2.61,5.583,3.0
41.538,2.43,4.947,42.0
41.91,2.458,4.754,33.0
40.927,2.407,4.406,27.0
40.9,2.411,4.171,4.0
45.156,2.669,4.351,20.0
44.806,2.667,5.585,5.0
41.65,2.486,4.954,40.0
41.651,2.492,4.717,45.0
46.677,2.8,5.017,5.0
40.846,2.456,4.158,3.0
0.0,0.0,0.0,0.0
44.877,2.724,5.585,9.0
41.777,2.542,4.96,16.0
41.682,2.543,4.712,31.0
46.652,2.852,5.004,7.0
52.309,3.205,5.314,10.0
45.21,2.778,4.337,25.0
44.888,2.777,5.575,8.0
41.824,2.593,4.956,41.0
52.209,3.245,5.888,6.0
52.271,3.256,5.593,23.0
52.287,3.264,5.298,17.0
45.402,2.841,4.343,19.0
41.66,2.625,5.162,36.0
41.588,2.625,4.916,42.0
52.188,3.302,5.87,19.0
52.269,3.314,5.576,20.0
52.286,3.322,5.281,23.0
45.684,2.909,4.355,20.0
41.843,2.682,5.171,35.0
41.588,2.671,4.902,37.0
41.807,2.691,4.689,33.0
52.307,3.374,5.563,14.0
52.369,3.385,5.271,6.0
45.595,2.954,4.331,13.0
41.815,2.727,5.152,40.0
41.521,2.713,4.878,34.0
41.802,2.737,4.672,30.0
46.669,3.061,4.945,11.0
42.216,2.774,4.233,12.0
41.951,2.763,3.968,18.0
41.601,2.758,5.108,30.0
41.536,2.758,4.862,38.0
41.73,2.776,4.646,31.0
46.55,3.102,4.913,9.0
41.964,2.802,4.189,36.0
41.986,2.809,3.953,25.0
41.516,2.795,5.079,34.0
41.543,2.802,4.844,43.0
41.707,2.818,4.624,16.0
46.48,3.145,4.883,13.0
41.953,2.844,4.168,41.0
41.969,2.85,3.931,39.0
41.491,2.836,5.056,26.0
41.575,2.846,4.827,38.0
41.96,2.878,4.631,16.0
46.48,3.193,4.859,10.0
41.891,2.883,4.14,29.0
45.013,3.103,4.192,3.0
41.487,2.878,5.033,43.0
41.728,2.899,4.822,24.0
41.97,2.92,4.609,37.0
53.041,3.697,5.516,5.0
41.83,2.919,4.111,16.0
41.373,2.893,3.83,11.0
41.543,2.923,5.016,42.0
41.674,2.936,4.792,38.0
42.012,2.964,4.589,15.0
46.829,3.309,4.842,5.0
41.844,2.961,4.088,20.0
41.364,2.931,3.805,25.0
41.692,2.973,5.008,28.0
41.645,2.974,4.763,45.0
41.886,2.995,4.55,10.0
46.934,3.36,4.824,5.0
41.88,3.002,4.065,16.0
41.284,2.964,3.771,36.0
46.125,3.332,5.51,5.0
41.66,3.013,4.737,39.0
46.044,3.334,4.971,15.0
41.244,2.991,4.211,16.0
41.273,2.997,3.978,41.0
41.315,3.004,3.746,34.0
42.208,3.088,5.013,21.0
41.676,3.052,4.709,32.0
46.026,3.375,4.936,19.0
41.288,3.031,4.187,25.0
41.376,3.041,3.958,38.0
41.378,3.046,3.722,35.0
42.0,3.109,4.958,13.0
41.726,3.092,4.684,38.0
46.028,3.415,4.902,16.0
41.248,3.064,4.152,19.0
41.23,3.066,3.913,36.0
41.317,3.076,3.685,26.0
41.991,3.144,4.924,33.0
45.274,3.394,5.047,3.0
46.041,3.455,4.868,4.0
41.252,3.098,4.12,27.0
41.168,3.096,3.875,37.0
41.259,3.106,3.647,21.0
41.862,3.169,4.875,17.0
45.28,3.431,5.011,4.0
41.174,3.123,4.32,1.0
41.163,3.125,4.078,16.0
41.133,3.126,3.838,25.0
41.28,3.14,3.615,40.0
41.734,3.192,4.825,24.0
45.246,3.464,4.969,34.0
51.521,3.947,5.362,7.0
41.197,3.159,4.046,18.0
41.383,3.176,3.826,12.0
41.372,3.178,3.588,41.0
41.84,3.232,4.801,40.0
45.258,3.499,4.931,19.0
41.197,3.187,4.251,10.0
41.197,3.189,4.01,25.0
41.19,3.192,3.772,35.0
41.341,3.206,3.549,40.0
41.931,3.269,4.773,32.0
45.249,3.53,4.889,18.0
41.184,3.216,4.212,41.0
41.172,3.217,3.969,23.0
41.238,3.225,3.738,30.0
41.273,3.23,3.505,40.0
45.212,3.557,5.104,9.0
45.251,3.562,4.846,19.0
41.2,3.245,4.174,29.0
41.431,3.265,3.955,16.0
41.25,3.253,3.7,43.0
41.283,3.258,3.466,38.0
45.209,3.586,5.059,25.0
45.255,3.592,4.803,19.0
41.193,3.271,4.133,29.0
41.749,3.317,3.944,18.0
41.357,3.288,3.669,25.0
41.4,3.294,3.435,21.0
45.236,3.617,5.017,36.0
45.281,3.621,4.76,25.0
45.281,3.623,4.498,14.0
41.898,3.354,3.916,39.0
41.177,3.299,3.611,37.0
41.325,3.312,3.387,18.0
45.266,3.645,4.973,29.0
45.308,3.65,4.715,28.0
45.278,3.649,4.451,31.0
41.938,3.381,3.876,17.0
41.281,3.33,3.577,33.0
41.337,3.336,3.345,22.0
50.74,4.114,5.521,4.0
45.315,3.676,4.667,33.0
45.247,3.671,4.399,8.0
41.772,3.391,3.816,17.0
41.517,3.371,3.553,22.0
41.758,3.393,3.333,16.0
48.033,3.919,5.174,13.0
45.307,3.698,4.617,19.0
41.91,3.422,4.028,18.0
41.495,3.389,3.745,36.0
45.501,3.718,3.844,7.0
41.568,3.398,3.272,25.0
48.016,3.942,5.118,17.0
41.35,3.395,4.167,9.0
41.294,3.391,3.922,27.0
41.445,3.404,3.693,36.0
41.354,3.398,3.447,16.0
41.437,3.405,3.215,37.0
48.071,3.968,5.068,24.0
41.344,3.412,4.119,33.0
41.358,3.414,3.881,16.0
41.43,3.421,3.644,27.0
41.289,3.41,3.394,38.0
41.387,3.419,3.163,36.0
48.075,3.987,5.012,6.0
41.276,3.424,4.063,16.0
41.316,3.427,3.828,17.0
41.265,3.423,3.58,43.0
41.347,3.431,3.349,34.0
41.509,3.445,3.123,29.0
63.518,5.292,6.544,12.0
41.278,3.439,4.013,18.0
41.326,3.443,3.779,39.0
41.29,3.44,3.532,42.0
41.537,3.461,3.314,21.0
41.444,3.453,3.068,37.0
41.408,3.463,4.215,2.0
41.299,3.454,3.964,31.0
41.386,3.461,3.733,36.0
41.305,3.454,3.483,38.0
41.547,3.474,3.264,25.0
41.632,3.481,3.03,25.0
41.401,3.475,4.162,8.0
41.393,3.473,3.921,27.0
41.415,3.475,3.684,27.0
41.384,3.472,3.437,38.0
41.431,3.476,3.202,42.0
41.751,3.503,2.986,16.0
41.34,3.48,4.104,13.0
47.859,4.028,4.473,4.0
41.359,3.48,3.626,31.0
41.404,3.483,3.386,39.0
41.479,3.489,3.153,40.0
41.781,3.514,2.935,31.0
41.296,3.485,4.046,35.0
41.354,3.489,3.811,25.0
41.346,3.487,3.571,31.0
41.492,3.498,3.34,32.0
41.485,3.497,3.1,31.0
41.732,3.517,2.877,35.0
41.594,3.517,4.02,38.0
41.33,3.493,3.754,40.0
41.307,3.49,3.513,31.0
41.542,3.509,3.288,38.0
41.502,3.505,3.046,28.0
41.797,3.529,2.826,32.0
41.619,3.524,3.967,43.0
43.247,3.661,3.87,20.0
41.319,3.496,3.459,32.0
41.418,3.503,3.223,43.0
41.622,3.519,2.999,30.0
45.767,3.869,3.034,3.0
41.681,3.533,3.916,25.0
42.499,3.6,3.746,28.0
41.415,3.507,3.41,41.0
41.375,3.502,3.164,38.0
41.836,3.54,2.957,24.0
45.759,3.871,2.971,29.0
41.471,3.517,3.839,32.0
41.46,3.514,3.597,20.0
41.461,3.512,3.357,42.0
41.444,3.509,3.112,30.0
41.79,3.537,2.897,30.0
45.764,3.872,2.908,37.0
41.336,3.505,3.769,41.0
41.314,3.501,3.527,32.0
41.543,3.519,3.306,39.0
41.508,3.514,3.059,26.0
41.802,3.537,2.839,28.0
45.77,3.871,2.845,34.0
43.253,3.666,3.883,22.0
41.3,3.498,3.467,33.0
41.481,3.511,3.243,43.0
41.598,3.519,3.007,30.0
41.792,3.534,2.78,29.0
45.774,3.868,2.781,35.0
42.472,3.596,3.753,28.0
41.427,3.505,3.42,41.0
41.379,3.499,3.176,39.0
41.815,3.533,2.963,32.0
45.763,3.864,2.979,23.0
45.793,3.865,2.717,37.0
41.427,3.503,3.601,27.0
41.473,3.503,3.364,39.0
41.471,3.501,3.124,32.0
41.739,3.521,2.898,36.0
45.75,3.856,2.913,35.0
45.795,3.858,2.652,34.0
41.301,3.485,3.53,34.0
41.559,3.503,3.311,31.0
41.487,3.494,3.065,31.0
41.725,3.512,2.837,37.0
45.759,3.848,2.847,36.0
45.811,3.85,2.587,37.0
41.337,3.479,3.472,36.0
41.458,3.486,3.242,40.0
41.623,3.497,3.014,21.0
41.765,3.505,2.779,30.0
45.756,3.837,2.78,38.0
45.806,3.839,2.519,37.0
41.444,3.477,3.42,44.0
41.465,3.475,3.182,38.0
45.678,3.825,3.24,4.0
45.739,3.826,2.976,11.0
45.772,3.826,2.714,38.0
45.805,3.825,2.452,38.0
41.485,3.468,3.363,37.0
41.476,3.464,3.121,37.0
41.689,3.478,2.896,39.0
45.748,3.812,2.909,25.0
45.785,3.812,2.647,38.0
45.808,3.81,2.385,37.0
41.595,3.463,3.309,17.0
41.445,3.446,3.057,29.0
41.814,3.473,2.843,36.0
45.74,3.795,2.841,38.0
45.786,3.795,2.58,40.0
45.793,3.792,2.316,37.0
41.378,3.429,3.231,39.0
41.851,3.463,3.025,14.0
41.906,3.464,2.786,37.0
45.745,3.777,2.773,38.0
45.801,3.778,2.513,41.0
45.796,3.773,2.248,39.0
41.487,3.42,3.177,38.0
41.813,3.442,2.959,32.0
45.727,3.759,2.972,4.0
45.776,3.759,2.706,38.0
45.798,3.756,2.444,40.0
45.809,3.753,2.18,38.0
41.46,3.397,3.112,43.0
41.736,3.415,2.891,33.0
45.747,3.738,2.904,26.0
45.786,3.737,2.638,35.0
45.803,3.734,2.375,41.0
45.811,3.73,2.112,41.0
41.779,3.402,3.072,38.0
41.816,3.4,2.833,44.0
45.755,3.715,2.836,41.0
45.802,3.714,2.571,42.0
45.808,3.709,2.307,39.0
45.827,3.706,2.044,39.0
41.81,3.38,3.012,39.0
41.937,3.386,2.779,38.0
45.795,3.692,2.77,36.0
45.834,3.69,2.503,39.0
45.824,3.684,2.239,33.0
45.848,3.681,1.976,33.0
41.817,3.356,2.95,47.0
45.794,3.669,2.965,11.0
45.823,3.666,2.703,25.0
45.845,3.662,2.435,30.0
45.871,3.659,2.172,27.0
45.894,3.656,1.909,26.0
41.861,3.332,2.889,26.0
45.821,3.641,2.898,18.0
45.876,3.64,2.637,16.0
45.877,3.634,2.368,14.0
45.928,3.632,2.106,29.0
45.967,3.63,1.844,23.0
41.981,3.313,2.835,36.0
45.866,3.613,2.832,14.0
45.926,3.612,2.571,15.0
45.906,3.604,2.301,31.0
46.022,3.608,2.042,6.0
91.402,7.154,3.532,22.0
45.93,3.591,3.033,7.0
45.918,3.584,2.767,17.0
45.98,3.582,2.506,19.0
71.716,5.577,3.489,9.0
91.157,7.078,3.909,12.0
101.39,7.859,3.765,10.0
45.921,3.554,2.963,35.0
45.984,3.552,2.702,20.0
71.899,5.545,3.811,18.0
71.731,5.521,3.382,23.0
91.0,6.992,3.767,14.0
101.884,7.815,3.632,20.0
45.963,3.52,2.897,33.0
79.552,6.08,4.556,27.0
91.383,6.972,4.707,15.0
71.493,5.443,3.264,9.0
90.649,6.889,3.618,14.0
101.998,7.738,3.484,27.0
81.344,6.16,5.007,14.0
79.256,5.989,4.421,15.0
71.639,5.403,3.584,9.0
71.305,5.367,3.15,24.0
101.97,7.66,3.919,11.0
47.245,3.541,1.544,60.0
81.467,6.096,4.892,16.0
74.178,5.538,4.028,9.0
71.418,5.32,3.467,25.0
90.485,6.728,3.864,23.0
47.819,3.548,1.767,3.0
47.292,3.502,1.476,33.0
78.973,5.835,4.628,5.0
80.947,5.967,4.277,13.0
71.474,5.257,3.365,9.0
90.452,6.638,3.73,22.0
48.216,3.531,1.711,7.0
47.535,3.473,1.414,5.0
78.632,5.732,4.491,4.0
81.243,5.909,4.173,11.0
71.31,5.174,3.253,13.0
102.058,7.388,4.059,43.0
48.435,3.498,1.648,8.0
48.079,3.464,1.36,3.0
41.725,2.998,2.322,8.0
90.579,6.494,4.52,12.0
90.341,6.461,3.989,16.0
93.655,6.682,3.589,11.0
48.754,3.47,1.589,10.0
48.326,3.431,1.297,11.0
41.885,2.965,2.27,14.0
71.874,5.075,3.482,8.0
52.337,3.686,2.235,17.0
52.274,3.673,1.927,20.0
49.132,3.443,1.529,19.0
48.559,3.395,1.234,7.0
52.34,3.648,2.761,20.0
52.281,3.633,2.458,22.0
52.234,3.62,2.156,25.0
52.221,3.61,1.851,5.0
49.448,3.41,1.469,13.0
49.056,3.374,1.176,12.0
52.276,3.583,2.683,21.0
52.232,3.57,2.381,35.0
52.222,3.559,2.081,42.0
50.439,3.429,1.716,4.0
49.776,3.374,1.408,10.0
49.171,3.324,1.11,11.0
52.246,3.519,2.608,28.0
52.218,3.507,2.306,38.0
52.248,3.498,2.008,38.0
50.93,3.4,1.661,11.0
50.137,3.337,1.347,3.0
49.517,3.287,1.047,4.0
52.243,3.455,2.534,43.0
52.272,3.446,2.235,39.0
52.288,3.436,1.937,32.0
52.314,3.428,1.632,31.0
50.708,3.312,1.291,17.0
50.371,3.28,0.995,8.0
52.299,3.392,2.464,37.0
52.379,3.386,2.167,26.0
110.956,7.15,3.956,34.0
110.97,7.13,3.311,21.0
110.789,7.096,2.673,2.0
50.54,3.226,0.93,5.0
52.436,3.332,2.398,5.0
111.017,7.033,4.443,19.0
111.001,7.009,3.808,14.0
111.114,6.993,3.164,10.0
111.22,6.977,2.532,11.0
111.219,6.954,1.898,14.0
111.037,6.91,4.93,40.0
111.032,6.886,4.295,59.0
111.049,6.863,3.66,64.0
111.065,6.839,3.014,93.0
111.068,6.816,2.379,55.0
111.104,6.795,1.746,42.0
115.436,7.025,4.971,34.0
115.466,7.002,4.312,37.0
115.456,6.976,3.652,39.0
113.787,6.848,2.936,1.0
113.988,6.836,2.291,7.0
114.016,6.814,1.642,7.0
115.441,6.863,4.82,34.0
115.452,6.837,4.16,34.0
115.448,6.811,3.5,20.0
115.273,6.774,2.824,4.0
115.347,6.753,2.169,6.0
115.512,6.738,1.513,8.0
118.943,6.9,4.811,14.0
119.182,6.886,4.14,17.0
119.315,6.867,3.464,11.0
116.658,6.687,2.709,7.0
59.477,3.395,1.042,4.0
59.458,3.381,0.703,18.0
119.678,6.766,4.688,32.0
119.687,6.738,4.006,28.0
59.486,3.334,1.651,11.0
59.416,3.317,1.305,25.0
59.38,3.301,0.965,26.0
59.353,3.286,0.627,23.0
59.523,3.275,2.257,7.0
59.444,3.256,1.915,24.0
59.407,3.239,1.575,31.0
59.363,3.222,1.229,33.0
59.354,3.209,0.891,30.0
59.333,3.193,0.554,27.0
59.42,3.178,2.18,28.0
59.393,3.162,1.84,33.0
59.404,3.148,1.503,34.0
59.408,3.134,1.158,33.0
59.411,3.119,0.82,31.0
59.379,3.103,0.482,25.0
59.412,3.084,2.108,35.0
59.433,3.07,1.77,31.0
124.77,6.413,3.005,50.0
124.793,6.384,2.284,149.0
124.826,6.356,1.575,51.0
120.065,6.083,0.832,7.0
59.508,2.993,2.041,10.0
124.836,6.248,3.571,3.0
120.222,5.986,2.755,2.0
125.146,6.199,2.144,3.0
120.032,5.916,1.373,17.0
120.071,5.888,0.692,7.0
126.067,6.135,4.177,2.0
120.206,5.818,3.299,3.0
120.112,5.783,2.613,8.0
120.12,5.752,1.92,13.0
120.026,5.716,1.236,17.0
66.153,3.133,0.305,8.0
61.825,2.905,1.978,7.0
61.08,2.854,1.607,13.0
66.165,3.073,1.364,8.0
66.144,3.056,0.982,19.0
66.13,3.037,0.606,18.0
65.78,3.003,0.23,12.0
63.114,2.857,1.948,12.0
62.161,2.798,1.566,6.0
61.358,2.745,1.197,9.0
66.055,2.937,0.908,19.0
66.043,2.919,0.533,24.0
65.38,2.873,0.157,12.0
64.756,2.82,1.929,20.0
63.854,2.763,1.54,8.0
63.293,2.722,1.167,8.0
62.947,2.689,0.797,8.0
66.054,2.804,0.462,14.0
65.21,2.75,0.087,9.0
66.111,2.763,1.899,26.0
66.193,2.748,1.526,19.0
120.055,4.952,2.088,12.0
66.181,2.711,0.769,19.0
66.107,2.69,0.394,22.0
58.908,2.381,0.018,6.0
120.093,4.807,3.327,11.0
120.068,4.772,2.646,13.0
194.555,7.676,3.186,7.0
119.987,4.7,1.273,20.0
71.727,2.79,0.355,6.0
58.808,2.27,-0.04,12.0
120.085,4.59,3.206,14.0
120.069,4.554,2.526,11.0
120.085,4.519,1.847,21.0
72.403,2.703,0.696,18.0
71.695,2.657,0.285,7.0
58.802,2.162,-0.098,7.0
72.421,2.634,1.863,26.0
72.38,2.611,1.452,29.0
72.358,2.589,1.043,32.0
72.321,2.566,0.626,26.0
71.468,2.515,0.215,7.0
59.113,2.063,-0.155,6.0
72.384,2.497,1.793,33.0
72.364,2.475,1.384,34.0
72.352,2.453,0.975,35.0
72.287,2.429,0.558,32.0
65.566,2.183,0.136,7.0
60.371,1.994,-0.214,3.0
72.491,2.365,1.73,29.0
72.486,2.342,1.32,26.0
72.485,2.32,0.911,30.0
72.404,2.296,0.494,28.0
65.126,2.045,0.077,8.0
55.495,1.726,-0.246,0.0
113.036,-0.224,1.526,9.0
114.487,-0.267,0.911,150.0
0.0,0.0,0.0,0.0
0.0,0.0,0.0,0.0
45.144,-0.154,-0.396,2.0
0.0,0.0,0.0,0.0
119.741,-0.491,1.583,11.0
114.306,-0.511,0.877,8.0
95.178,-0.459,0.203,1.0
0.0,0.0,0.0,0.0
0.0,0.0,0.0,0.0
35.719,-0.211,-0.521,0.0
119.66,-0.748,1.552,19.0
113.895,-0.754,0.846,6.0
0.0,0.0,0.0,0.0
0.0,0.0,0.0,0.0
44.433,-0.342,-0.412,0.0
0.0,0.0,0.0,0.0
119.656,-1.004,1.527,22.0
119.674,-1.048,0.865,8.0
0.0,0.0,0.0,0.0
0.0,0.0,0.0,0.0
0.0,0.0,0.0,0.0
0.0,0.0,0.0,0.0
119.725,-1.259,1.507,13.0
139.217,-1.514,0.983,7.0
0.0,0.0,0.0,0.0
0.0,0.0,0.0,0.0
0.0,0.0,0.0,0.0
35.002,-0.431,-0.529,0.0
0.0,0.0,0.0,0.0
139.028,-1.81,0.964,12.0
0.0,0.0,0.0,0.0
0.0,0.0,0.0,0.0
0.0,0.0,0.0,0.0
34.747,-0.503,-0.529,0.0
0.0,0.0,0.0,0.0
138.819,-2.101,0.95,17.0
0.0,0.0,0.0,0.0
0.0,0.0,0.0,0.0
41.585,-0.675,-0.407,0.0
35.158,-0.584,-0.538,0.0
0.0,0.0,0.0,0.0
139.068,-2.401,0.944,12.0
0.0,0.0,0.0,0.0
0.0,0.0,0.0,0.0
45.051,-0.827,-0.442,1.0
34.752,-0.651,-0.532,0.0
0.0,0.0,0.0,0.0
138.992,-2.697,0.941,13.0
81.459,-1.61,0.103,1.0
57.468,-1.157,-0.248,0.0
44.756,-0.918,-0.439,2.0
34.274,-0.715,-0.525,0.0
0.0,0.0,0.0,0.0
138.932,-2.992,0.944,15.0
0.0,0.0,0.0,0.0
54.605,-1.216,-0.234,0.0
0.0,0.0,0.0,0.0
34.804,-0.8,-0.531,0.0
0.0,0.0,0.0,0.0
138.847,-3.284,0.951,11.0
0.0,0.0,0.0,0.0
0.0,0.0,0.0,0.0
43.744,-1.083,-0.424,2.0
0.0,0.0,0.0,0.0
0.0,0.0,0.0,0.0
138.769,-3.576,0.964,14.0
0.0,0.0,0.0,0.0
54.932,-1.456,-0.226,0.0
43.413,-1.166,-0.416,0.0
34.801,-0.948,-0.524,0.0
0.0,0.0,0.0,0.0
138.453,-3.858,0.98,20.0
0.0,0.0,0.0,0.0
54.892,-1.569,-0.218,0.0
44.351,-1.284,-0.419,2.0
34.908,-1.024,-0.52,0.0
0.0,0.0,0.0,0.0
138.663,-4.157,1.005,11.0
0.0,0.0,0.0,0.0
0.0,0.0,0.0,0.0
44.607,-1.386,-0.412,0.0
0.0,0.0,0.0,0.0
0.0,0.0,0.0,0.0
138.626,-4.445,1.034,13.0
0.0,0.0,0.0,0.0
0.0,0.0,0.0,0.0
44.357,-1.471,-0.4,0.0
0.0,0.0,0.0,0.0
0.0,0.0,0.0,0.0
138.602,-4.732,1.067,17.0
0.0,0.0,0.0,0.0
0.0,0.0,0.0,0.0
0.0,0.0,0.0,0.0
0.0,0.0,0.0,0.0
0.0,0.0,0.0,0.0
138.498,-5.016,1.106,23.0
0.0,0.0,0.0,0.0
0.0,0.0,0.0,0.0
45.331,-1.692,-0.383,0.0
37.785,-1.424,-0.526,0.0
194.346,-7.371,2.673,6.0
138.463,-5.302,1.149,20.0
0.0,0.0,0.0,0.0
0.0,0.0,0.0,0.0
47.629,-1.876,-0.387,1.0
38.087,-1.514,-0.517,0.0
138.265,-5.529,1.949,4.0
138.407,-5.583,1.198,23.0
0.0,0.0,0.0,0.0
0.0,0.0,0.0,0.0
47.165,-1.955,-0.366,0.0
38.429,-1.607,-0.507,1.0
138.095,-5.802,2.0,35.0
138.025,-5.85,1.248,21.0
0.0,0.0,0.0,0.0
0.0,0.0,0.0,0.0
47.492,-2.064,-0.349,0.0
38.332,-1.68,-0.49,0.0
138.079,-6.08,2.058,72.0
138.257,-6.138,1.31,18.0
0.0,0.0,0.0,0.0
0.0,0.0,0.0,0.0
20.03,-0.911,-0.138,3.0
20.015,-0.917,-0.247,20.0
138.16,-6.359,2.122,7.0
138.254,-6.412,1.372,27.0
0.0,0.0,0.0,0.0
20.001,-0.942,-0.02,11.0
19.994,-0.949,-0.128,25.0
19.99,-0.956,-0.237,34.0
20.156,-0.967,0.319,18.0
20.17,-0.975,0.21,3.0
20.04,-0.976,0.1,1.0
19.979,-0.98,-0.01,12.0
19.974,-0.987,-0.118,32.0
19.995,-0.995,-0.227,32.0
20.151,-1.006,0.329,25.0
20.113,-1.011,0.22,20.0
20.011,-1.013,0.11,17.0
19.97,-1.018,0.0,17.0
19.983,-1.026,-0.107,26.0
20.022,-1.035,-0.216,25.0
19.971,-1.036,0.337,14.0
20.011,-1.045,0.23,27.0
19.985,-1.051,0.121,20.0
19.977,-1.057,0.011,26.0
20.004,-1.066,-0.096,24.0
42.693,-2.29,-0.436,0.0
19.958,-1.074,0.349,18.0
19.997,-1.082,0.241,27.0
20.003,-1.09,0.133,25.0
19.998,-1.096,0.023,21.0
20.047,-1.106,-0.084,1.0
0.0,0.0,0.0,0.0
19.955,-1.111,0.361,26.0
19.981,-1.12,0.254,27.0
20.004,-1.128,0.146,15.0
20.023,-1.136,0.036,1.0
19.943,-1.138,-0.071,0.0
19.982,-1.147,-0.178,2.0
19.954,-1.149,0.374,26.0
19.941,-1.155,0.266,19.0
20.018,-1.166,0.159,14.0
19.998,-1.172,0.05,54.0
20.0,-1.179,-0.057,151.0
19.98,-1.184,-0.165,151.0
19.936,-1.184,0.388,22.0
19.945,-1.192,0.28,27.0
19.986,-1.201,0.173,150.0
19.983,-1.208,0.064,150.0
19.989,-1.215,-0.043,150.0
20.041,-1.225,-0.151,25.0
19.938,-1.221,0.402,27.0
19.949,-1.228,0.295,27.0
19.99,-1.237,0.188,25.0
19.994,-1.244,0.078,22.0
19.993,-1.251,-0.028,16.0
19.998,-1.258,-0.136,26.0
19.933,-1.257,0.417,23.0
19.957,-1.265,0.31,22.0
19.96,-1.271,0.202,23.0
19.979,-1.28,0.093,24.0
19.985,-1.286,-0.013,16.0
19.995,-1.294,-0.12,33.0
19.935,-1.293,0.432,16.0
19.934,-1.299,0.325,16.0
19.963,-1.307,0.218,26.0
19.971,-1.314,0.109,20.0
20.005,-1.323,0.002,13.0
19.997,-1.329,-0.104,25.0
20.037,-1.334,0.451,5.0
20.005,-1.338,0.342,6.0
19.996,-1.344,0.235,6.0
20.012,-1.352,0.126,9.0
20.035,-1.36,0.019,6.0
20.018,-1.365,-0.088,15.0
20.04,-1.369,0.468,8.0
20.053,-1.376,0.36,4.0
20.062,-1.383,0.253,0.0
102.809,-7.121,0.736,39.0
63.333,-4.407,0.114,6.0
48.764,-3.409,-0.173,0.0
20.015,-1.401,0.484,10.0
20.015,-1.407,0.377,11.0
20.008,-1.413,0.27,14.0
20.035,-1.421,0.161,23.0
82.067,-5.849,0.221,3.0
48.799,-3.493,-0.13,0.0
20.021,-1.435,0.502,10.0
20.014,-1.44,0.395,10.0
20.003,-1.446,0.288,10.0
20.017,-1.453,0.179,28.0
82.242,-5.997,0.295,8.0
48.887,-3.58,-0.085,1.0
20.052,-1.47,0.522,1.0
72.491,-5.337,1.499,10.0
119.342,-8.821,1.829,24.0
20.038,-1.487,0.197,2.0
82.812,-6.172,0.376,12.0
62.768,-4.697,-0.05,1.0
119.402,-8.947,3.221,11.0
119.37,-8.979,2.582,56.0
119.389,-9.016,1.944,150.0
119.172,-9.036,1.292,16.0
67.881,-5.167,0.374,6.0
61.327,-4.687,0.01,3.0
67.927,-5.198,1.899,66.0
67.894,-5.215,1.535,68.0
67.871,-5.232,1.172,90.0
67.854,-5.25,0.802,86.0
67.854,-5.269,0.44,93.0
67.523,-5.264,0.077,5.0
67.919,-5.301,1.966,44.0
67.926,-5.32,1.603,36.0
67.899,-5.337,1.24,6.0
119.235,-9.407,1.531,17.0
93.285,-7.386,0.699,2.0
64.908,-5.158,0.14,0.0
74.818,-5.953,2.243,6.0
71.837,-5.735,1.77,10.0
126.531,-10.137,2.442,51.0
119.176,-9.581,1.653,17.0
108.57,-8.758,0.928,3.0
72.237,-5.847,0.232,8.0
72.109,-5.844,2.236,28.0
119.335,-9.702,3.066,38.0
126.494,-10.318,2.574,58.0
119.274,-9.761,1.779,17.0
114.36,-9.389,1.096,4.0
80.913,-6.665,0.344,5.0
72.013,-5.938,2.31,5.0
74.946,-6.199,2.004,5.0
119.321,-9.901,2.555,17.0
119.304,-9.932,1.907,57.0
118.991,-9.938,1.269,3.0
83.538,-6.999,0.447,10.0
71.885,-6.029,2.384,13.0
72.701,-6.116,2.024,13.0
119.305,-10.066,2.687,9.0
119.32,-10.099,2.041,75.0
119.077,-10.109,1.402,12.0
86.455,-7.362,0.558,9.0
67.912,-5.788,2.328,21.0
119.25,-10.194,3.453,11.0
119.26,-10.225,2.819,56.0
119.246,-10.254,2.173,80.0
119.187,-10.277,1.538,16.0
89.481,-7.739,0.679,4.0
67.938,-5.881,2.406,39.0
74.756,-6.489,2.249,4.0
72.378,-6.3,1.793,4.0
135.684,-11.843,2.625,68.0
135.685,-11.877,1.905,66.0
93.087,-8.17,0.812,1.0
67.958,-5.971,2.484,38.0
103.818,-9.145,3.243,9.0
74.031,-6.538,1.919,9.0
72.713,-6.439,1.491,8.0
135.656,-12.044,2.06,58.0
111.504,-9.926,1.102,5.0
72.453,-6.456,2.733,7.0
