X,Y,Z,Reflectivity
80.873,1.476,4.708,11.0
91.431,1.664,4.789,14.0
91.505,1.659,4.249,23.0
120.386,2.175,4.888,6.0
91.854,1.653,3.193,26.0
80.117,1.448,4.973,7.0
81.069,1.459,4.557,10.0
91.508,1.641,4.61,12.0
91.532,1.635,4.067,14.0
70.189,1.249,2.709,7.0
91.893,1.629,3.011,25.0
74.288,1.321,4.462,5.0
77.593,1.374,4.206,2.0
85.491,1.507,4.134,12.0
78.728,1.382,3.339,12.0
120.722,2.111,4.416,11.0
91.879,1.6,2.826,20.0
85.118,1.485,4.941,3.0
91.45,1.589,4.773,21.0
92.171,1.594,4.272,22.0
120.357,2.072,4.863,13.0
92.009,1.576,3.18,7.0
91.849,1.566,2.638,23.0
82.546,1.41,4.623,5.0
85.559,1.454,4.292,12.0
78.728,1.331,3.489,17.0
120.385,2.025,4.618,6.0
120.44,2.017,3.92,13.0
91.912,1.531,2.456,28.0
73.015,1.217,3.942,2.0
92.305,1.531,4.445,12.0
120.483,1.988,5.098,16.0
69.996,1.148,2.545,3.0
92.025,1.502,2.81,11.0
91.959,1.492,2.272,22.0
85.618,1.389,4.449,8.0
78.712,1.27,3.63,7.0
120.411,1.931,4.849,15.0
70.058,1.117,2.406,15.0
92.087,1.459,2.625,4.0
92.011,1.449,2.086,10.0
85.594,1.348,4.275,9.0
78.751,1.232,3.472,11.0
69.842,1.085,2.671,13.0
119.922,1.851,3.875,13.0
119.927,1.84,3.177,10.0
99.231,1.512,2.05,7.0
78.763,1.198,3.773,6.0
120.329,1.818,5.061,13.0
70.028,1.05,2.536,6.0
98.523,1.468,2.985,19.0
98.659,1.459,2.414,14.0
119.946,1.762,2.237,44.0
78.74,1.154,3.614,17.0
69.885,1.016,2.799,13.0
70.042,1.011,2.397,12.0
98.524,1.412,2.788,28.0
98.646,1.402,2.216,27.0
98.587,1.39,1.641,33.0
98.178,1.38,4.309,28.0
98.283,1.37,3.74,16.0
69.789,0.965,2.25,9.0
98.526,1.351,2.592,30.0
98.586,1.341,2.02,29.0
98.537,1.329,1.445,30.0
98.219,1.319,4.116,26.0
69.781,0.928,2.516,12.0
98.475,1.298,2.977,35.0
98.566,1.288,2.397,30.0
98.553,1.276,1.822,31.0
98.54,1.263,1.247,31.0
98.286,1.254,3.923,21.0
69.773,0.881,2.377,10.0
98.552,1.232,2.784,34.0
98.541,1.22,2.2,32.0
98.529,1.207,1.626,32.0
98.542,1.194,1.052,30.0
69.899,0.842,2.65,7.0
98.589,1.175,3.163,22.0
98.544,1.161,2.588,26.0
98.531,1.148,2.004,34.0
98.547,1.135,1.431,32.0
98.403,1.12,0.856,16.0
69.831,0.788,2.509,9.0
98.69,1.102,2.972,25.0
98.624,1.087,2.395,25.0
98.571,1.073,1.811,30.0
98.581,1.06,1.236,30.0
98.231,1.043,0.661,8.0
98.733,1.038,3.353,17.0
98.726,1.024,2.778,25.0
98.686,1.01,2.203,19.0
98.66,0.995,1.618,28.0
98.63,0.981,1.043,25.0
85.504,0.838,0.407,5.0
69.883,0.677,2.237,10.0
104.726,1.0,2.743,36.0
104.719,0.985,2.133,34.0
104.723,0.969,1.512,25.0
98.565,0.897,0.85,15.0
83.954,0.752,0.235,1.0
104.677,0.925,3.147,40.0
104.729,0.909,2.538,12.0
104.735,0.894,1.929,36.0
104.764,0.878,1.31,37.0
98.189,0.808,0.657,15.0
84.158,0.679,0.073,0.0
104.748,0.833,2.946,30.0
100.139,0.78,2.233,1.0
104.764,0.8,1.727,20.0
104.824,0.783,1.107,30.0
90.584,0.663,0.431,4.0
70.929,0.508,-0.074,0.0
104.814,0.735,2.745,18.0
100.824,0.691,2.054,1.0
99.977,0.669,1.455,3.0
104.914,0.685,0.906,24.0
86.558,0.55,0.244,5.0
0.0,0.0,0.0,0.0
111.074,0.672,2.696,31.0
101.29,0.596,1.87,2.0
100.423,0.573,1.269,4.0
104.561,0.58,0.704,7.0
0.0,0.0,0.0,0.0
54.892,0.286,-0.267,0.0
111.092,0.561,2.486,27.0
101.516,0.495,1.681,2.0
111.014,0.522,1.193,11.0
90.84,0.412,0.44,1.0
70.765,0.309,-0.068,0.0
49.964,0.209,-0.337,0.0
193.349,0.78,3.966,22.0
119.84,0.461,1.761,21.0
110.998,0.408,0.986,12.0
90.902,0.318,0.271,1.0
0.0,0.0,0.0,0.0
43.004,0.135,-0.371,0.0
119.88,0.354,2.234,8.0
119.706,0.332,1.536,9.0
110.724,0.287,0.777,5.0
0.0,0.0,0.0,0.0
52.795,0.117,-0.248,0.0
42.8,0.087,-0.449,0.0
111.07,0.206,1.863,6.0
111.151,0.184,1.218,18.0
0.0,0.0,0.0,0.0
73.22,0.094,-0.054,1.0
49.724,0.054,-0.325,0.0
0.0,0.0,0.0,0.0
111.079,0.08,1.66,14.0
111.157,0.059,1.016,7.0
95.618,0.032,0.319,6.0
0.0,0.0,0.0,0.0
45.345,-0.001,-0.378,2.0
0.0,0.0,0.0,0.0
111.118,-0.048,1.46,11.0
110.89,-0.069,0.815,9.0
0.0,0.0,0.0,0.0
0.0,0.0,0.0,0.0
0.0,0.0,0.0,0.0
34.368,-0.048,-0.547,0.0
119.712,-0.194,1.36,11.0
110.491,-0.201,0.616,5.0
0.0,0.0,0.0,0.0
0.0,0.0,0.0,0.0
0.0,0.0,0.0,0.0
32.513,-0.085,-0.575,0.0
114.452,-0.325,1.1,76.0
101.991,-0.31,0.389,1.0
64.356,-0.209,-0.127,0.0
45.287,-0.157,-0.356,1.0
37.165,-0.136,-0.508,0.0
30.057,-0.116,-0.584,0.0
114.315,-0.468,0.899,4.0
0.0,0.0,0.0,0.0
0.0,0.0,0.0,0.0
0.0,0.0,0.0,0.0
0.0,0.0,0.0,0.0
29.135,-0.15,-0.617,0.0
111.028,-0.597,0.682,4.0
0.0,0.0,0.0,0.0
0.0,0.0,0.0,0.0
39.774,-0.24,-0.45,0.0
32.452,-0.203,-0.555,0.0
27.629,-0.178,-0.632,0.0
0.0,0.0,0.0,0.0
0.0,0.0,0.0,0.0
0.0,0.0,0.0,0.0
38.174,-0.281,-0.497,0.0
30.347,-0.23,-0.57,0.0
26.294,-0.205,-0.646,0.0
0.0,0.0,0.0,0.0
0.0,0.0,0.0,0.0
0.0,0.0,0.0,0.0
35.628,-0.31,-0.522,0.0
29.322,-0.262,-0.6,0.0
24.827,-0.228,-0.652,0.0
0.0,0.0,0.0,0.0
0.0,0.0,0.0,0.0
0.0,0.0,0.0,0.0
0.0,0.0,0.0,0.0
27.756,-0.287,-0.613,0.0
24.204,-0.256,-0.674,0.0
0.0,0.0,0.0,0.0
0.0,0.0,0.0,0.0
0.0,0.0,0.0,0.0
31.724,-0.365,-0.568,0.0
26.888,-0.316,-0.637,0.0
23.401,-0.28,-0.69,0.0
0.0,0.0,0.0,0.0
47.193,-0.588,-0.37,1.0
36.28,-0.461,-0.494,0.0
30.402,-0.393,-0.592,0.0
25.958,-0.342,-0.656,0.0
22.492,-0.302,-0.698,0.0
0.0,0.0,0.0,0.0
42.092,-0.585,-0.396,0.0
34.988,-0.495,-0.531,0.0
0.0,0.0,0.0,0.0
24.735,-0.362,-0.663,0.0
21.942,-0.327,-0.715,0.0
0.0,0.0,0.0,0.0
0.0,0.0,0.0,0.0
32.323,-0.505,-0.539,0.0
27.938,-0.443,-0.63,0.0
23.846,-0.384,-0.675,0.0
21.289,-0.348,-0.726,0.0
50.13,-0.833,-0.334,0.0
0.0,0.0,0.0,0.0
0.0,0.0,0.0,0.0
26.575,-0.462,-0.639,0.0
23.268,-0.41,-0.694,0.0
20.339,-0.364,-0.724,0.0
45.344,-0.823,-0.369,2.0
37.056,-0.682,-0.515,0.0
0.0,0.0,0.0,0.0
25.856,-0.489,-0.659,0.0
22.331,-0.428,-0.698,0.0
19.855,-0.386,-0.735,0.0
45.045,-0.887,-0.432,0.0
34.609,-0.69,-0.53,0.0
28.882,-0.583,-0.609,0.0
24.759,-0.506,-0.667,0.0
18.16,-0.376,-0.594,150.0
18.137,-0.381,-0.698,25.0
0.0,0.0,0.0,0.0
33.314,-0.716,-0.557,0.0
27.584,-0.6,-0.62,0.0
18.135,-0.399,-0.514,13.0
18.1,-0.403,-0.617,161.0
18.118,-0.409,-0.722,63.0
0.0,0.0,0.0,0.0
0.0,0.0,0.0,0.0
26.559,-0.62,-0.633,0.0
18.153,-0.428,-0.539,150.0
18.088,-0.432,-0.641,156.0
18.108,-0.437,-0.746,40.0
0.0,0.0,0.0,0.0
0.0,0.0,0.0,0.0
21.912,-0.546,-0.551,152.0
18.151,-0.458,-0.563,153.0
18.137,-0.462,-0.667,51.0
18.074,-0.466,-0.769,13.0
34.788,-0.905,-0.522,0.0
21.927,-0.576,-0.454,27.0
21.853,-0.58,-0.578,168.0
21.849,-0.586,-0.706,25.0
21.88,-0.593,-0.833,17.0
17.906,-0.491,-0.785,0.0
0.0,0.0,0.0,0.0
21.912,-0.612,-0.482,153.0
21.906,-0.618,-0.608,152.0
21.827,-0.622,-0.733,4.0
21.883,-0.63,-0.86,18.0
21.929,-0.637,-0.988,0.0
31.341,-0.918,-0.549,0.0
21.905,-0.648,-0.509,23.0
21.887,-0.654,-0.634,11.0
20.98,-0.632,-0.73,0.0
18.513,-0.564,-0.751,0.0
16.957,-0.521,-0.785,0.0
30.75,-0.952,-0.575,0.0
26.367,-0.824,-0.644,0.0
21.949,-0.692,-0.662,0.0
20.251,-0.644,-0.729,0.0
18.249,-0.586,-0.762,0.0
16.575,-0.537,-0.787,0.0
29.901,-0.976,-0.594,0.0
25.611,-0.843,-0.655,0.0
22.012,-0.731,-0.689,0.0
19.767,-0.662,-0.734,0.0
17.935,-0.606,-0.769,0.0
16.424,-0.56,-0.798,0.0
28.68,-0.985,-0.602,0.0
24.824,-0.859,-0.663,0.0
21.693,-0.757,-0.704,0.0
19.229,-0.677,-0.736,0.0
17.544,-0.623,-0.772,0.0
16.021,-0.574,-0.797,0.0
0.0,0.0,0.0,0.0
0.0,0.0,0.0,0.0
21.331,-0.781,-0.715,0.0
19.037,-0.703,-0.749,0.0
17.276,-0.643,-0.779,0.0
15.814,-0.594,-0.803,0.0
27.042,-1.021,-0.626,0.0
23.658,-0.9,-0.683,0.0
20.724,-0.795,-0.717,0.0
18.586,-0.719,-0.751,0.0
16.976,-0.661,-0.783,0.0
15.573,-0.612,-0.807,0.0
26.647,-1.052,-0.644,0.0
22.939,-0.913,-0.686,0.0
20.318,-0.814,-0.723,0.0
18.333,-0.74,-0.759,0.0
16.714,-0.68,-0.787,0.0
15.36,-0.63,-0.812,0.0
25.827,-1.065,-0.65,0.0
22.571,-0.937,-0.696,0.0
20.042,-0.839,-0.733,0.0
17.988,-0.758,-0.762,0.0
16.496,-0.7,-0.793,0.0
15.042,-0.643,-0.809,0.0
25.233,-1.084,-0.659,0.0
21.974,-0.951,-0.698,0.0
19.74,-0.86,-0.74,0.0
17.734,-0.778,-0.768,0.0
16.228,-0.717,-0.795,0.0
14.949,-0.666,-0.818,0.0
24.695,-1.104,-0.667,0.0
21.514,-0.969,-0.703,0.0
19.309,-0.875,-0.741,0.0
17.533,-0.8,-0.775,0.0
16.023,-0.737,-0.799,0.0
14.623,-0.677,-0.813,0.0
24.232,-1.126,-0.675,0.0
21.137,-0.989,-0.709,0.0
19.385,-0.913,-0.761,0.0
17.368,-0.824,-0.782,0.0
20.109,-0.96,-1.02,0.0
14.592,-0.701,-0.823,0.0
20.088,-0.969,-0.576,1.0
19.993,-0.971,-0.687,8.0
18.844,-0.921,-0.755,0.0
20.058,-0.987,-0.919,0.0
20.086,-0.995,-1.035,0.0
14.454,-0.72,-0.827,0.0
20.074,-1.004,-0.591,27.0
19.973,-1.005,-0.702,6.0
20.081,-1.017,-0.82,0.0
20.076,-1.023,-0.936,0.0
20.057,-1.029,-1.049,0.0
14.259,-0.736,-0.827,0.0
20.075,-1.039,-0.606,29.0
19.93,-1.038,-0.715,3.0
20.064,-1.052,-0.834,0.0
16.558,-0.873,-0.784,0.0
15.241,-0.809,-0.808,0.0
14.136,-0.755,-0.83,0.0
20.103,-1.076,-0.621,6.0
19.894,-1.072,-0.728,2.0
17.959,-0.973,-0.759,0.0
16.458,-0.897,-0.79,0.0
15.089,-0.827,-0.81,0.0
13.995,-0.772,-0.831,0.0
0.0,0.0,0.0,0.0
19.877,-1.105,-0.74,2.0
17.836,-0.998,-0.765,0.0
16.38,-0.922,-0.797,0.0
14.955,-0.847,-0.812,0.0
13.868,-0.79,-0.832,0.0
21.686,-1.238,-0.698,0.0
19.847,-1.139,-0.751,1.0
17.626,-1.018,-0.767,0.0
16.153,-0.938,-0.796,0.0
14.833,-0.866,-0.815,0.0
13.716,-0.805,-0.831,0.0
19.985,-1.176,-0.655,58.0
19.895,-1.177,-0.764,3.0
17.486,-1.04,-0.77,0.0
20.017,-1.197,-0.997,0.0
14.758,-0.887,-0.819,0.0
13.703,-0.829,-0.838,0.0
19.972,-1.21,-0.665,12.0
19.91,-1.213,-0.775,0.0
17.424,-1.067,-0.777,0.0
15.905,-0.979,-0.8,0.0
14.689,-0.91,-0.822,0.0
13.594,-0.846,-0.838,0.0
20.077,-1.252,-0.679,10.0
20.027,-1.256,-0.79,0.0
20.149,-1.27,-0.908,0.0
15.984,-1.013,-0.812,0.0
14.578,-0.928,-0.823,0.0
13.593,-0.87,-0.844,0.0
20.082,-1.288,-0.688,12.0
20.059,-1.293,-0.8,1.0
20.139,-1.305,-0.917,0.0
20.033,-1.305,-1.027,0.0
14.458,-0.946,-0.823,0.0
13.493,-0.888,-0.844,0.0
20.116,-1.325,-0.697,10.0
0.0,0.0,0.0,0.0
20.144,-1.341,-0.925,0.0
15.628,-1.045,-0.807,0.0
14.326,-0.963,-0.821,0.0
13.415,-0.906,-0.844,0.0
20.049,-1.357,-0.703,1.0
18.278,-1.243,-0.743,0.0
16.848,-1.151,-0.78,0.0
15.513,-1.065,-0.807,0.0
14.319,-0.988,-0.825,0.0
13.374,-0.927,-0.846,0.0
20.046,-1.391,-0.709,2.0
18.269,-1.274,-0.749,0.0
16.858,-1.181,-0.786,0.0
15.36,-1.081,-0.804,0.0
14.249,-1.008,-0.826,0.0
13.334,-0.947,-0.848,0.0
19.867,-1.413,-0.709,1.0
18.274,-1.306,-0.754,0.0
16.64,-1.195,-0.78,0.0
15.281,-1.102,-0.804,0.0
14.27,-1.034,-0.831,0.0
13.247,-0.965,-0.846,0.0
19.739,-1.438,-0.709,0.0
18.1,-1.325,-0.752,0.0
16.764,-1.232,-0.79,0.0
15.268,-1.128,-0.807,0.0
14.139,-1.049,-0.827,0.0
13.263,-0.989,-0.85,0.0
20.32,-1.516,-0.734,0.0
18.15,-1.36,-0.758,0.0
16.609,-1.25,-0.786,0.0
15.23,-1.151,-0.808,0.0
14.184,-1.077,-0.832,0.0
13.2,-1.007,-0.848,0.0
20.15,-1.537,-0.732,0.0
17.986,-1.378,-0.754,0.0
16.614,-1.278,-0.789,0.0
15.214,-1.176,-0.809,0.0
14.123,-1.096,-0.83,0.0
13.2,-1.029,-0.85,0.0
20.065,-1.565,-0.731,0.0
18.047,-1.413,-0.759,0.0
16.615,-1.307,-0.791,0.0
15.246,-1.204,-0.813,0.0
14.112,-1.119,-0.831,0.0
13.168,-1.049,-0.849,0.0
19.978,-1.592,-0.73,0.0
17.998,-1.44,-0.758,0.0
16.703,-1.342,-0.797,0.0
15.191,-1.225,-0.811,0.0
14.104,-1.142,-0.832,0.0
13.183,-1.072,-0.851,0.0
20.041,-1.63,-0.733,0.0
18.036,-1.473,-0.76,0.0
16.555,-1.357,-0.79,0.0
15.225,-1.253,-0.813,0.0
14.13,-1.167,-0.833,0.0
13.161,-1.092,-0.85,0.0
19.881,-1.649,-0.728,0.0
18.049,-1.503,-0.761,0.0
16.554,-1.384,-0.79,0.0
15.201,-1.276,-0.812,0.0
14.161,-1.194,-0.835,0.0
13.135,-1.111,-0.848,0.0
19.885,-1.682,-0.727,0.0
18.017,-1.53,-0.759,0.0
16.697,-1.423,-0.796,0.0
15.179,-1.299,-0.81,0.0
14.079,-1.21,-0.829,0.0
13.176,-1.136,-0.85,0.0
19.935,-1.719,-0.728,0.0
18.087,-1.565,-0.761,0.0
16.576,-1.44,-0.789,0.0
15.269,-1.331,-0.813,0.0
14.21,-1.243,-0.836,0.0
13.153,-1.155,-0.847,0.0
20.024,-1.758,-0.729,0.0
18.073,-1.593,-0.758,0.0
16.529,-1.462,-0.785,0.0
15.351,-1.362,-0.816,0.0
14.132,-1.259,-0.83,0.0
13.204,-1.18,-0.849,0.0
20.098,-1.797,-0.729,0.0
17.86,-1.602,-0.746,0.0
16.672,-1.501,-0.789,1.0
15.371,-1.388,-0.814,0.0
14.188,-1.286,-0.83,0.0
13.17,-1.198,-0.844,0.0
19.558,-1.779,-0.705,0.0
18.296,-1.67,-0.761,0.0
16.619,-1.522,-0.783,0.0
15.364,-1.412,-0.811,0.0
14.258,-1.315,-0.831,0.0
13.282,-1.229,-0.848,0.0
18.639,-1.724,-0.668,1.0
18.412,-1.708,-0.762,0.0
16.721,-1.556,-0.784,1.0
15.402,-1.438,-0.809,0.0
14.196,-1.33,-0.824,0.0
13.311,-1.252,-0.847,0.0
18.013,-1.693,-0.641,2.0
17.804,-1.678,-0.732,1.0
16.801,-1.589,-0.783,0.0
15.372,-1.459,-0.803,0.0
14.283,-1.36,-0.825,0.0
13.308,-1.271,-0.843,0.0
17.756,-1.695,-0.627,2.0
17.199,-1.647,-0.702,1.0
16.981,-1.631,-0.786,0.0
15.387,-1.483,-0.799,1.0
14.409,-1.393,-0.828,0.0
13.371,-1.297,-0.842,0.0
17.869,-1.732,-0.624,3.0
16.563,-1.61,-0.67,1.0
16.47,-1.606,-0.757,0.0
15.577,-1.524,-0.803,1.0
14.402,-1.413,-0.822,0.0
13.429,-1.322,-0.841,0.0
17.991,-1.769,-0.622,3.0
16.287,-1.607,-0.653,2.0
15.96,-1.579,-0.728,1.0
15.727,-1.56,-0.805,0.0
14.487,-1.442,-0.821,0.0
13.521,-1.35,-0.841,0.0
17.824,-1.778,-0.609,14.0
16.305,-1.631,-0.647,5.0
15.502,-1.555,-0.7,1.0
15.458,-1.555,-0.785,0.0
14.895,-1.503,-0.838,0.0
13.545,-1.371,-0.837,0.0
17.774,-1.798,-0.6,19.0
16.35,-1.658,-0.641,9.0
15.136,-1.539,-0.677,1.0
14.875,-1.517,-0.748,0.0
14.736,-1.507,-0.823,0.0
13.698,-1.405,-0.84,0.0
17.68,-1.812,-0.588,17.0
16.427,-1.688,-0.636,12.0
15.036,-1.549,-0.665,1.0
14.468,-1.495,-0.721,1.0
14.414,-1.493,-0.797,0.0
14.057,-1.46,-0.855,0.0
18.034,-1.872,-0.591,19.0
16.419,-1.709,-0.628,14.0
15.184,-1.584,-0.664,1.0
14.203,-1.486,-0.7,1.0
14.082,-1.477,-0.771,0.0
13.925,-1.465,-0.839,0.0
18.16,-1.908,-0.585,19.0
16.366,-1.724,-0.617,14.0
15.337,-1.62,-0.662,4.0
14.055,-1.488,-0.685,1.0
13.749,-1.46,-0.745,0.0
13.664,-1.454,-0.816,0.0
18.264,-1.942,-0.578,20.0
16.403,-1.749,-0.609,14.0
15.309,-1.636,-0.652,10.0
14.118,-1.512,-0.68,1.0
13.437,-1.443,-0.72,0.0
13.364,-1.439,-0.79,0.0
18.272,-1.966,-0.567,24.0
16.488,-1.778,-0.602,14.0
15.258,-1.649,-0.64,13.0
14.275,-1.546,-0.678,2.0
13.236,-1.437,-0.701,1.0
13.078,-1.424,-0.765,0.0
18.317,-1.992,-0.557,18.0
16.78,-1.829,-0.602,15.0
14.955,-1.634,-0.618,12.0
14.317,-1.568,-0.671,8.0
13.237,-1.453,-0.693,1.0
12.763,-1.404,-0.738,0.0
18.517,-2.036,-0.551,18.0
17.036,-1.877,-0.599,22.0
15.285,-1.687,-0.621,12.0
14.336,-1.586,-0.662,12.0
13.318,-1.477,-0.688,1.0
12.565,-1.397,-0.718,1.0
18.641,-2.07,-0.542,19.0
17.165,-1.91,-0.592,19.0
15.61,-1.741,-0.623,16.0
14.321,-1.6,-0.651,13.0
13.506,-1.513,-0.688,1.0
12.498,-1.403,-0.705,1.0
18.867,-2.116,-0.534,28.0
17.211,-1.934,-0.581,15.0
15.761,-1.774,-0.618,18.0
14.303,-1.614,-0.64,12.0
13.702,-1.549,-0.688,3.0
12.557,-1.423,-0.699,1.0
19.037,-2.155,-0.525,23.0
17.348,-1.967,-0.572,16.0
15.949,-1.812,-0.613,15.0
14.299,-1.628,-0.629,11.0
13.694,-1.562,-0.677,10.0
12.693,-1.451,-0.696,1.0
19.227,-2.196,-0.515,26.0
17.527,-2.005,-0.565,16.0
16.069,-1.842,-0.605,15.0
14.443,-1.658,-0.624,11.0
13.642,-1.569,-0.663,12.0
12.853,-1.482,-0.695,0.0
19.388,-2.233,-0.504,30.0
17.727,-2.045,-0.557,16.0
16.206,-1.873,-0.597,15.0
14.986,-1.735,-0.635,14.0
13.644,-1.583,-0.652,12.0
13.066,-1.518,-0.696,1.0
19.759,-2.294,-0.497,20.0
17.98,-2.091,-0.55,23.0
16.31,-1.9,-0.587,14.0
15.119,-1.764,-0.628,14.0
13.904,-1.625,-0.653,12.0
13.089,-1.533,-0.686,7.0
20.166,-2.359,-0.491,18.0
18.191,-2.132,-0.541,17.0
16.414,-1.927,-0.577,14.0
15.215,-1.789,-0.619,15.0
14.08,-1.658,-0.649,12.0
13.087,-1.544,-0.674,11.0
20.326,-2.396,-0.477,19.0
18.445,-2.177,-0.532,17.0
16.66,-1.969,-0.571,15.0
15.259,-1.807,-0.607,18.0
14.229,-1.687,-0.643,12.0
13.096,-1.556,-0.663,11.0
20.643,-2.45,-0.466,20.0
18.651,-2.216,-0.522,17.0
16.948,-2.017,-0.566,14.0
15.363,-1.831,-0.597,17.0
14.328,-1.71,-0.634,12.0
13.211,-1.579,-0.656,11.0
21.19,-2.531,-0.459,22.0
18.88,-2.258,-0.511,19.0
17.316,-2.074,-0.562,14.0
15.573,-1.868,-0.591,15.0
14.491,-1.741,-0.628,13.0
13.477,-1.621,-0.657,10.0
21.549,-2.59,-0.446,22.0
19.278,-2.32,-0.503,25.0
17.633,-2.125,-0.555,16.0
15.717,-1.896,-0.581,13.0
14.656,-1.771,-0.621,14.0
13.752,-1.664,-0.657,11.0
21.797,-2.635,-0.431,21.0
19.458,-2.355,-0.489,25.0
17.865,-2.165,-0.545,16.0
15.965,-1.937,-0.575,13.0
14.886,-1.808,-0.616,14.0
13.877,-1.688,-0.649,13.0
22.301,-2.711,-0.418,27.0
19.832,-2.413,-0.479,19.0
18.086,-2.203,-0.534,16.0
16.283,-1.986,-0.57,13.0
15.074,-1.841,-0.609,15.0
13.974,-1.708,-0.64,13.0
22.76,-2.78,-0.404,25.0
20.178,-2.467,-0.467,18.0
18.283,-2.238,-0.521,17.0
16.618,-2.036,-0.565,14.0
15.271,-1.873,-0.601,15.0
14.104,-1.732,-0.632,13.0
23.321,-2.862,-0.39,23.0
20.559,-2.525,-0.455,19.0
18.507,-2.276,-0.509,17.0
16.946,-2.086,-0.559,14.0
15.448,-1.903,-0.593,15.0
14.305,-1.764,-0.626,13.0
23.864,-2.941,-0.375,21.0
20.902,-2.578,-0.441,18.0
18.75,-2.315,-0.496,17.0
17.271,-2.134,-0.552,15.0
15.595,-1.929,-0.582,15.0
14.453,-1.79,-0.617,14.0
24.602,-3.044,-0.361,23.0
21.499,-2.662,-0.431,18.0
18.969,-2.351,-0.482,16.0
17.608,-2.184,-0.544,15.0
15.802,-1.962,-0.573,13.0
14.685,-1.825,-0.611,14.0
25.231,-3.133,-0.343,21.0
22.004,-2.734,-0.417,19.0
19.401,-2.413,-0.472,16.0
17.846,-2.221,-0.532,16.0
16.094,-2.004,-0.566,13.0
14.921,-1.86,-0.605,13.0
25.899,-3.226,-0.324,19.0
22.59,-2.816,-0.404,20.0
20.013,-2.496,-0.465,20.0
18.125,-2.262,-0.52,17.0
16.457,-2.055,-0.561,13.0
15.204,-1.9,-0.6,14.0
0.0,0.0,0.0,0.0
23.039,-2.879,-0.387,24.0
20.491,-2.562,-0.454,22.0
18.354,-2.297,-0.507,17.0
16.859,-2.111,-0.556,14.0
15.42,-1.932,-0.591,15.0
29.688,-3.718,-0.307,21.0
23.363,-2.927,-0.366,29.0
20.885,-2.618,-0.439,19.0
18.63,-2.336,-0.494,16.0
17.366,-2.179,-0.553,16.0
15.616,-1.96,-0.581,15.0
30.656,-3.847,-0.283,9.0
24.218,-3.04,-0.353,19.0
21.147,-2.655,-0.422,17.0
19.044,-2.392,-0.484,17.0
17.531,-2.203,-0.539,16.0
15.898,-1.999,-0.574,14.0
35.589,-4.473,-0.289,12.0
0.0,0.0,0.0,0.0
21.444,-2.697,-0.403,17.0
19.589,-2.464,-0.475,18.0
17.816,-2.242,-0.528,15.0
16.132,-2.031,-0.564,13.0
36.029,-4.534,-0.251,16.0
28.867,-3.634,-0.356,1.0
22.669,-2.854,-0.401,20.0
20.032,-2.523,-0.464,21.0
18.276,-2.302,-0.521,18.0
16.498,-2.079,-0.559,14.0
37.033,-4.665,-0.217,15.0
28.72,-3.618,-0.322,19.0
23.096,-2.91,-0.382,22.0
20.472,-2.58,-0.45,20.0
18.426,-2.323,-0.504,17.0
16.921,-2.134,-0.554,14.0
37.863,-4.772,-0.178,25.0
29.768,-3.752,-0.299,18.0
23.72,-2.99,-0.365,24.0
20.832,-2.626,-0.435,17.0
18.778,-2.368,-0.492,17.0
17.401,-2.194,-0.55,16.0
38.523,-4.857,-0.138,14.0
35.471,-4.472,-0.316,2.0
24.356,-3.07,-0.348,20.0
21.137,-2.665,-0.417,16.0
19.233,-2.425,-0.482,17.0
17.63,-2.223,-0.537,16.0
0.0,0.0,0.0,0.0
35.806,-4.513,-0.279,12.0
0.0,0.0,0.0,0.0
0.0,0.0,0.0,0.0
19.74,-2.487,-0.473,19.0
18.132,-2.285,-0.531,17.0
0.0,0.0,0.0,0.0
36.357,-4.579,-0.242,13.0
0.0,0.0,0.0,0.0
22.767,-2.867,-0.397,20.0
20.249,-2.549,-0.461,22.0
18.356,-2.311,-0.517,19.0
0.0,0.0,0.0,0.0
37.356,-4.701,-0.205,13.0
29.42,-3.701,-0.319,22.0
23.189,-2.916,-0.378,24.0
20.676,-2.6,-0.448,20.0
18.55,-2.332,-0.501,17.0
46.691,-5.869,0.045,21.0
38.253,-4.807,-0.166,21.0
30.416,-3.821,-0.295,9.0
23.977,-3.011,-0.363,28.0
21.033,-2.64,-0.431,19.0
18.929,-2.376,-0.489,16.0
50.685,-6.361,0.108,4.0
38.76,-4.862,-0.124,14.0
35.499,-4.451,-0.303,7.0
0.0,0.0,0.0,0.0
21.478,-2.691,-0.415,19.0
19.323,-2.42,-0.477,17.0
50.912,-6.376,0.167,6.0
40.828,-5.111,-0.083,16.0
35.913,-4.493,-0.265,23.0
25.764,-3.222,-0.331,17.0
22.564,-2.82,-0.41,21.0
20.005,-2.5,-0.471,21.0
52.524,-6.562,0.233,2.0
45.991,-5.743,-0.042,13.0
36.978,-4.615,-0.231,14.0
0.0,0.0,0.0,0.0
23.114,-2.881,-0.394,23.0
20.522,-2.557,-0.46,21.0
66.895,-8.335,0.373,2.0
46.422,-5.78,0.01,21.0
37.965,-4.724,-0.194,24.0
29.594,-3.68,-0.312,19.0
23.918,-2.972,-0.38,21.0
21.013,-2.61,-0.446,18.0
83.61,-10.385,0.561,8.0
47.218,-5.86,0.065,20.0
38.587,-4.785,-0.153,14.0
35.399,-4.387,-0.334,2.0
24.885,-3.082,-0.368,22.0
21.627,-2.676,-0.435,19.0
85.253,-10.551,0.669,5.0
51.224,-6.334,0.127,13.0
0.0,0.0,0.0,0.0
35.693,-4.407,-0.296,16.0
25.477,-3.143,-0.348,23.0
22.284,-2.747,-0.423,21.0
88.509,-10.912,0.793,5.0
52.437,-6.458,0.189,9.0
0.0,0.0,0.0,0.0
36.125,-4.441,-0.26,20.0
0.0,0.0,0.0,0.0
22.974,-2.82,-0.411,22.0
90.679,-11.131,0.914,8.0
63.242,-7.755,0.299,6.0
45.683,-5.596,-0.028,20.0
37.328,-4.568,-0.226,19.0
29.43,-3.598,-0.336,31.0
23.697,-2.894,-0.397,23.0
100.907,-12.328,1.129,7.0
83.488,-10.188,0.487,8.0
46.429,-5.66,0.023,21.0
38.261,-4.659,-0.19,24.0
30.147,-3.667,-0.311,20.0
24.61,-2.991,-0.385,22.0
100.982,-12.274,1.242,6.0
0.0,0.0,0.0,0.0
0.0,0.0,0.0,0.0
38.829,-4.703,-0.15,14.0
35.388,-4.281,-0.326,9.0
25.21,-3.047,-0.368,18.0
73.272,-8.857,0.98,6.0
85.195,-10.284,0.683,9.0
51.379,-6.195,0.136,25.0
41.612,-5.011,-0.116,17.0
35.679,-4.291,-0.291,25.0
0.0,0.0,0.0,0.0
73.253,-8.802,1.059,18.0
89.687,-10.762,0.815,10.0
52.241,-6.26,0.194,3.0
45.864,-5.489,-0.078,6.0
36.494,-4.362,-0.258,13.0
0.0,0.0,0.0,0.0
73.138,-8.733,1.135,11.0
91.277,-10.883,0.927,14.0
78.018,-9.289,0.373,3.0
46.195,-5.492,-0.031,21.0
37.611,-4.466,-0.227,23.0
29.789,-3.532,-0.339,22.0
73.119,-8.672,1.21,18.0
107.921,-12.781,1.208,7.0
83.38,-9.859,0.486,12.0
46.78,-5.523,0.016,18.0
38.498,-4.539,-0.192,14.0
30.973,-3.646,-0.321,9.0
73.208,-8.621,1.287,10.0
112.195,-13.191,1.37,12.0
75.215,-8.829,0.515,18.0
0.0,0.0,0.0,0.0
39.058,-4.57,-0.156,14.0
35.442,-4.141,-0.332,13.0
73.303,-8.568,1.363,9.0
75.246,-8.78,0.995,18.0
75.214,-8.761,0.59,30.0
51.157,-5.949,0.121,25.0
0.0,0.0,0.0,0.0
35.783,-4.148,-0.299,22.0
73.324,-8.502,1.436,26.0
75.226,-8.707,1.07,30.0
75.204,-8.689,0.665,32.0
51.717,-5.964,0.174,3.0
0.0,0.0,0.0,0.0
36.906,-4.242,-0.272,15.0
73.23,-8.42,1.506,22.0
75.202,-8.631,1.142,32.0
75.205,-8.615,0.738,30.0
75.137,-8.591,0.325,11.0
46.155,-5.268,-0.048,20.0
37.796,-4.306,-0.242,24.0
75.157,-8.565,1.618,20.0
75.176,-8.55,1.214,30.0
75.301,-8.548,0.811,24.0
75.358,-8.538,0.398,17.0
46.656,-5.276,-0.004,18.0
38.671,-4.365,-0.211,14.0
75.027,-8.471,1.686,34.0
75.254,-8.48,1.286,24.0
110.65,-12.443,1.293,8.0
78.968,-8.862,0.49,7.0
48.269,-5.406,0.04,21.0
0.0,0.0,0.0,0.0
75.144,-8.403,1.757,27.0
118.934,-13.27,2.14,30.0
113.129,-12.596,1.427,18.0
85.448,-9.493,0.608,9.0
0.0,0.0,0.0,0.0
42.041,-4.651,-0.153,17.0
75.199,-8.323,1.826,11.0
33.088,-3.654,0.625,0.0
114.268,-12.591,1.542,13.0
88.857,-9.769,0.71,3.0
51.256,-5.623,0.133,6.0
42.755,-4.681,-0.119,11.0
33.153,-3.63,0.834,75.0
33.134,-3.62,0.654,56.0
33.136,-3.612,0.476,48.0
33.113,-3.601,0.293,45.0
33.135,-3.595,0.114,45.0
33.122,-3.586,-0.063,41.0
33.13,-3.588,0.861,84.0
33.134,-3.579,0.682,81.0
33.118,-3.569,0.503,81.0
33.111,-3.56,0.32,74.0
33.107,-3.551,0.142,76.0
33.096,-3.542,-0.036,82.0
33.157,-3.549,0.889,74.0
33.144,-3.539,0.71,72.0
33.136,-3.529,0.53,72.0
33.117,-3.518,0.348,73.0
33.101,-3.508,0.168,76.0
33.098,-3.499,-0.009,84.0
78.725,-8.326,2.175,23.0
33.136,-3.495,0.736,0.0
33.148,-3.487,0.556,3.0
33.141,-3.478,0.374,16.0
33.131,-3.468,0.194,42.0
33.127,-3.458,0.015,64.0
78.311,-8.179,2.224,14.0
104.308,-10.864,2.398,7.0
104.619,-10.867,1.839,9.0
104.642,-10.839,1.262,10.0
87.146,-9.004,0.578,5.0
51.176,-5.274,0.062,8.0
78.403,-8.082,2.285,16.0
74.863,-7.695,1.776,28.0
135.373,-13.877,2.478,91.0
114.44,-11.698,1.463,8.0
87.458,-8.916,0.643,9.0
51.414,-5.227,0.099,2.0
78.614,-7.994,2.347,11.0
78.684,-7.978,1.923,7.0
135.404,-13.689,2.574,150.0
119.047,-12.001,1.604,10.0
87.779,-8.824,0.707,8.0
79.826,-8.002,0.209,2.0
73.977,-7.418,2.259,10.0
78.535,-7.851,1.972,23.0
119.186,-11.879,2.346,23.0
135.495,-13.464,1.918,52.0
90.218,-8.94,0.786,3.0
67.667,-6.685,0.222,1.0
78.861,-7.793,2.461,18.0
78.357,-7.72,2.019,16.0
78.804,-7.739,1.602,13.0
135.495,-13.267,2.003,150.0
110.713,-10.806,1.035,9.0
0.0,0.0,0.0,0.0
78.701,-7.661,2.505,26.0
104.497,-10.138,2.757,10.0
119.225,-11.531,2.497,61.0
119.16,-11.488,1.836,17.0
111.208,-10.688,1.107,14.0
81.611,-7.818,0.368,3.0
78.44,-7.516,2.544,15.0
119.203,-11.384,3.216,12.0
119.289,-11.354,2.568,8.0
119.222,-11.31,1.905,16.0
111.761,-10.569,1.178,14.0
84.569,-7.972,0.43,9.0
78.777,-7.427,2.6,5.0
104.407,-9.809,2.876,6.0
119.259,-11.166,2.634,4.0
135.547,-12.649,2.24,126.0
114.656,-10.664,1.27,6.0
85.215,-7.899,0.479,12.0
78.509,-7.278,2.632,22.0
75.393,-6.964,2.116,4.0
119.256,-10.976,2.697,37.0
119.263,-10.939,2.033,29.0
114.749,-10.489,1.33,7.0
85.293,-7.77,0.523,12.0
72.24,-6.581,2.458,17.0
75.117,-6.817,2.145,7.0
135.619,-12.265,3.132,150.0
135.622,-12.221,2.378,39.0
119.091,-10.692,1.437,9.0
89.3,-7.99,0.59,4.0
74.751,-6.687,2.579,4.0
74.689,-6.657,2.167,7.0
119.225,-10.586,2.808,17.0
135.674,-12.003,2.44,109.0
119.145,-10.502,1.49,16.0
86.595,-7.604,0.61,7.0
67.929,-5.965,2.373,39.0
103.721,-9.072,3.055,7.0
119.23,-10.387,2.859,28.0
119.249,-10.349,2.194,67.0
119.192,-10.305,1.541,16.0
89.664,-7.723,0.668,3.0
67.937,-5.85,2.4,39.0
103.293,-8.86,3.083,11.0
72.641,-6.206,1.77,10.0
119.316,-10.153,2.241,48.0
119.153,-10.101,1.585,17.0
89.423,-7.551,0.699,2.0
67.927,-5.734,2.425,39.0
74.73,-6.283,2.257,4.0
119.292,-9.988,2.948,21.0
126.486,-10.548,2.419,128.0
119.226,-9.902,1.626,15.0
108.471,-8.972,0.886,2.0
67.936,-5.617,2.447,47.0
72.128,-5.939,2.202,25.0
71.658,-5.876,1.794,11.0
126.491,-10.328,2.459,50.0
119.215,-9.692,1.663,14.0
108.865,-8.815,0.922,2.0
72.1,-5.836,2.618,5.0
72.665,-5.855,2.239,6.0
71.894,-5.768,1.82,10.0
126.526,-10.107,2.496,61.0
119.264,-9.485,1.697,16.0
67.887,-5.376,0.592,32.0
72.055,-5.703,2.635,16.0
67.922,-5.351,2.11,42.0
67.883,-5.324,1.735,73.0
67.875,-5.3,1.355,91.0
67.87,-5.275,0.981,89.0
67.873,-5.253,0.608,74.0
67.926,-5.254,2.499,70.0
67.929,-5.23,2.125,35.0
72.742,-5.574,1.875,8.0
119.361,-9.104,2.408,150.0
119.315,-9.058,1.749,29.0
113.917,-8.609,1.042,2.0
67.901,-5.127,2.511,39.0
71.812,-5.397,2.26,11.0
72.723,-5.439,1.887,9.0
72.493,-5.396,1.474,13.0
20.019,-1.483,0.296,3.0
20.044,-1.478,0.186,19.0
67.899,-5.004,2.522,53.0
20.059,-1.471,0.634,1.0
20.019,-1.46,0.522,7.0
20.001,-1.452,0.409,10.0
20.006,-1.445,0.299,11.0
20.026,-1.439,0.188,35.0
67.894,-4.876,2.529,46.0
20.007,-1.429,0.634,8.0
20.006,-1.422,0.523,11.0
20.003,-1.415,0.411,10.0
20.028,-1.409,0.301,8.0
102.83,-7.201,0.978,43.0
67.895,-4.749,2.533,23.0
20.005,-1.392,0.635,11.0
20.016,-1.385,0.525,9.0
20.047,-1.38,0.413,3.0
119.359,-8.177,1.801,44.0
20.015,-1.364,0.191,11.0
20.027,-1.363,0.748,7.0
20.008,-1.354,0.636,10.0
20.092,-1.352,0.527,10.0
19.978,-1.337,0.412,9.0
19.936,-1.327,0.3,13.0
19.957,-1.322,0.19,24.0
20.014,-1.324,0.747,10.0
19.952,-1.312,0.634,12.0
19.942,-1.304,0.523,16.0
19.918,-1.296,0.41,16.0
19.945,-1.29,0.3,21.0
19.968,-1.285,0.19,23.0
19.975,-1.283,0.745,13.0
19.954,-1.275,0.633,23.0
19.949,-1.267,0.522,21.0
19.9,-1.257,0.409,19.0
19.946,-1.252,0.299,24.0
19.969,-1.246,0.188,22.0
19.989,-1.245,0.744,14.0
19.95,-1.236,0.631,23.0
19.948,-1.228,0.52,25.0
19.933,-1.22,0.407,22.0
19.941,-1.213,0.296,22.0
19.989,-1.209,0.186,150.0
19.987,-1.207,0.741,17.0
19.961,-1.198,0.629,24.0
19.945,-1.189,0.518,23.0
19.915,-1.18,0.404,19.0
19.955,-1.175,0.294,20.0
20.117,-1.178,0.184,3.0
19.99,-1.167,0.738,18.0
19.964,-1.158,0.626,23.0
19.948,-1.15,0.514,25.0
19.945,-1.143,0.401,21.0
19.958,-1.136,0.29,23.0
20.003,-1.131,0.18,23.0
19.993,-1.128,0.734,17.0
19.974,-1.12,0.622,22.0
19.959,-1.112,0.51,20.0
19.932,-1.103,0.397,19.0
19.965,-1.097,0.286,20.0
19.975,-1.091,0.175,20.0
19.993,-1.089,0.729,19.0
19.971,-1.081,0.617,20.0
19.964,-1.073,0.505,19.0
19.937,-1.064,0.391,16.0
19.997,-1.06,0.281,22.0
19.991,-1.052,0.17,17.0
20.015,-1.051,0.725,15.0
19.968,-1.041,0.611,16.0
19.982,-1.034,0.5,12.0
20.038,-1.03,0.388,13.0
20.136,-1.028,0.277,22.0
20.127,-1.02,0.165,18.0
20.074,-1.014,0.72,14.0
20.111,-1.009,0.609,20.0
20.14,-1.003,0.497,21.0
20.13,-0.995,0.383,24.0
20.151,-0.989,0.27,17.0
138.22,-6.735,1.085,19.0
20.083,-0.975,0.713,19.0
20.114,-0.969,0.602,22.0
20.109,-0.961,0.489,16.0
20.139,-0.955,0.375,11.0
194.527,-9.166,2.541,17.0
138.246,-6.464,1.032,15.0
20.095,-0.935,0.706,18.0
20.113,-0.929,0.594,15.0
20.184,-0.925,0.483,1.0
193.597,-8.805,3.531,14.0
194.617,-8.781,2.459,13.0
138.022,-6.177,0.971,16.0
115.81,-5.163,4.02,23.0
193.306,-8.546,5.626,23.0
193.389,-8.481,4.543,21.0
192.653,-8.382,3.427,24.0
195.067,-8.418,2.376,5.0
138.096,-5.91,0.908,18.0
104.365,-4.447,3.574,15.0
193.61,-8.181,5.542,16.0
193.664,-8.112,4.456,18.0
192.603,-7.999,3.332,23.0
138.537,-5.705,1.619,2.0
138.382,-5.649,0.841,10.0
206.585,-8.394,6.969,7.0
193.561,-7.794,5.441,22.0
0.0,0.0,0.0,0.0
0.0,0.0,0.0,0.0
138.413,-5.425,1.544,8.0
138.421,-5.378,0.766,9.0
193.748,-7.486,6.427,22.0
193.061,-7.392,5.319,17.0
194.459,-7.375,4.264,9.0
193.345,-7.265,3.132,8.0
138.553,-5.157,1.466,13.0
138.517,-5.108,0.687,3.0
193.671,-7.102,6.311,16.0
193.107,-7.012,5.206,26.0
204.347,-7.349,4.358,22.0
138.525,-4.932,2.16,4.0
138.553,-4.886,1.382,19.0
0.0,0.0,0.0,0.0
193.626,-6.718,6.188,17.0
187.412,-6.435,4.932,41.0
187.408,-6.371,3.878,23.0
138.54,-4.66,2.071,9.0
138.65,-4.615,1.292,25.0
0.0,0.0,0.0,0.0
194.674,-6.369,6.092,23.0
193.914,-6.274,4.973,24.0
194.665,-6.231,3.894,9.0
138.661,-4.392,1.979,6.0
138.685,-4.344,1.197,21.0
0.0,0.0,0.0,0.0
205.199,-6.31,6.277,7.0
194.355,-5.909,4.847,26.0
194.355,-5.841,3.749,18.0
138.688,-4.121,1.88,2.0
138.438,-4.067,1.095,24.0
0.0,0.0,0.0,0.0
205.277,-5.913,6.127,6.0
205.626,-5.85,4.975,10.0
0.0,0.0,0.0,0.0
0.0,0.0,0.0,0.0
138.798,-3.809,0.993,15.0
0.0,0.0,0.0,0.0
207.235,-5.569,6.026,9.0
205.428,-5.453,4.813,6.0
193.278,-5.063,3.434,15.0
193.5,-5.005,2.326,5.0
138.774,-3.542,0.883,14.0
0.0,0.0,0.0,0.0
118.112,-2.945,3.338,5.0
118.051,-2.903,2.668,8.0
192.985,-4.68,3.269,17.0
138.915,-3.322,1.553,2.0
138.849,-3.273,0.766,7.0
0.0,0.0,0.0,0.0
0.0,0.0,0.0,0.0
193.989,-4.393,4.217,6.0
193.113,-4.309,3.104,7.0
138.932,-3.055,1.433,10.0
138.945,-3.01,0.646,2.0
0.0,0.0,0.0,0.0
112.906,-2.378,2.994,5.0
193.748,-4.018,4.039,24.0
138.901,-2.833,2.108,9.0
138.998,-2.791,1.308,22.0
0.0,0.0,0.0,0.0
0.0,0.0,0.0,0.0
112.906,-2.164,2.89,20.0
193.56,-3.645,3.855,25.0
139.076,-2.574,1.981,4.0
139.042,-2.527,1.177,24.0
0.0,0.0,0.0,0.0
0.0,0.0,0.0,0.0
112.629,-1.943,2.773,9.0
194.007,-3.284,3.676,16.0
0.0,0.0,0.0,0.0
138.847,-2.26,1.04,16.0
0.0,0.0,0.0,0.0
0.0,0.0,0.0,0.0
206.061,-3.167,4.869,16.0
204.397,-3.074,3.667,8.0
138.989,-2.046,1.704,3.0
138.823,-1.998,0.899,16.0
0.0,0.0,0.0,0.0
0.0,0.0,0.0,0.0
210.544,-2.84,4.757,8.0
204.26,-2.689,3.453,15.0
139.337,-1.79,1.563,4.0
0.0,0.0,0.0,0.0
0.0,0.0,0.0,0.0
0.0,0.0,0.0,0.0
210.393,-2.448,4.53,10.0
119.741,-1.356,1.897,21.0
119.749,-1.32,1.216,149.0
119.671,-1.281,0.522,6.0
0.0,0.0,0.0,0.0
0.0,0.0,0.0,0.0
119.734,-1.173,2.446,150.0
119.749,-1.136,1.765,120.0
119.665,-1.098,1.081,17.0
0.0,0.0,0.0,0.0
0.0,0.0,0.0,0.0
0.0,0.0,0.0,0.0
119.714,-0.954,2.31,11.0
119.676,-0.918,1.628,11.0
119.678,-0.881,0.945,9.0
0.0,0.0,0.0,0.0
0.0,0.0,0.0,0.0
45.784,-0.295,-0.425,0.0
115.591,-0.713,2.095,2.0
119.694,-0.701,1.487,15.0
114.251,-0.635,0.768,6.0
0.0,0.0,0.0,0.0
53.622,-0.266,-0.256,0.0
45.066,-0.209,-0.472,0.0
114.378,-0.498,1.934,14.0
119.724,-0.487,1.343,16.0
110.986,-0.419,0.611,6.0
0.0,0.0,0.0,0.0
0.0,0.0,0.0,0.0
0.0,0.0,0.0,0.0
113.135,-0.294,1.775,12.0
119.722,-0.277,1.195,12.0
99.634,-0.202,0.426,1.0
0.0,0.0,0.0,0.0
48.709,-0.069,-0.353,0.0
0.0,0.0,0.0,0.0
111.067,-0.095,1.602,12.0
111.135,-0.062,0.968,7.0
95.698,-0.026,0.286,4.0
0.0,0.0,0.0,0.0
45.629,0.013,-0.389,2.0
0.0,0.0,0.0,0.0
0.0,0.0,0.0,0.0
110.737,0.127,0.82,9.0
93.008,0.134,0.157,1.0
0.0,0.0,0.0,0.0
42.89,0.085,-0.421,1.0
34.235,0.077,-0.532,0.0
119.775,0.306,1.415,15.0
104.059,0.295,0.634,8.0
0.0,0.0,0.0,0.0
0.0,0.0,0.0,0.0
42.792,0.156,-0.477,0.0
0.0,0.0,0.0,0.0
111.044,0.468,1.163,11.0
90.766,0.408,0.43,4.0
0.0,0.0,0.0,0.0
0.0,0.0,0.0,0.0
0.0,0.0,0.0,0.0
31.698,0.177,-0.578,0.0
104.98,0.615,0.955,21.0
86.287,0.529,0.29,4.0
0.0,0.0,0.0,0.0
0.0,0.0,0.0,0.0
36.717,0.254,-0.51,0.0
30.372,0.218,-0.596,0.0
104.722,0.783,0.806,8.0
84.102,0.651,0.165,2.0
0.0,0.0,0.0,0.0
42.99,0.356,-0.412,0.0
0.0,0.0,0.0,0.0
29.294,0.257,-0.617,0.0
98.13,0.89,0.615,12.0
0.0,0.0,0.0,0.0
54.303,0.521,-0.282,0.0
41.156,0.405,-0.453,1.0
0.0,0.0,0.0,0.0
28.056,0.29,-0.631,0.0
85.441,0.908,0.412,12.0
0.0,0.0,0.0,0.0
0.0,0.0,0.0,0.0
39.192,0.447,-0.489,0.0
31.54,0.367,-0.575,0.0
26.57,0.316,-0.637,0.0
81.248,0.99,0.27,5.0
0.0,0.0,0.0,0.0
0.0,0.0,0.0,0.0
36.34,0.47,-0.508,0.0
30.31,0.399,-0.598,0.0
26.113,0.35,-0.665,0.0
77.011,1.055,0.14,1.0
0.0,0.0,0.0,0.0
41.569,0.59,-0.401,0.0
34.948,0.505,-0.542,0.0
29.261,0.429,-0.622,0.0
25.085,0.374,-0.677,0.0
74.907,1.138,0.02,1.0
0.0,0.0,0.0,0.0
41.73,0.654,-0.467,0.0
32.208,0.512,-0.549,0.0
27.94,0.451,-0.637,0.0
23.938,0.392,-0.683,0.0
0.0,0.0,0.0,0.0
0.0,0.0,0.0,0.0
0.0,0.0,0.0,0.0
0.0,0.0,0.0,0.0
26.771,0.47,-0.652,0.0
22.999,0.409,-0.693,0.0
0.0,0.0,0.0,0.0
45.787,0.838,-0.393,1.0
0.0,0.0,0.0,0.0
29.777,0.558,-0.601,0.0
25.639,0.487,-0.665,0.0
22.391,0.43,-0.71,0.0
0.0,0.0,0.0,0.0
0.0,0.0,0.0,0.0
0.0,0.0,0.0,0.0
28.229,0.569,-0.616,0.0
24.619,0.501,-0.679,0.0
21.559,0.444,-0.719,0.0
0.0,0.0,0.0,0.0
0.0,0.0,0.0,0.0
32.594,0.693,-0.572,0.0
26.919,0.578,-0.63,0.0
23.78,0.516,-0.694,0.0
20.958,0.459,-0.733,0.0
48.631,1.077,-0.374,0.0
37.677,0.842,-0.506,0.0
30.335,0.684,-0.582,0.0
26.113,0.595,-0.655,0.0
22.598,0.52,-0.697,0.0
20.225,0.469,-0.74,0.0
0.0,0.0,0.0,0.0
35.089,0.83,-0.53,0.0
29.064,0.693,-0.606,0.0
24.906,0.599,-0.666,0.0
21.992,0.533,-0.714,0.0
19.525,0.478,-0.747,0.0
0.0,0.0,0.0,0.0
0.0,0.0,0.0,0.0
27.903,0.7,-0.629,0.0
23.812,0.602,-0.676,0.0
21.221,0.541,-0.725,0.0
18.971,0.487,-0.758,0.0
0.0,0.0,0.0,0.0
0.0,0.0,0.0,0.0
26.631,0.7,-0.645,0.0
22.793,0.604,-0.686,0.0
20.353,0.543,-0.73,0.0
18.526,0.498,-0.771,0.0
35.126,0.952,-0.506,0.0
28.627,0.781,-0.577,0.0
25.361,0.697,-0.658,0.0
22.306,0.617,-0.71,0.0
19.755,0.55,-0.742,0.0
17.735,0.498,-0.769,0.0
33.968,0.96,-0.548,0.0
28.527,0.811,-0.625,1.0
24.411,0.699,-0.675,0.0
21.285,0.613,-0.714,0.0
19.085,0.554,-0.751,0.0
17.301,0.505,-0.78,0.0
31.498,0.925,-0.562,0.0
26.554,0.785,-0.627,0.0
23.283,0.692,-0.685,0.0
20.521,0.614,-0.724,0.0
18.543,0.558,-0.761,0.0
16.796,0.508,-0.787,0.0
29.776,0.907,-0.584,0.0
25.951,0.795,-0.659,0.0
22.449,0.692,-0.7,0.0
20.024,0.62,-0.742,0.0
17.942,0.559,-0.768,0.0
16.393,0.514,-0.797,0.0
28.647,0.902,-0.612,1.0
24.775,0.784,-0.672,0.0
21.496,0.684,-0.707,0.0
19.294,0.618,-0.749,0.0
17.408,0.56,-0.776,0.0
15.868,0.513,-0.799,0.0
0.0,0.0,0.0,0.0
23.519,0.768,-0.68,0.0
20.844,0.684,-0.723,0.0
18.5,0.61,-0.751,0.0
16.924,0.561,-0.785,0.0
15.48,0.516,-0.807,0.0
25.978,0.869,-0.647,0.0
22.627,0.761,-0.694,0.0
20.04,0.677,-0.731,0.0
18.13,0.616,-0.768,0.0
16.458,0.561,-0.792,0.0
15.104,0.518,-0.815,0.0
24.807,0.853,-0.662,0.0
21.663,0.748,-0.703,0.0
19.395,0.673,-0.742,0.0
17.555,0.612,-0.775,0.0
15.859,0.555,-0.792,0.0
14.734,0.518,-0.821,0.0
23.829,0.841,-0.679,0.0
21.064,0.747,-0.722,0.0
18.79,0.669,-0.753,0.0
16.992,0.607,-0.781,0.0
15.471,0.555,-0.801,0.0
14.369,0.518,-0.827,0.0
22.931,0.829,-0.695,0.0
20.139,0.731,-0.727,0.0
18.398,0.67,-0.771,0.0
16.488,0.603,-0.788,0.0
15.132,0.556,-0.811,0.0
14.031,0.517,-0.833,0.0
21.956,0.812,-0.705,0.0
19.456,0.722,-0.737,0.0
17.632,0.657,-0.77,0.0
15.886,0.594,-0.788,0.0
14.769,0.554,-0.818,0.0
13.684,0.515,-0.838,0.0
21.362,0.806,-0.725,0.0
18.829,0.713,-0.748,0.0
17.022,0.647,-0.775,0.0
15.678,0.598,-0.806,0.0
14.418,0.552,-0.825,0.0
13.415,0.515,-0.845,0.0
20.263,0.779,-0.724,0.0
18.217,0.703,-0.756,0.0
16.64,0.644,-0.787,0.0
15.205,0.591,-0.809,0.0
14.092,0.549,-0.832,0.0
13.017,0.509,-0.844,0.0
19.589,0.767,-0.735,0.0
17.65,0.693,-0.765,0.0
16.194,0.638,-0.796,0.0
14.808,0.585,-0.815,0.0
13.755,0.546,-0.837,0.0
12.725,0.506,-0.848,0.0
18.975,0.755,-0.747,0.0
17.171,0.686,-0.776,0.0
15.72,0.63,-0.801,0.0
14.426,0.579,-0.82,0.0
13.445,0.542,-0.843,0.0
12.395,0.501,-0.849,0.0
18.271,0.739,-0.753,0.0
16.669,0.676,-0.783,0.0
15.247,0.62,-0.805,0.0
14.101,0.575,-0.828,0.0
13.086,0.535,-0.844,0.0
12.043,0.494,-0.847,0.0
17.744,0.728,-0.763,0.0
16.105,0.662,-0.786,0.0
14.911,0.615,-0.814,0.0
13.775,0.569,-0.834,0.0
12.775,0.529,-0.847,0.0
11.778,0.489,-0.85,0.0
17.172,0.713,-0.77,0.0
15.705,0.654,-0.795,0.0
14.498,0.605,-0.818,0.0
13.442,0.562,-0.838,0.0
12.437,0.522,-0.848,0.0
11.551,0.486,-0.854,0.0
16.804,0.706,-0.784,0.0
15.338,0.646,-0.804,0.0
14.143,0.597,-0.823,0.0
13.1,0.554,-0.84,0.0
12.112,0.514,-0.847,0.0
11.31,0.481,-0.857,0.0
16.292,0.692,-0.789,0.0
14.92,0.635,-0.809,0.0
13.779,0.588,-0.827,0.0
12.809,0.547,-0.844,0.0
11.8,0.505,-0.846,0.0
11.164,0.479,-0.866,0.0
15.78,0.676,-0.792,0.0
14.479,0.622,-0.811,0.0
13.519,0.582,-0.836,0.0
12.45,0.537,-0.843,0.0
11.613,0.502,-0.854,0.0
10.973,0.475,-0.871,0.0
15.42,0.667,-0.802,0.0
14.308,0.62,-0.827,0.0
13.218,0.574,-0.841,0.0
12.201,0.53,-0.848,0.0
11.321,0.493,-0.853,0.0
10.75,0.469,-0.873,0.0
15.053,0.656,-0.81,0.0
13.902,0.607,-0.829,0.0
12.933,0.565,-0.846,0.0
11.856,0.519,-0.846,0.0
11.217,0.492,-0.865,0.0
10.533,0.463,-0.874,0.0
14.544,0.638,-0.808,0.0
13.626,0.598,-0.836,0.0
12.478,0.549,-0.839,0.0
11.64,0.513,-0.851,0.0
11.0,0.486,-0.868,0.0
10.339,0.457,-0.877,0.0
14.335,0.632,-0.822,0.0
13.204,0.583,-0.834,0.0
12.249,0.542,-0.845,0.0
11.361,0.503,-0.851,0.0
10.79,0.479,-0.871,0.0
10.203,0.453,-0.883,0.0
14.06,0.623,-0.831,0.0
12.946,0.574,-0.841,0.0
11.951,0.531,-0.845,0.0
11.245,0.5,-0.862,0.0
10.598,0.472,-0.874,0.0
10.091,0.45,-0.891,0.0
13.681,0.608,-0.833,0.0
12.664,0.564,-0.844,0.0
11.679,0.521,-0.846,0.0
11.055,0.493,-0.867,0.0
10.377,0.464,-0.874,0.0
9.894,0.443,-0.891,0.0
13.4,0.598,-0.839,0.0
12.363,0.552,-0.846,0.0
11.459,0.512,-0.85,0.0
10.857,0.486,-0.87,0.0
10.297,0.461,-0.885,0.0
9.759,0.438,-0.896,0.0
13.062,0.584,-0.84,0.0
12.044,0.539,-0.845,0.0
11.28,0.505,-0.857,0.0
10.623,0.476,-0.87,0.0
10.124,0.454,-0.888,0.0
9.63,0.432,-0.901,0.0
12.723,0.569,-0.84,0.0
11.768,0.527,-0.845,0.0
11.151,0.5,-0.866,0.0
10.459,0.469,-0.874,0.0
9.969,0.447,-0.891,0.0
9.431,0.424,-0.898,0.0
12.477,0.558,-0.845,0.0
11.586,0.519,-0.852,0.0
10.935,0.49,-0.867,0.0
10.297,0.462,-0.878,0.0
9.803,0.44,-0.893,0.0
9.344,0.42,-0.906,0.0
12.158,0.543,-0.844,0.0
11.321,0.506,-0.851,0.0
10.756,0.481,-0.871,0.0
10.13,0.454,-0.88,0.0
9.679,0.434,-0.898,0.0
9.222,0.413,-0.909,0.0
11.89,0.531,-0.845,0.0
11.223,0.501,-0.862,0.0
10.564,0.472,-0.873,0.0
10.03,0.448,-0.888,0.0
9.514,0.425,-0.898,0.0
9.088,0.407,-0.911,0.0
11.663,0.519,-0.848,0.0
11.034,0.491,-0.866,0.0
10.409,0.464,-0.877,0.0
9.878,0.44,-0.891,0.0
9.431,0.42,-0.906,0.0
8.99,0.401,-0.916,0.0
11.439,0.508,-0.85,0.0
10.836,0.481,-0.868,0.0
10.234,0.454,-0.879,0.0
9.752,0.433,-0.895,0.0
9.355,0.415,-0.914,0.0
8.82,0.392,-0.913,0.0
11.278,0.498,-0.856,0.0
10.621,0.469,-0.867,0.0
10.103,0.446,-0.884,0.0
9.629,0.426,-0.9,0.0
9.175,0.406,-0.911,0.0
8.689,0.384,-0.913,0.0
11.144,0.49,-0.863,0.0
10.493,0.461,-0.873,0.0
9.967,0.438,-0.888,0.0
9.497,0.417,-0.902,0.0
9.053,0.398,-0.913,0.0
8.614,0.379,-0.919,0.0
10.969,0.479,-0.866,0.0
10.345,0.452,-0.877,0.0
9.868,0.431,-0.894,0.0
9.373,0.409,-0.905,0.0
8.99,0.393,-0.92,0.0
8.543,0.373,-0.924,0.0
10.791,0.468,-0.869,0.0
10.187,0.442,-0.879,0.0
9.723,0.422,-0.896,0.0
9.248,0.401,-0.907,0.0
8.833,0.383,-0.917,0.0
8.411,0.365,-0.923,0.0
10.577,0.456,-0.867,0.0
10.09,0.434,-0.886,0.0
9.585,0.412,-0.897,0.0
0.0,0.0,0.0,0.0
8.656,0.372,-0.912,0.0
8.316,0.358,-0.925,0.0
10.444,0.446,-0.872,0.0
9.952,0.425,-0.888,0.0
9.483,0.405,-0.902,0.0
9.049,0.386,-0.914,0.0
8.617,0.367,-0.921,0.0
8.229,0.35,-0.927,0.0
10.35,0.438,-0.879,0.0
9.83,0.415,-0.892,0.0
9.399,0.397,-0.907,0.0
8.921,0.377,-0.914,0.0
8.502,0.359,-0.921,0.0
8.133,0.343,-0.928,0.0
10.203,0.427,-0.881,0.0
9.771,0.409,-0.9,0.0
9.171,0.383,-0.898,0.0
8.796,0.367,-0.914,0.0
8.36,0.349,-0.917,0.0
8.048,0.336,-0.93,0.0
10.064,0.417,-0.883,0.0
9.657,0.399,-0.903,0.0
9.063,0.374,-0.9,0.0
8.697,0.359,-0.915,0.0
8.329,0.343,-0.925,0.0
7.943,0.327,-0.929,0.0
9.939,0.406,-0.885,0.0
9.513,0.389,-0.903,0.0
9.059,0.37,-0.912,0.0
8.654,0.353,-0.922,0.0
8.242,0.336,-0.927,0.0
7.878,0.32,-0.932,0.0
9.829,0.397,-0.889,0.0
9.386,0.378,-0.903,0.0
8.936,0.36,-0.912,0.0
8.59,0.345,-0.927,0.0
8.126,0.326,-0.924,0.0
7.803,0.313,-0.933,0.0
9.751,0.388,-0.894,0.0
9.259,0.368,-0.903,0.0
8.848,0.351,-0.914,0.0
8.355,0.331,-0.913,0.0
8.039,0.318,-0.925,0.0
7.753,0.306,-0.937,0.0
9.666,0.379,-0.899,0.0
9.105,0.356,-0.899,0.0
8.733,0.341,-0.913,0.0
8.337,0.325,-0.921,0.0
8.002,0.312,-0.931,0.0
7.68,0.299,-0.938,0.0
9.464,0.365,-0.892,0.0
9.099,0.35,-0.91,0.0
8.591,0.33,-0.909,0.0
8.275,0.317,-0.924,0.0
7.913,0.303,-0.93,0.0
7.596,0.29,-0.937,0.0
9.443,0.358,-0.901,0.0
9.034,0.342,-0.914,0.0
8.606,0.325,-0.921,0.0
8.234,0.31,-0.93,0.0
7.849,0.295,-0.932,0.0
7.563,0.284,-0.942,0.0
9.334,0.347,-0.901,0.0
8.945,0.332,-0.916,0.0
8.559,0.317,-0.925,0.0
0.0,0.0,0.0,0.0
7.8,0.288,-0.935,0.0
7.508,0.277,-0.944,0.0
9.249,0.338,-0.904,0.0
8.814,0.321,-0.912,0.0
8.389,0.305,-0.917,0.0
0.0,0.0,0.0,0.0
7.733,0.28,-0.935,0.0
7.441,0.269,-0.943,0.0
9.141,0.327,-0.903,0.0
8.734,0.312,-0.913,0.0
8.384,0.298,-0.925,0.0
8.007,0.284,-0.931,0.0
7.66,0.271,-0.935,0.0
7.372,0.26,-0.943,0.0
9.122,0.319,-0.911,0.0
8.656,0.302,-0.914,0.0
8.284,0.288,-0.923,0.0
7.961,0.276,-0.934,0.0
7.623,0.264,-0.938,0.0
7.329,0.253,-0.945,0.0
9.015,0.308,-0.909,0.0
8.623,0.294,-0.92,0.0
8.191,0.278,-0.921,0.0
7.89,0.267,-0.933,0.0
7.566,0.256,-0.939,0.0
7.324,0.247,-0.952,0.0
8.987,0.3,-0.915,0.0
8.544,0.284,-0.919,0.0
8.136,0.27,-0.922,0.0
0.0,0.0,0.0,0.0
7.532,0.248,-0.942,0.0
0.0,0.0,0.0,0.0
8.833,0.287,-0.908,0.0
8.481,0.275,-0.921,0.0
8.118,0.262,-0.928,0.0
0.0,0.0,0.0,0.0
7.469,0.24,-0.941,0.0
0.0,0.0,0.0,0.0
8.748,0.277,-0.907,0.0
8.403,0.265,-0.92,0.0
8.047,0.253,-0.927,0.0
0.0,0.0,0.0,0.0
7.435,0.232,-0.943,0.0
7.114,0.221,-0.944,0.0
8.711,0.268,-0.911,0.0
8.364,0.256,-0.923,0.0
8.021,0.245,-0.931,0.0
0.0,0.0,0.0,0.0
0.0,0.0,0.0,0.0
7.053,0.213,-0.942,0.0
8.752,0.261,-0.922,0.0
8.319,0.247,-0.925,0.0
7.939,0.235,-0.928,0.0
0.0,0.0,0.0,0.0
0.0,0.0,0.0,0.0
7.053,0.206,-0.948,0.0
8.627,0.249,-0.916,0.0
8.241,0.237,-0.922,0.0
7.911,0.227,-0.931,0.0
0.0,0.0,0.0,0.0
0.0,0.0,0.0,0.0
7.031,0.199,-0.95,0.0
8.504,0.238,-0.909,0.0
8.13,0.226,-0.916,0.0
7.868,0.218,-0.932,0.0
7.543,0.208,-0.937,0.0
0.0,0.0,0.0,0.0
6.935,0.189,-0.942,0.0
8.509,0.23,-0.916,0.0
8.16,0.219,-0.925,0.0
7.847,0.21,-0.935,0.0
7.517,0.2,-0.939,0.0
0.0,0.0,0.0,0.0
6.961,0.183,-0.95,0.0
8.459,0.22,-0.916,0.0
8.113,0.21,-0.925,0.0
7.827,0.201,-0.937,0.0
0.0,0.0,0.0,0.0
0.0,0.0,0.0,0.0
0.0,0.0,0.0,0.0
8.447,0.211,-0.92,0.0
8.118,0.202,-0.93,0.0
7.754,0.192,-0.933,0.0
0.0,0.0,0.0,0.0
0.0,0.0,0.0,0.0
0.0,0.0,0.0,0.0
8.428,0.202,-0.923,0.0
8.067,0.192,-0.929,0.0
7.744,0.183,-0.936,0.0
0.0,0.0,0.0,0.0
0.0,0.0,0.0,0.0
0.0,0.0,0.0,0.0
8.376,0.192,-0.921,0.0
8.013,0.183,-0.927,0.0
0.0,0.0,0.0,0.0
0.0,0.0,0.0,0.0
0.0,0.0,0.0,0.0
0.0,0.0,0.0,0.0
8.37,0.183,-0.925,0.0
8.016,0.174,-0.931,0.0
7.69,0.166,-0.937,0.0
0.0,0.0,0.0,0.0
0.0,0.0,0.0,0.0
0.0,0.0,0.0,0.0
8.31,0.173,-0.922,0.0
7.971,0.165,-0.93,0.0
7.703,0.158,-0.942,0.0
0.0,0.0,0.0,0.0
0.0,0.0,0.0,0.0
0.0,0.0,0.0,0.0
8.358,0.165,-0.93,0.0
7.975,0.156,-0.933,0.0
7.598,0.147,-0.932,0.0
0.0,0.0,0.0,0.0
0.0,0.0,0.0,0.0
0.0,0.0,0.0,0.0
8.274,0.154,-0.924,0.0
7.903,0.146,-0.927,0.0
0.0,0.0,0.0,0.0
0.0,0.0,0.0,0.0
0.0,0.0,0.0,0.0
0.0,0.0,0.0,0.0
8.244,0.145,-0.923,0.0
7.872,0.137,-0.926,0.0
7.556,0.13,-0.932,0.0
0.0,0.0,0.0,0.0
7.032,0.119,-0.948,0.0
0.0,0.0,0.0,0.0
8.245,0.136,-0.925,0.0
7.907,0.129,-0.932,0.0
7.577,0.122,-0.936,0.0
0.0,0.0,0.0,0.0
0.0,0.0,0.0,0.0
6.736,0.105,-0.949,0.0
8.234,0.126,-0.926,0.0
7.873,0.119,-0.93,0.0
7.604,0.114,-0.941,0.0
0.0,0.0,0.0,0.0
0.0,0.0,0.0,0.0
0.0,0.0,0.0,0.0
8.18,0.116,-0.921,0.0
7.858,0.11,-0.929,0.0
7.569,0.105,-0.938,0.0
0.0,0.0,0.0,0.0
0.0,0.0,0.0,0.0
0.0,0.0,0.0,0.0
8.241,0.108,-0.929,0.0
7.856,0.101,-0.93,0.0
7.537,0.096,-0.935,0.0
0.0,0.0,0.0,0.0
0.0,0.0,0.0,0.0
0.0,0.0,0.0,0.0
8.187,0.098,-0.924,0.0
7.88,0.093,-0.933,0.0
7.536,0.087,-0.935,0.0
0.0,0.0,0.0,0.0
0.0,0.0,0.0,0.0
0.0,0.0,0.0,0.0
8.177,0.088,-0.923,0.0
7.844,0.083,-0.929,0.0
7.557,0.079,-0.938,0.0
0.0,0.0,0.0,0.0
0.0,0.0,0.0,0.0
0.0,0.0,0.0,0.0
8.198,0.079,-0.925,0.0
7.836,0.074,-0.928,0.0
7.593,0.071,-0.942,0.0
0.0,0.0,0.0,0.0
0.0,0.0,0.0,0.0
0.0,0.0,0.0,0.0
8.191,0.07,-0.924,0.0
7.812,0.065,-0.925,0.0
7.558,0.062,-0.937,0.0
0.0,0.0,0.0,0.0
0.0,0.0,0.0,0.0
0.0,0.0,0.0,0.0
8.201,0.061,-0.924,0.0
7.869,0.057,-0.931,0.0
7.583,0.053,-0.94,0.0
0.0,0.0,0.0,0.0
0.0,0.0,0.0,0.0
0.0,0.0,0.0,0.0
8.226,0.052,-0.926,0.0
0.0,0.0,0.0,0.0
7.578,0.045,-0.938,0.0
0.0,0.0,0.0,0.0
0.0,0.0,0.0,0.0
6.808,0.036,-0.958,0.0
8.214,0.042,-0.922,0.0
7.868,0.039,-0.928,0.0
7.588,0.036,-0.937,0.0
0.0,0.0,0.0,0.0
0.0,0.0,0.0,0.0
0.0,0.0,0.0,0.0
8.234,0.033,-0.923,0.0
7.922,0.03,-0.932,0.0
7.612,0.027,-0.938,0.0
0.0,0.0,0.0,0.0
0.0,0.0,0.0,0.0
0.0,0.0,0.0,0.0
8.263,0.024,-0.924,0.0
7.977,0.021,-0.936,0.0
7.626,0.019,-0.938,0.0
0.0,0.0,0.0,0.0
0.0,0.0,0.0,0.0
0.0,0.0,0.0,0.0
8.265,0.015,-0.921,0.0
7.914,0.012,-0.926,0.0
7.692,0.011,-0.943,0.0
0.0,0.0,0.0,0.0
0.0,0.0,0.0,0.0
0.0,0.0,0.0,0.0
8.315,0.005,-0.923,0.0
7.927,0.004,-0.924,0.0
7.686,0.002,-0.939,0.0
0.0,0.0,0.0,0.0
0.0,0.0,0.0,0.0
0.0,0.0,0.0,0.0
8.353,-0.003,-0.924,0.0
8.026,-0.004,-0.932,0.0
7.658,-0.006,-0.932,0.0
0.0,0.0,0.0,0.0
0.0,0.0,0.0,0.0
0.0,0.0,0.0,0.0
8.34,-0.012,-0.919,0.0
8.053,-0.013,-0.932,0.0
7.72,-0.014,-0.936,0.0
0.0,0.0,0.0,0.0
0.0,0.0,0.0,0.0
0.0,0.0,0.0,0.0
8.382,-0.021,-0.919,0.0
8.01,-0.022,-0.922,0.0
7.747,-0.023,-0.935,0.0
0.0,0.0,0.0,0.0
0.0,0.0,0.0,0.0
0.0,0.0,0.0,0.0
8.418,-0.03,-0.918,0.0
8.064,-0.031,-0.924,0.0
7.779,-0.031,-0.935,0.0
0.0,0.0,0.0,0.0
0.0,0.0,0.0,0.0
6.904,-0.032,-0.945,0.0
8.434,-0.039,-0.915,0.0
8.142,-0.04,-0.928,0.0
7.817,-0.04,-0.934,0.0
0.0,0.0,0.0,0.0
0.0,0.0,0.0,0.0
0.0,0.0,0.0,0.0
8.503,-0.049,-0.917,0.0
8.16,-0.048,-0.925,0.0
7.862,-0.048,-0.934,0.0
7.55,-0.048,-0.94,0.0
0.0,0.0,0.0,0.0
7.014,-0.047,-0.951,0.0
8.511,-0.058,-0.912,0.0
8.187,-0.057,-0.922,0.0
7.91,-0.057,-0.934,0.0
7.573,-0.056,-0.937,0.0
0.0,0.0,0.0,0.0
7.078,-0.055,-0.954,0.0
8.61,-0.067,-0.916,0.0
8.208,-0.066,-0.918,0.0
7.941,-0.065,-0.932,0.0
0.0,0.0,0.0,0.0
7.324,-0.063,-0.941,0.0
7.089,-0.062,-0.95,0.0
8.668,-0.077,-0.915,0.0
8.29,-0.075,-0.921,0.0
7.988,-0.073,-0.931,0.0
0.0,0.0,0.0,0.0
7.337,-0.07,-0.937,0.0
7.151,-0.07,-0.952,0.0
8.729,-0.086,-0.914,0.0
8.367,-0.084,-0.922,0.0
8.102,-0.083,-0.937,0.0
0.0,0.0,0.0,0.0
7.443,-0.079,-0.944,0.0
7.193,-0.077,-0.952,0.0
8.793,-0.095,-0.914,0.0
8.411,-0.092,-0.92,0.0
8.056,-0.09,-0.925,0.0
7.805,-0.089,-0.94,0.0
7.48,-0.086,-0.942,0.0
7.188,-0.084,-0.945,0.0
8.871,-0.104,-0.914,0.0
8.523,-0.102,-0.924,0.0
8.11,-0.098,-0.924,0.0
7.787,-0.096,-0.93,0.0
7.55,-0.094,-0.943,0.0
7.248,-0.092,-0.946,0.0
8.974,-0.114,-0.916,0.0
8.564,-0.11,-0.92,0.0
8.19,-0.107,-0.925,0.0
7.899,-0.105,-0.936,0.0
7.585,-0.102,-0.94,0.0
7.317,-0.1,-0.947,0.0
9.024,-0.123,-0.912,0.0
8.61,-0.119,-0.917,0.0
8.265,-0.115,-0.925,0.0
7.9,-0.112,-0.928,0.0
7.628,-0.109,-0.938,0.0
7.374,-0.107,-0.947,0.0
9.088,-0.132,-0.909,0.0
8.669,-0.127,-0.914,0.0
8.336,-0.124,-0.924,0.0
7.998,-0.12,-0.931,0.0
7.758,-0.118,-0.946,0.0
7.41,-0.114,-0.944,0.0
9.182,-0.141,-0.909,0.0
8.779,-0.137,-0.916,0.0
8.394,-0.132,-0.922,0.0
8.062,-0.128,-0.93,0.0
7.823,-0.126,-0.945,0.0
7.475,-0.122,-0.944,0.0
9.27,-0.151,-0.907,0.0
8.831,-0.145,-0.912,0.0
8.498,-0.141,-0.924,0.0
8.119,-0.136,-0.927,0.0
7.857,-0.133,-0.94,0.0
7.502,-0.128,-0.938,0.0
9.353,-0.16,-0.905,0.0
8.965,-0.155,-0.915,0.0
8.567,-0.149,-0.921,0.0
8.192,-0.144,-0.926,0.0
7.936,-0.141,-0.94,0.0
7.611,-0.136,-0.943,0.0
9.45,-0.169,-0.903,0.0
9.08,-0.164,-0.916,0.0
8.662,-0.158,-0.921,0.0
8.279,-0.152,-0.926,0.0
7.974,-0.148,-0.935,0.0
7.663,-0.143,-0.94,0.0
9.579,-0.179,-0.904,0.0
9.169,-0.173,-0.914,0.0
8.668,-0.165,-0.911,0.0
8.355,-0.16,-0.924,0.0
8.008,-0.155,-0.929,0.0
7.743,-0.151,-0.94,0.0
9.682,-0.188,-0.901,0.0
9.267,-0.182,-0.912,0.0
0.0,0.0,0.0,0.0
8.406,-0.167,-0.919,0.0
8.132,-0.163,-0.933,0.0
7.827,-0.158,-0.94,0.0
9.761,-0.197,-0.896,0.0
9.332,-0.19,-0.906,0.0
8.912,-0.183,-0.913,0.0
8.503,-0.176,-0.918,0.0
8.19,-0.17,-0.928,0.0
7.915,-0.166,-0.94,0.0
9.882,-0.206,-0.894,0.0
9.461,-0.199,-0.906,0.0
9.026,-0.191,-0.913,0.0
8.677,-0.185,-0.925,0.0
8.326,-0.179,-0.933,0.0
7.978,-0.173,-0.936,0.0
10.007,-0.216,-0.892,0.0
9.58,-0.208,-0.905,0.0
9.13,-0.199,-0.911,0.0
0.0,0.0,0.0,0.0
8.356,-0.185,-0.924,0.0
8.077,-0.18,-0.937,0.0
10.147,-0.225,-0.89,0.0
9.663,-0.216,-0.899,0.0
9.253,-0.208,-0.91,0.0
8.798,-0.199,-0.913,0.0
8.45,-0.192,-0.923,0.0
8.147,-0.187,-0.933,0.0
10.27,-0.234,-0.886,0.0
9.803,-0.225,-0.898,0.0
9.358,-0.216,-0.907,0.0
8.966,-0.208,-0.918,0.0
8.624,-0.201,-0.929,0.0
8.242,-0.194,-0.932,0.0
10.387,-0.243,-0.881,0.0
9.9,-0.233,-0.892,0.0
9.506,-0.225,-0.908,0.0
9.018,-0.215,-0.91,0.0
8.649,-0.207,-0.919,0.0
8.334,-0.201,-0.93,0.0
