X,Y,Z,Reflectivity
16.929,-1.296,-0.782,0.0
15.501,-1.191,-0.803,0.0
14.365,-1.108,-0.825,0.0
13.374,-1.036,-0.844,0.0
12.414,-0.966,-0.853,0.0
11.646,-0.91,-0.866,0.0
16.719,-1.307,-0.775,0.0
15.453,-1.213,-0.803,0.0
14.336,-1.129,-0.825,0.0
13.327,-1.054,-0.843,0.0
12.375,-0.983,-0.852,0.0
11.625,-0.927,-0.866,0.0
16.748,-1.336,-0.778,0.0
15.46,-1.238,-0.805,0.0
14.314,-1.151,-0.825,0.0
13.348,-1.077,-0.846,0.0
12.378,-1.003,-0.854,0.0
11.627,-0.946,-0.867,0.0
16.825,-1.368,-0.783,0.0
15.426,-1.259,-0.804,0.0
14.333,-1.175,-0.827,0.0
13.388,-1.102,-0.849,0.0
12.38,-1.022,-0.854,0.0
11.61,-0.963,-0.866,0.0
16.67,-1.382,-0.777,0.0
15.479,-1.288,-0.807,0.0
14.311,-1.195,-0.826,0.0
13.326,-1.117,-0.845,0.0
12.395,-1.043,-0.856,0.0
11.649,-0.984,-0.869,0.0
16.786,-1.418,-0.782,0.0
15.49,-1.313,-0.808,0.0
14.317,-1.218,-0.826,0.0
13.36,-1.141,-0.847,0.0
12.397,-1.062,-0.855,0.0
11.652,-1.002,-0.869,0.0
16.712,-1.437,-0.778,0.0
15.514,-1.339,-0.808,0.0
14.353,-1.243,-0.828,0.0
13.289,-1.155,-0.842,0.0
12.396,-1.081,-0.854,0.0
11.675,-1.022,-0.87,0.0
16.95,-1.484,-0.787,0.0
15.445,-1.356,-0.803,0.0
14.389,-1.268,-0.828,0.0
13.362,-1.182,-0.845,0.0
12.408,-1.101,-0.854,0.0
11.689,-1.041,-0.87,0.0
16.931,-1.507,-0.785,0.0
15.537,-1.388,-0.806,0.0
14.386,-1.289,-0.826,0.0
13.382,-1.203,-0.844,0.0
12.475,-1.126,-0.857,0.0
11.752,-1.064,-0.873,0.0
16.792,-1.52,-0.775,1.0
15.565,-1.413,-0.805,0.0
14.516,-1.322,-0.831,0.0
13.372,-1.222,-0.842,0.0
12.458,-1.142,-0.853,0.0
11.786,-1.084,-0.873,0.0
16.005,-1.786,-0.608,27.0
14.526,-1.624,-0.631,12.0
13.913,-1.559,-0.68,4.0
12.753,-1.431,-0.694,1.0
12.265,-1.379,-0.734,0.0
12.203,-1.375,-0.797,0.0
16.223,-1.826,-0.604,19.0
14.608,-1.647,-0.623,12.0
13.912,-1.572,-0.669,9.0
12.899,-1.46,-0.692,1.0
12.152,-1.378,-0.718,0.0
12.055,-1.37,-0.778,0.0
16.363,-1.857,-0.596,18.0
15.14,-1.721,-0.634,14.0
13.861,-1.578,-0.655,13.0
13.084,-1.493,-0.691,1.0
12.165,-1.39,-0.709,1.0
11.84,-1.356,-0.754,0.0
16.495,-1.887,-0.587,17.0
15.247,-1.747,-0.626,18.0
13.869,-1.591,-0.644,12.0
13.297,-1.528,-0.691,1.0
12.247,-1.41,-0.703,1.0
11.698,-1.349,-0.735,0.0
16.62,-1.915,-0.578,15.0
15.385,-1.775,-0.618,17.0
14.053,-1.624,-0.641,11.0
13.34,-1.544,-0.682,7.0
12.337,-1.43,-0.698,2.0
11.66,-1.354,-0.723,0.0
16.836,-1.953,-0.571,15.0
15.502,-1.801,-0.609,16.0
14.173,-1.649,-0.634,10.0
13.347,-1.555,-0.67,11.0
12.435,-1.451,-0.692,2.0
11.686,-1.366,-0.714,0.0
17.111,-1.998,-0.565,16.0
15.612,-1.826,-0.599,15.0
14.38,-1.684,-0.63,11.0
13.416,-1.573,-0.662,10.0
12.634,-1.484,-0.691,1.0
11.814,-1.39,-0.711,0.0
17.465,-2.052,-0.56,16.0
15.741,-1.852,-0.59,13.0
14.583,-1.718,-0.625,11.0
13.342,-1.574,-0.646,9.0
12.806,-1.513,-0.689,5.0
11.969,-1.416,-0.709,0.0
17.947,-2.121,-0.559,19.0
15.973,-1.89,-0.583,14.0
14.913,-1.767,-0.625,14.0
13.509,-1.603,-0.641,9.0
12.922,-1.535,-0.683,11.0
12.149,-1.445,-0.708,0.0
18.152,-2.157,-0.548,20.0
16.222,-1.93,-0.577,14.0
15.042,-1.792,-0.616,22.0
13.932,-1.661,-0.647,11.0
12.941,-1.545,-0.671,11.0
12.276,-1.468,-0.703,2.0
18.363,-2.193,-0.536,20.0
16.504,-1.973,-0.57,14.0
15.196,-1.819,-0.607,20.0
13.831,-1.657,-0.629,10.0
13.021,-1.562,-0.662,11.0
12.282,-1.475,-0.691,6.0
18.485,-2.218,-0.521,18.0
16.888,-2.028,-0.567,14.0
15.347,-1.845,-0.598,16.0
13.963,-1.681,-0.62,10.0
13.174,-1.587,-0.656,10.0
12.404,-1.496,-0.685,9.0
18.718,-2.256,-0.508,19.0
17.274,-2.083,-0.562,15.0
15.554,-1.878,-0.59,14.0
14.433,-1.744,-0.626,12.0
13.161,-1.592,-0.642,9.0
12.456,-1.508,-0.675,10.0
19.255,-2.329,-0.503,24.0
17.596,-2.13,-0.554,15.0
15.741,-1.908,-0.58,13.0
14.624,-1.774,-0.619,14.0
13.762,-1.671,-0.657,11.0
12.576,-1.528,-0.668,10.0
19.516,-2.369,-0.489,25.0
17.852,-2.169,-0.543,16.0
16.024,-1.948,-0.573,13.0
14.904,-1.814,-0.615,14.0
13.886,-1.691,-0.648,13.0
12.817,-1.562,-0.667,10.0
19.881,-2.421,-0.477,19.0
18.113,-2.207,-0.532,17.0
16.376,-1.997,-0.569,14.0
15.124,-1.846,-0.608,14.0
14.015,-1.712,-0.639,13.0
13.047,-1.595,-0.665,11.0
20.299,-2.479,-0.465,19.0
18.344,-2.242,-0.519,17.0
16.78,-2.052,-0.565,13.0
15.331,-1.876,-0.599,15.0
14.181,-1.736,-0.631,12.0
13.246,-1.623,-0.66,11.0
20.703,-2.534,-0.452,20.0
18.582,-2.276,-0.505,17.0
17.165,-2.103,-0.559,15.0
15.503,-1.901,-0.589,15.0
14.39,-1.765,-0.624,13.0
13.476,-1.654,-0.657,12.0
21.129,-2.592,-0.437,20.0
18.943,-2.325,-0.494,16.0
17.568,-2.157,-0.552,16.0
15.689,-1.927,-0.579,13.0
14.627,-1.798,-0.618,13.0
13.75,-1.691,-0.655,12.0
21.734,-2.671,-0.426,21.0
19.407,-2.385,-0.484,18.0
17.858,-2.196,-0.541,16.0
15.994,-1.967,-0.572,13.0
14.89,-1.832,-0.612,13.0
13.876,-1.708,-0.645,13.0
22.336,-2.748,-0.412,22.0
19.873,-2.446,-0.473,19.0
18.145,-2.234,-0.529,16.0
16.38,-2.017,-0.567,13.0
15.132,-1.864,-0.605,15.0
14.013,-1.727,-0.635,13.0
22.921,-2.823,-0.397,23.0
20.333,-2.504,-0.461,18.0
18.394,-2.266,-0.515,17.0
16.812,-2.072,-0.563,14.0
15.37,-1.894,-0.597,15.0
14.247,-1.756,-0.63,13.0
23.654,-2.915,-0.382,22.0
20.766,-2.559,-0.447,18.0
18.685,-2.303,-0.502,17.0
17.227,-2.123,-0.557,15.0
15.567,-1.919,-0.586,14.0
14.434,-1.78,-0.621,13.0
24.545,-3.025,-0.369,23.0
21.31,-2.626,-0.434,18.0
19.107,-2.355,-0.491,17.0
17.615,-2.171,-0.549,16.0
15.803,-1.948,-0.577,13.0
14.696,-1.812,-0.615,13.0
25.12,-3.095,-0.348,20.0
22.004,-2.711,-0.422,20.0
19.593,-2.414,-0.481,18.0
17.939,-2.21,-0.538,16.0
16.181,-1.993,-0.572,13.0
15.013,-1.85,-0.611,14.0
26.048,-3.207,-0.331,11.0
22.642,-2.788,-0.409,21.0
20.103,-2.475,-0.47,19.0
18.232,-2.244,-0.526,17.0
16.57,-2.039,-0.566,14.0
15.269,-1.879,-0.604,14.0
29.452,-3.623,-0.34,18.0
23.339,-2.87,-0.394,22.0
20.598,-2.533,-0.458,19.0
18.502,-2.275,-0.512,18.0
17.014,-2.091,-0.562,14.0
15.469,-1.901,-0.593,15.0
29.896,-3.673,-0.31,22.0
24.034,-2.952,-0.377,21.0
21.099,-2.59,-0.444,18.0
18.847,-2.313,-0.499,16.0
17.499,-2.147,-0.557,16.0
15.728,-1.93,-0.585,15.0
35.37,-4.338,-0.325,3.0
24.917,-3.055,-0.362,22.0
21.688,-2.658,-0.431,18.0
19.398,-2.376,-0.491,17.0
17.847,-2.186,-0.547,16.0
16.159,-1.978,-0.582,14.0
35.645,-4.362,-0.286,20.0
25.996,-3.18,-0.347,7.0
22.38,-2.736,-0.418,23.0
19.886,-2.43,-0.48,17.0
18.147,-2.217,-0.535,16.0
16.46,-2.01,-0.573,14.0
36.155,-4.414,-0.247,15.0
0.0,0.0,0.0,0.0
22.985,-2.803,-0.402,22.0
20.447,-2.492,-0.469,18.0
18.415,-2.243,-0.521,17.0
16.921,-2.06,-0.569,14.0
37.452,-4.559,-0.212,21.0
29.573,-3.598,-0.325,31.0
23.946,-2.911,-0.391,21.0
21.049,-2.558,-0.458,19.0
18.834,-2.287,-0.511,19.0
17.481,-2.122,-0.567,17.0
38.419,-4.661,-0.172,23.0
30.618,-3.712,-0.301,15.0
24.836,-3.009,-0.376,21.0
21.606,-2.616,-0.445,19.0
19.375,-2.344,-0.502,25.0
17.886,-2.163,-0.56,16.0
38.803,-4.691,-0.128,14.0
35.497,-4.288,-0.307,20.0
25.419,-3.068,-0.356,15.0
22.188,-2.676,-0.431,21.0
19.695,-2.373,-0.488,23.0
18.218,-2.194,-0.549,18.0
42.06,-5.064,-0.09,18.0
35.887,-4.317,-0.269,19.0
0.0,0.0,0.0,0.0
22.953,-2.756,-0.419,21.0
20.47,-2.456,-0.483,19.0
18.5,-2.218,-0.536,17.0
0.0,0.0,0.0,0.0
37.126,-4.445,-0.235,15.0
29.473,-3.526,-0.344,21.0
23.71,-2.833,-0.406,21.0
21.052,-2.514,-0.473,20.0
18.818,-2.245,-0.523,17.0
46.566,-5.554,0.006,21.0
38.22,-4.554,-0.198,24.0
30.344,-3.612,-0.319,21.0
24.518,-2.915,-0.391,23.0
21.601,-2.566,-0.46,19.0
19.218,-2.28,-0.512,16.0
47.039,-5.581,0.06,4.0
38.938,-4.615,-0.157,14.0
35.232,-4.171,-0.331,7.0
25.263,-2.987,-0.374,17.0
22.232,-2.626,-0.448,19.0
19.789,-2.335,-0.505,17.0
51.067,-6.025,0.123,25.0
41.575,-4.899,-0.121,17.0
35.618,-4.192,-0.294,20.0
0.0,0.0,0.0,0.0
22.839,-2.681,-0.435,19.0
20.307,-2.381,-0.495,18.0
51.363,-6.023,0.181,5.0
0.0,0.0,0.0,0.0
36.702,-4.292,-0.262,14.0
29.044,-3.392,-0.366,8.0
23.251,-2.712,-0.417,22.0
20.788,-2.422,-0.484,19.0
75.177,-8.759,0.349,8.0
46.067,-5.359,-0.031,21.0
37.773,-4.388,-0.228,17.0
30.218,-3.506,-0.347,24.0
24.284,-2.813,-0.409,18.0
21.438,-2.48,-0.476,19.0
75.192,-8.7,0.431,18.0
46.807,-5.408,0.018,16.0
38.763,-4.472,-0.192,14.0
31.085,-3.58,-0.323,9.0
0.0,0.0,0.0,0.0
21.943,-2.52,-0.463,20.0
75.219,-8.64,0.513,23.0
48.563,-5.569,0.071,4.0
39.38,-4.508,-0.152,14.0
35.486,-4.056,-0.33,17.0
0.0,0.0,0.0,0.0
22.395,-2.552,-0.448,22.0
75.277,-8.579,0.594,22.0
50.877,-5.788,0.129,6.0
42.371,-4.812,-0.119,17.0
35.819,-4.061,-0.296,20.0
28.406,-3.216,-0.386,22.0
23.167,-2.618,-0.439,19.0
75.354,-8.517,0.674,9.0
75.358,-8.502,0.271,6.0
0.0,0.0,0.0,0.0
37.101,-4.171,-0.268,16.0
29.681,-3.331,-0.373,27.0
24.164,-2.707,-0.433,22.0
91.673,-10.273,0.915,6.0
78.978,-8.833,0.365,4.0
45.889,-5.123,-0.033,24.0
38.177,-4.254,-0.236,21.0
30.442,-3.386,-0.352,19.0
25.027,-2.779,-0.423,20.0
110.393,-12.258,1.216,9.0
83.397,-9.242,0.47,6.0
47.702,-5.276,0.013,23.0
38.879,-4.292,-0.201,14.0
31.96,-3.521,-0.337,12.0
27.47,-3.021,-0.437,11.0
110.616,-12.167,1.328,6.0
83.761,-9.194,0.555,8.0
48.614,-5.325,0.062,8.0
41.478,-4.534,-0.173,17.0
35.656,-3.89,-0.341,6.0
0.0,0.0,0.0,0.0
33.14,-3.609,0.43,49.0
33.127,-3.599,0.252,48.0
33.129,-3.591,0.074,44.0
33.116,-3.582,-0.106,37.0
33.117,-3.575,-0.284,25.0
0.0,0.0,0.0,0.0
33.127,-3.569,0.462,84.0
33.122,-3.56,0.284,71.0
33.106,-3.551,0.106,79.0
33.094,-3.542,-0.074,80.0
33.091,-3.533,-0.252,76.0
29.944,-3.191,-0.389,28.0
33.125,-3.53,0.493,77.0
33.117,-3.521,0.315,79.0
33.104,-3.511,0.137,83.0
33.091,-3.502,-0.044,84.0
33.081,-3.493,-0.222,82.0
0.0,0.0,0.0,0.0
33.153,-3.493,0.524,25.0
33.136,-3.482,0.345,53.0
33.145,-3.475,0.167,68.0
33.115,-3.463,-0.014,68.0
33.102,-3.454,-0.192,68.0
31.981,-3.329,-0.358,27.0
119.185,-12.409,1.991,23.0
104.619,-10.865,1.184,8.0
83.716,-8.672,0.497,4.0
48.54,-5.015,0.022,14.0
41.544,-4.282,-0.205,16.0
35.57,-3.657,-0.367,7.0
104.616,-10.757,1.839,6.0
104.716,-10.738,1.277,9.0
83.914,-8.582,0.571,7.0
51.139,-5.217,0.067,9.0
0.0,0.0,0.0,0.0
35.924,-3.646,-0.34,12.0
135.399,-13.742,2.496,150.0
114.398,-11.579,1.492,11.0
87.739,-8.856,0.671,11.0
54.005,-5.436,0.116,1.0
44.751,-4.492,-0.144,19.0
0.0,0.0,0.0,0.0
119.227,-11.938,2.296,150.0
135.507,-13.53,1.878,14.0
90.097,-8.971,0.762,3.0
70.956,-7.044,0.21,2.0
46.293,-4.583,-0.112,21.0
38.354,-3.787,-0.3,16.0
119.215,-11.771,2.391,34.0
135.514,-13.341,1.986,150.0
110.965,-10.891,1.027,8.0
79.613,-7.791,0.298,10.0
47.729,-4.658,-0.079,22.0
39.02,-3.797,-0.275,14.0
135.553,-13.191,2.822,55.0
135.545,-13.149,2.089,32.0
111.145,-10.75,1.112,14.0
83.731,-8.074,0.376,3.0
48.754,-4.687,-0.043,22.0
0.0,0.0,0.0,0.0
191.793,-18.385,4.135,8.0
119.227,-11.392,1.926,22.0
111.685,-10.638,1.199,15.0
83.358,-7.914,0.435,10.0
51.185,-4.844,-0.009,24.0
42.477,-4.008,-0.237,19.0
119.264,-11.253,2.657,54.0
119.238,-11.213,2.011,20.0
114.624,-10.744,1.312,4.0
85.091,-7.95,0.505,10.0
51.841,-4.827,0.027,8.0
43.952,-4.08,-0.215,19.0
135.544,-12.581,3.114,38.0
135.572,-12.541,2.379,150.0
119.117,-10.982,1.444,7.0
85.577,-7.864,0.565,13.0
55.315,-5.065,0.065,3.0
44.977,-4.105,-0.19,19.0
135.695,-12.383,3.207,10.0
135.595,-12.331,2.468,150.0
119.146,-10.797,1.521,16.0
89.467,-8.079,0.648,5.0
60.52,-5.446,0.11,1.0
46.65,-4.183,-0.167,21.0
119.287,-10.695,2.894,20.0
126.421,-11.292,2.381,31.0
119.165,-10.606,1.597,16.0
89.416,-7.929,0.704,5.0
67.842,-5.995,0.165,2.0
47.543,-4.187,-0.142,14.0
72.406,-6.374,1.8,8.0
135.681,-11.899,2.636,65.0
135.709,-11.857,1.897,81.0
89.661,-7.805,0.758,2.0
81.172,-7.04,0.244,4.0
0.0,0.0,0.0,0.0
119.223,-10.298,3.031,41.0
126.414,-10.877,2.526,24.0
119.191,-10.215,1.733,17.0
111.975,-9.56,1.007,8.0
83.189,-7.075,0.296,5.0
50.763,-4.301,-0.095,25.0
72.498,-6.14,1.882,21.0
126.498,-10.67,2.595,17.0
119.305,-10.023,1.798,26.0
114.238,-9.56,1.087,7.0
81.335,-6.78,0.331,4.0
51.445,-4.271,-0.07,25.0
119.33,-9.903,3.158,40.0
119.31,-9.861,2.507,64.0
119.269,-9.818,1.856,21.0
114.292,-9.37,1.143,9.0
72.276,-5.9,0.328,3.0
51.884,-4.218,-0.046,4.0
71.713,-5.828,1.931,10.0
119.315,-9.656,2.561,9.0
119.344,-9.617,1.911,86.0
119.228,-9.566,1.247,7.0
82.038,-6.554,0.41,5.0
58.594,-4.662,-0.026,2.0
71.738,-5.704,1.963,16.0
67.888,-5.374,1.486,8.0
67.898,-5.351,1.115,46.0
67.857,-5.324,0.738,80.0
67.854,-5.301,0.367,93.0
57.042,-4.437,-0.002,3.0
67.893,-5.278,1.885,88.0
67.9,-5.254,1.514,70.0
67.905,-5.23,1.142,38.0
119.22,-9.141,1.341,15.0
87.68,-6.694,0.507,4.0
62.789,-4.772,0.019,5.0
75.367,-5.723,2.12,7.0
119.377,-9.023,2.705,13.0
119.37,-8.98,2.051,38.0
119.224,-8.926,1.383,12.0
20.031,-1.492,0.122,9.0
63.895,-4.739,0.042,0.0
71.831,-5.323,2.044,21.0
20.036,-1.477,0.46,3.0
20.017,-1.469,0.35,8.0
20.021,-1.462,0.238,31.0
20.02,-1.455,0.129,25.0
0.0,0.0,0.0,0.0
20.015,-1.446,0.575,9.0
20.002,-1.438,0.465,9.0
20.003,-1.43,0.355,11.0
20.001,-1.423,0.244,18.0
20.035,-1.419,0.134,3.0
63.332,-4.462,0.078,3.0
20.009,-1.408,0.58,10.0
20.008,-1.4,0.47,9.0
20.044,-1.396,0.361,9.0
119.315,-8.266,1.485,16.0
20.048,-1.381,0.139,0.0
20.013,-1.372,0.029,9.0
20.029,-1.371,0.585,9.0
20.07,-1.367,0.476,6.0
20.049,-1.358,0.365,2.0
19.956,-1.344,0.252,14.0
19.994,-1.34,0.143,22.0
19.993,-1.332,0.033,21.0
20.038,-1.333,0.589,13.0
19.945,-1.32,0.477,11.0
19.928,-1.311,0.367,16.0
19.949,-1.305,0.255,27.0
19.972,-1.3,0.146,26.0
19.987,-1.294,0.036,27.0
19.952,-1.289,0.59,25.0
19.935,-1.281,0.479,19.0
19.933,-1.273,0.37,19.0
19.96,-1.268,0.258,28.0
19.992,-1.263,0.148,27.0
19.994,-1.255,0.038,24.0
19.953,-1.251,0.592,26.0
19.947,-1.243,0.482,21.0
19.941,-1.235,0.372,26.0
19.942,-1.228,0.26,26.0
19.99,-1.224,0.15,150.0
19.975,-1.215,0.04,150.0
19.951,-1.212,0.593,24.0
19.947,-1.204,0.483,22.0
19.936,-1.196,0.373,19.0
19.941,-1.189,0.261,25.0
20.038,-1.187,0.151,23.0
19.999,-1.178,0.041,14.0
19.961,-1.173,0.595,26.0
19.938,-1.165,0.484,24.0
19.948,-1.158,0.374,19.0
19.965,-1.151,0.262,26.0
20.001,-1.146,0.151,14.0
20.013,-1.14,0.041,14.0
19.963,-1.134,0.595,26.0
19.954,-1.126,0.484,22.0
19.955,-1.119,0.373,22.0
19.968,-1.112,0.261,23.0
19.997,-1.107,0.151,23.0
19.977,-1.098,0.04,24.0
19.971,-1.095,0.594,24.0
19.96,-1.087,0.483,19.0
19.951,-1.079,0.372,18.0
19.983,-1.074,0.26,27.0
19.972,-1.066,0.15,20.0
19.972,-1.059,0.039,35.0
19.965,-1.055,0.592,19.0
19.968,-1.048,0.482,16.0
19.974,-1.041,0.371,12.0
19.982,-1.034,0.258,18.0
20.013,-1.028,0.148,15.0
19.986,-1.019,0.037,18.0
20.07,-1.02,0.593,17.0
20.114,-1.015,0.483,18.0
20.139,-1.009,0.371,25.0
20.161,-1.002,0.258,22.0
138.199,-6.823,1.005,15.0
20.036,-0.981,0.034,2.0
20.115,-0.982,0.591,25.0
20.135,-0.975,0.48,19.0
20.143,-0.968,0.368,18.0
194.375,-9.275,2.458,17.0
138.202,-6.543,0.979,15.0
0.0,0.0,0.0,0.0
20.113,-0.941,0.587,17.0
20.154,-0.935,0.476,8.0
193.462,-8.914,3.502,21.0
194.612,-8.896,2.42,17.0
138.217,-6.268,0.951,13.0
0.0,0.0,0.0,0.0
193.383,-8.663,5.606,11.0
193.935,-8.614,4.542,9.0
192.758,-8.492,3.442,21.0
138.078,-6.031,1.683,12.0
138.043,-5.978,0.914,20.0
0.0,0.0,0.0,0.0
193.489,-8.275,5.557,14.0
193.727,-8.212,4.484,14.0
138.117,-5.803,2.427,12.0
187.239,-7.796,2.227,5.0
138.37,-5.711,0.875,11.0
0.0,0.0,0.0,0.0
193.84,-7.891,5.506,18.0
193.369,-7.799,4.414,7.0
193.17,-7.72,3.332,10.0
138.644,-5.489,1.604,2.0
138.413,-5.43,0.829,10.0
0.0,0.0,0.0,0.0
193.339,-7.475,5.425,8.0
193.918,-7.425,4.358,7.0
193.319,-7.329,3.264,23.0
138.398,-5.195,1.55,2.0
138.453,-5.146,0.777,9.0
0.0,0.0,0.0,0.0
192.945,-7.062,5.338,21.0
204.419,-7.407,4.512,14.0
193.382,-6.935,3.187,7.0
138.545,-4.918,1.495,12.0
138.466,-4.864,0.72,7.0
0.0,0.0,0.0,0.0
187.431,-6.476,5.106,26.0
187.467,-6.41,4.057,52.0
138.591,-4.687,2.223,5.0
138.574,-4.635,1.433,17.0
0.0,0.0,0.0,0.0
0.0,0.0,0.0,0.0
193.907,-6.302,5.191,22.0
194.152,-6.242,4.111,22.0
138.62,-4.406,2.158,4.0
138.659,-4.357,1.368,17.0
0.0,0.0,0.0,0.0
0.0,0.0,0.0,0.0
194.089,-5.913,5.098,27.0
194.619,-5.857,4.02,19.0
138.678,-4.124,2.087,7.0
138.38,-4.066,1.293,16.0
0.0,0.0,0.0,0.0
0.0,0.0,0.0,0.0
205.749,-5.851,5.293,5.0
195.002,-5.474,3.922,9.0
138.672,-3.843,2.01,7.0
138.807,-3.798,1.22,24.0
0.0,0.0,0.0,0.0
0.0,0.0,0.0,0.0
205.474,-5.423,5.166,13.0
193.108,-5.026,3.769,7.0
138.777,-3.564,1.93,4.0
138.827,-3.516,1.137,18.0
0.0,0.0,0.0,0.0
0.0,0.0,0.0,0.0
118.183,-2.879,2.898,21.0
193.149,-4.637,3.65,10.0
186.524,-4.413,2.477,5.0
138.893,-3.238,1.05,17.0
0.0,0.0,0.0,0.0
0.0,0.0,0.0,0.0
0.0,0.0,0.0,0.0
193.102,-4.246,3.522,14.0
0.0,0.0,0.0,0.0
138.97,-2.959,0.957,14.0
0.0,0.0,0.0,0.0
0.0,0.0,0.0,0.0
205.475,-4.178,4.761,19.0
193.253,-3.864,3.391,16.0
0.0,0.0,0.0,0.0
138.994,-2.683,0.859,13.0
0.0,0.0,0.0,0.0
0.0,0.0,0.0,0.0
206.402,-3.788,4.635,20.0
193.57,-3.484,3.254,17.0
139.121,-2.457,1.555,5.0
139.061,-2.408,0.757,6.0
0.0,0.0,0.0,0.0
0.0,0.0,0.0,0.0
206.695,-3.376,4.481,7.0
193.975,-3.104,3.112,7.0
138.99,-2.177,1.445,6.0
138.714,-2.126,0.646,2.0
0.0,0.0,0.0,0.0
0.0,0.0,0.0,0.0
0.0,0.0,0.0,0.0
139.167,-1.953,2.121,7.0
139.19,-1.907,1.335,16.0
0.0,0.0,0.0,0.0
0.0,0.0,0.0,0.0
47.257,-0.6,-0.351,1.0
0.0,0.0,0.0,0.0
139.264,-1.683,2.006,8.0
139.212,-1.635,1.218,21.0
0.0,0.0,0.0,0.0
0.0,0.0,0.0,0.0
0.0,0.0,0.0,0.0
119.742,-1.25,2.296,150.0
119.746,-1.211,1.618,150.0
119.739,-1.173,0.942,20.0
0.0,0.0,0.0,0.0
0.0,0.0,0.0,0.0
0.0,0.0,0.0,0.0
119.739,-1.015,2.186,69.0
119.643,-0.977,1.508,13.0
113.983,-0.894,0.791,9.0
83.064,-0.623,0.097,1.0
0.0,0.0,0.0,0.0
0.0,0.0,0.0,0.0
193.789,-1.274,3.357,22.0
119.682,-0.747,1.395,14.0
111.063,-0.656,0.665,5.0
0.0,0.0,0.0,0.0
0.0,0.0,0.0,0.0
0.0,0.0,0.0,0.0
119.855,-0.558,1.959,24.0
119.746,-0.519,1.278,17.0
110.912,-0.445,0.555,2.0
0.0,0.0,0.0,0.0
50.593,-0.171,-0.325,0.0
40.127,-0.123,-0.485,0.0
114.215,-0.315,1.751,3.0
119.708,-0.291,1.156,10.0
99.775,-0.212,0.398,1.0
0.0,0.0,0.0,0.0
0.0,0.0,0.0,0.0
37.709,-0.044,-0.495,0.0
111.161,-0.096,1.587,10.0
111.267,-0.061,0.957,6.0
95.69,-0.023,0.28,5.0
0.0,0.0,0.0,0.0
45.527,0.016,-0.388,2.0
35.803,0.024,-0.508,0.0
111.103,0.109,1.468,20.0
110.774,0.143,0.834,9.0
92.792,0.148,0.172,1.0
0.0,0.0,0.0,0.0
43.005,0.095,-0.413,0.0
35.22,0.088,-0.539,0.0
119.765,0.34,1.448,15.0
104.402,0.327,0.67,7.0
0.0,0.0,0.0,0.0
0.0,0.0,0.0,0.0
42.821,0.172,-0.459,1.0
33.874,0.146,-0.556,0.0
111.04,0.517,1.216,24.0
97.727,0.484,0.515,2.0
0.0,0.0,0.0,0.0
50.722,0.281,-0.314,0.0
0.0,0.0,0.0,0.0
32.458,0.199,-0.571,0.0
104.917,0.676,1.027,17.0
85.642,0.578,0.35,2.0
60.999,0.429,-0.097,0.0
48.674,0.357,-0.359,0.0
0.0,0.0,0.0,0.0
30.904,0.244,-0.58,0.0
98.571,0.811,0.847,8.0
83.849,0.714,0.242,3.0
0.0,0.0,0.0,0.0
45.672,0.415,-0.392,1.0
0.0,0.0,0.0,0.0
30.254,0.293,-0.605,0.0
98.334,0.982,0.723,12.0
80.715,0.829,0.134,4.0
0.0,0.0,0.0,0.0
42.387,0.459,-0.417,0.0
35.2,0.391,-0.547,0.0
29.164,0.332,-0.619,0.0
97.988,1.147,0.598,3.0
78.683,0.943,0.031,3.0
0.0,0.0,0.0,0.0
40.955,0.513,-0.454,0.0
33.003,0.423,-0.555,0.0
0.0,0.0,0.0,0.0
85.169,1.142,0.41,11.0
0.0,0.0,0.0,0.0
0.0,0.0,0.0,0.0
39.167,0.558,-0.486,0.0
0.0,0.0,0.0,0.0
26.732,0.395,-0.637,0.0
81.038,1.224,0.283,7.0
0.0,0.0,0.0,0.0
47.091,0.737,-0.373,0.0
0.0,0.0,0.0,0.0
30.31,0.491,-0.59,0.0
26.321,0.433,-0.663,0.0
73.702,1.237,0.157,3.0
0.0,0.0,0.0,0.0
45.681,0.791,-0.424,0.0
35.61,0.626,-0.538,0.0
29.273,0.522,-0.61,0.0
25.138,0.455,-0.667,0.0
71.957,1.325,0.054,2.0
0.0,0.0,0.0,0.0
0.0,0.0,0.0,0.0
33.853,0.65,-0.558,0.0
0.0,0.0,0.0,0.0
24.506,0.483,-0.684,0.0
70.15,1.404,-0.044,2.0
48.464,0.982,-0.307,0.0
0.0,0.0,0.0,0.0
0.0,0.0,0.0,0.0
27.015,0.568,-0.638,0.0
23.745,0.505,-0.697,0.0
0.0,0.0,0.0,0.0
48.602,1.061,-0.377,0.0
0.0,0.0,0.0,0.0
30.013,0.67,-0.58,0.0
26.369,0.596,-0.661,0.0
22.606,0.516,-0.696,0.0
0.0,0.0,0.0,0.0
0.0,0.0,0.0,0.0
35.43,0.837,-0.53,0.0
29.334,0.7,-0.61,0.0
25.205,0.608,-0.669,0.0
22.123,0.539,-0.714,0.0
0.0,0.0,0.0,0.0
0.0,0.0,0.0,0.0
0.0,0.0,0.0,0.0
28.409,0.72,-0.632,0.0
24.359,0.624,-0.682,0.0
21.42,0.554,-0.723,0.0
0.0,0.0,0.0,0.0
39.198,1.033,-0.478,0.0
31.786,0.845,-0.57,0.0
26.909,0.722,-0.639,0.0
23.43,0.634,-0.691,0.0
20.712,0.565,-0.73,0.0
45.747,1.261,-0.364,0.0
36.971,1.028,-0.507,0.0
0.0,0.0,0.0,0.0
26.119,0.738,-0.66,0.0
22.543,0.642,-0.699,0.0
20.05,0.576,-0.737,0.0
0.0,0.0,0.0,0.0
0.0,0.0,0.0,0.0
28.673,0.844,-0.601,1.0
24.912,0.739,-0.668,0.0
21.851,0.653,-0.711,0.0
19.507,0.587,-0.747,0.0
39.885,1.211,-0.44,0.0
0.0,0.0,0.0,0.0
28.482,0.877,-0.642,1.0
23.927,0.742,-0.679,0.0
21.134,0.66,-0.721,0.0
18.849,0.593,-0.751,0.0
37.982,1.205,-0.479,0.0
31.152,0.994,-0.571,0.0
26.547,0.853,-0.639,0.0
23.366,0.756,-0.7,0.0
20.457,0.666,-0.73,0.0
18.374,0.602,-0.762,0.0
35.9,1.186,-0.509,0.0
0.0,0.0,0.0,0.0
25.363,0.848,-0.651,0.0
22.346,0.752,-0.705,0.0
19.856,0.672,-0.74,0.0
17.935,0.611,-0.772,0.0
0.0,0.0,0.0,0.0
28.256,0.975,-0.609,0.0
24.587,0.854,-0.671,0.0
21.521,0.752,-0.714,0.0
19.202,0.675,-0.747,0.0
17.417,0.615,-0.778,0.0
32.224,1.146,-0.562,0.0
27.527,0.985,-0.638,0.0
23.61,0.849,-0.683,0.0
20.652,0.747,-0.718,0.0
18.717,0.681,-0.759,1.0
16.986,0.621,-0.787,0.0
30.563,1.124,-0.583,0.0
26.184,0.968,-0.65,0.0
22.804,0.847,-0.697,0.0
20.188,0.754,-0.736,0.0
18.243,0.685,-0.77,0.0
16.51,0.623,-0.792,0.0
0.0,0.0,0.0,0.0
25.053,0.955,-0.663,0.0
21.955,0.841,-0.707,0.0
19.523,0.752,-0.743,0.0
17.552,0.679,-0.77,0.0
16.098,0.626,-0.799,0.0
27.673,1.081,-0.619,0.0
24.096,0.946,-0.677,0.0
21.338,0.841,-0.723,0.0
18.902,0.749,-0.751,0.0
17.132,0.682,-0.78,0.0
15.739,0.629,-0.807,0.0
26.52,1.065,-0.638,0.0
23.154,0.934,-0.69,0.0
20.466,0.829,-0.728,0.0
18.33,0.746,-0.76,0.0
16.729,0.684,-0.79,0.0
15.294,0.628,-0.81,0.0
25.47,1.05,-0.655,0.0
22.369,0.926,-0.704,0.0
19.725,0.82,-0.735,0.0
17.879,0.746,-0.771,0.0
16.276,0.682,-0.796,0.0
14.992,0.631,-0.82,0.0
24.454,1.033,-0.671,0.0
21.548,0.914,-0.715,0.0
19.196,0.817,-0.748,0.0
17.303,0.74,-0.776,0.0
15.747,0.676,-0.797,0.0
14.489,0.624,-0.817,0.0
23.512,1.016,-0.685,0.0
20.77,0.901,-0.725,0.0
18.588,0.81,-0.756,0.0
16.834,0.736,-0.783,0.0
15.381,0.675,-0.805,0.0
14.312,0.63,-0.832,0.0
22.561,0.997,-0.696,0.0
20.066,0.889,-0.735,0.0
18.015,0.801,-0.763,0.0
16.403,0.732,-0.792,0.0
15.053,0.674,-0.814,0.0
13.971,0.628,-0.836,0.0
21.734,0.98,-0.708,0.0
19.388,0.877,-0.743,0.0
17.506,0.794,-0.772,0.0
15.88,0.723,-0.794,0.0
14.649,0.669,-0.817,0.0
13.594,0.623,-0.837,0.0
20.937,0.962,-0.718,0.0
18.478,0.852,-0.74,0.0
16.996,0.786,-0.779,0.0
15.508,0.719,-0.802,0.0
14.361,0.668,-0.826,0.0
13.348,0.623,-0.845,0.0
20.224,0.946,-0.728,0.0
18.14,0.851,-0.758,0.0
16.614,0.781,-0.79,0.0
15.201,0.717,-0.812,0.0
14.006,0.663,-0.83,0.0
13.071,0.62,-0.85,0.0
19.526,0.928,-0.737,0.0
17.608,0.839,-0.766,0.0
16.0,0.765,-0.788,0.0
14.711,0.705,-0.811,0.0
13.712,0.659,-0.836,0.0
12.585,0.607,-0.84,0.0
18.879,0.911,-0.745,0.0
17.123,0.829,-0.775,0.0
15.77,0.765,-0.805,0.0
14.429,0.702,-0.821,0.0
13.302,0.649,-0.834,0.0
12.391,0.606,-0.849,0.0
18.316,0.897,-0.755,0.0
16.684,0.819,-0.784,0.0
15.309,0.754,-0.808,0.0
14.073,0.695,-0.825,0.0
13.089,0.648,-0.844,0.0
12.122,0.602,-0.852,0.0
17.811,0.884,-0.765,0.0
16.177,0.805,-0.788,0.0
14.896,0.743,-0.812,0.0
13.732,0.687,-0.829,0.0
12.744,0.639,-0.844,0.0
11.795,0.593,-0.849,0.0
17.215,0.865,-0.769,0.0
15.814,0.797,-0.798,0.0
14.571,0.736,-0.82,0.0
13.449,0.681,-0.836,0.0
12.466,0.632,-0.847,0.0
11.598,0.59,-0.856,0.0
16.929,0.861,-0.786,0.0
15.448,0.787,-0.807,0.0
14.181,0.724,-0.823,0.0
13.219,0.677,-0.845,0.0
12.154,0.623,-0.847,0.0
11.357,0.584,-0.858,0.0
16.425,0.844,-0.791,0.0
14.994,0.772,-0.809,0.0
13.802,0.712,-0.825,0.0
12.901,0.667,-0.847,0.0
11.909,0.617,-0.851,0.0
11.17,0.58,-0.863,0.0
15.986,0.829,-0.798,0.0
14.594,0.759,-0.813,0.0
13.642,0.71,-0.839,0.0
12.482,0.651,-0.841,0.0
11.659,0.61,-0.853,0.0
10.985,0.575,-0.868,0.0
15.504,0.812,-0.8,0.0
14.288,0.749,-0.82,0.0
13.281,0.698,-0.84,0.0
12.254,0.645,-0.847,0.0
11.436,0.603,-0.857,0.0
10.77,0.569,-0.87,0.0
15.067,0.795,-0.804,0.0
14.0,0.74,-0.828,0.0
12.988,0.687,-0.843,0.0
11.922,0.632,-0.845,0.0
11.187,0.594,-0.858,0.0
10.586,0.563,-0.873,0.0
14.737,0.783,-0.812,0.0
13.701,0.729,-0.834,0.0
12.759,0.68,-0.851,0.0
11.718,0.625,-0.85,0.0
11.071,0.592,-0.868,0.0
10.419,0.558,-0.877,0.0
14.4,0.77,-0.818,0.0
13.415,0.718,-0.839,0.0
12.306,0.66,-0.841,0.0
11.504,0.618,-0.855,0.0
10.811,0.581,-0.866,0.0
10.244,0.552,-0.88,0.0
14.067,0.756,-0.823,0.0
13.137,0.707,-0.844,0.0
12.096,0.652,-0.848,0.0
11.253,0.607,-0.855,0.0
10.634,0.575,-0.87,0.0
10.113,0.547,-0.886,0.0
13.773,0.744,-0.829,0.0
12.832,0.694,-0.847,0.0
11.827,0.64,-0.849,0.0
11.094,0.601,-0.862,0.0
10.514,0.571,-0.878,0.0
9.965,0.542,-0.89,0.0
13.546,0.734,-0.838,0.0
12.386,0.672,-0.838,0.0
11.605,0.63,-0.852,0.0
10.911,0.593,-0.866,0.0
10.339,0.563,-0.88,0.0
9.85,0.537,-0.896,0.0
13.168,0.716,-0.836,0.0
12.226,0.665,-0.847,0.0
11.399,0.621,-0.856,0.0
10.711,0.584,-0.868,0.0
10.159,0.555,-0.882,0.0
9.725,0.532,-0.901,0.0
12.974,0.707,-0.845,0.0
11.896,0.649,-0.844,0.0
11.11,0.607,-0.853,0.0
10.532,0.576,-0.871,0.0
10.051,0.55,-0.889,0.0
9.572,0.524,-0.903,0.0
12.567,0.686,-0.839,0.0
11.699,0.639,-0.849,0.0
11.059,0.604,-0.867,0.0
10.386,0.568,-0.876,0.0
9.913,0.543,-0.893,0.0
9.425,0.517,-0.904,0.0
12.301,0.672,-0.842,0.0
11.552,0.631,-0.857,0.0
10.792,0.59,-0.863,0.0
10.232,0.56,-0.879,0.0
9.814,0.538,-0.9,0.0
9.368,0.514,-0.914,0.0
12.074,0.66,-0.845,0.0
11.245,0.615,-0.852,0.0
10.64,0.582,-0.868,0.0
10.111,0.553,-0.885,0.0
9.683,0.53,-0.904,0.0
9.159,0.502,-0.908,0.0
11.817,0.645,-0.846,0.0
11.11,0.607,-0.86,0.0
10.483,0.573,-0.872,0.0
9.989,0.546,-0.89,0.0
9.521,0.521,-0.904,0.0
9.032,0.494,-0.91,0.0
11.593,0.632,-0.848,0.0
10.961,0.598,-0.865,0.0
10.326,0.563,-0.875,0.0
9.861,0.538,-0.894,0.0
9.351,0.511,-0.902,0.0
8.897,0.486,-0.91,0.0
11.445,0.623,-0.855,0.0
10.721,0.583,-0.863,0.0
10.208,0.556,-0.881,0.0
9.706,0.528,-0.895,0.0
9.256,0.504,-0.908,0.0
8.841,0.482,-0.919,0.0
11.166,0.606,-0.851,0.0
10.599,0.575,-0.87,0.0
10.067,0.546,-0.884,0.0
9.55,0.518,-0.895,0.0
9.117,0.495,-0.908,0.0
8.728,0.474,-0.92,0.0
11.103,0.6,-0.863,0.0
10.448,0.565,-0.873,0.0
9.947,0.538,-0.889,0.0
9.456,0.511,-0.901,0.0
9.073,0.491,-0.917,0.0
8.606,0.466,-0.92,0.0
10.917,0.588,-0.865,0.0
10.295,0.554,-0.875,0.0
9.836,0.529,-0.893,0.0
9.292,0.5,-0.899,0.0
8.945,0.482,-0.918,0.0
8.503,0.458,-0.922,0.0
10.711,0.574,-0.865,0.0
10.154,0.544,-0.878,0.0
9.706,0.52,-0.896,0.0
9.214,0.493,-0.905,0.0
8.83,0.473,-0.919,0.0
8.426,0.451,-0.926,0.0
10.588,0.564,-0.87,0.0
10.066,0.536,-0.885,0.0
9.571,0.509,-0.897,0.0
9.128,0.486,-0.91,0.0
8.679,0.462,-0.915,0.0
8.308,0.442,-0.925,0.0
10.462,0.554,-0.874,0.0
9.958,0.527,-0.89,0.0
9.484,0.502,-0.902,0.0
8.988,0.475,-0.908,0.0
8.612,0.455,-0.92,0.0
8.251,0.436,-0.93,0.0
10.332,0.543,-0.878,0.0
9.841,0.517,-0.893,0.0
9.314,0.489,-0.899,0.0
8.956,0.47,-0.917,0.0
8.524,0.447,-0.923,0.0
8.16,0.428,-0.931,0.0
10.192,0.531,-0.879,0.0
9.724,0.507,-0.895,0.0
9.239,0.481,-0.904,0.0
8.812,0.459,-0.915,0.0
8.422,0.438,-0.923,0.0
8.045,0.418,-0.929,0.0
10.113,0.523,-0.886,0.0
9.609,0.496,-0.897,0.0
9.099,0.47,-0.902,0.0
8.747,0.451,-0.919,0.0
8.379,0.432,-0.929,0.0
7.965,0.411,-0.93,0.0
9.938,0.509,-0.884,0.0
9.548,0.489,-0.904,0.0
9.047,0.463,-0.909,0.0
8.545,0.437,-0.909,0.0
8.266,0.422,-0.927,0.0
7.916,0.404,-0.934,0.0
9.868,0.5,-0.89,0.0
9.374,0.475,-0.9,0.0
8.916,0.451,-0.907,0.0
8.56,0.433,-0.921,0.0
8.216,0.415,-0.932,0.0
7.861,0.397,-0.938,0.0
9.781,0.491,-0.894,0.0
9.295,0.466,-0.903,0.0
8.815,0.441,-0.908,0.0
8.474,0.424,-0.923,0.0
8.112,0.405,-0.93,0.0
7.746,0.387,-0.934,0.0
9.694,0.481,-0.898,0.0
9.256,0.458,-0.911,0.0
8.804,0.435,-0.917,0.0
8.39,0.415,-0.924,0.0
8.049,0.397,-0.933,0.0
7.663,0.378,-0.933,0.0
9.567,0.468,-0.897,0.0
9.101,0.445,-0.906,0.0
8.645,0.422,-0.911,0.0
8.276,0.404,-0.921,0.0
7.926,0.386,-0.928,0.0
7.647,0.372,-0.94,0.0
9.495,0.459,-0.901,0.0
9.085,0.438,-0.915,0.0
8.644,0.417,-0.92,0.0
0.0,0.0,0.0,0.0
7.896,0.38,-0.933,0.0
7.568,0.363,-0.938,0.0
9.414,0.449,-0.904,0.0
8.958,0.426,-0.912,0.0
8.536,0.406,-0.918,0.0
0.0,0.0,0.0,0.0
7.843,0.372,-0.936,0.0
7.54,0.357,-0.943,0.0
9.316,0.437,-0.905,0.0
8.862,0.415,-0.912,0.0
8.467,0.396,-0.92,0.0
0.0,0.0,0.0,0.0
7.809,0.364,-0.94,0.0
7.487,0.349,-0.945,0.0
9.23,0.427,-0.906,0.0
8.767,0.405,-0.911,0.0
8.38,0.386,-0.919,0.0
8.058,0.371,-0.931,0.0
7.731,0.355,-0.938,0.0
7.467,0.342,-0.95,0.0
9.096,0.414,-0.902,0.0
8.792,0.399,-0.922,0.0
8.323,0.377,-0.921,0.0
7.973,0.36,-0.929,0.0
7.677,0.347,-0.939,0.0
7.37,0.332,-0.944,0.0
9.103,0.407,-0.911,0.0
8.709,0.388,-0.922,0.0
8.286,0.369,-0.925,0.0
7.901,0.351,-0.928,0.0
7.605,0.337,-0.938,0.0
7.348,0.325,-0.949,0.0
8.972,0.394,-0.906,0.0
8.658,0.379,-0.925,0.0
8.217,0.359,-0.925,0.0
7.841,0.342,-0.929,0.0
7.561,0.329,-0.939,0.0
7.278,0.316,-0.946,0.0
8.905,0.383,-0.908,0.0
8.524,0.366,-0.918,0.0
8.152,0.349,-0.925,0.0
7.832,0.335,-0.934,0.0
7.528,0.321,-0.942,0.0
7.213,0.307,-0.944,0.0
8.89,0.375,-0.914,0.0
8.463,0.356,-0.918,0.0
8.099,0.34,-0.926,0.0
7.766,0.325,-0.933,0.0
7.465,0.312,-0.94,0.0
0.0,0.0,0.0,0.0
8.805,0.364,-0.912,0.0
8.435,0.347,-0.922,0.0
8.094,0.332,-0.931,0.0
7.709,0.316,-0.932,0.0
7.407,0.303,-0.939,0.0
0.0,0.0,0.0,0.0
8.76,0.354,-0.914,0.0
8.355,0.337,-0.92,0.0
8.019,0.322,-0.929,0.0
7.707,0.309,-0.938,0.0
7.388,0.295,-0.942,0.0
0.0,0.0,0.0,0.0
8.717,0.344,-0.916,0.0
8.343,0.328,-0.924,0.0
7.959,0.312,-0.928,0.0
7.675,0.3,-0.94,0.0
7.394,0.288,-0.948,0.0
0.0,0.0,0.0,0.0
8.642,0.333,-0.914,0.0
8.294,0.318,-0.925,0.0
7.996,0.306,-0.937,0.0
7.604,0.29,-0.936,0.0
7.321,0.278,-0.943,0.0
0.0,0.0,0.0,0.0
8.601,0.323,-0.915,0.0
8.237,0.308,-0.924,0.0
7.918,0.295,-0.933,0.0
7.556,0.281,-0.935,0.0
0.0,0.0,0.0,0.0
0.0,0.0,0.0,0.0
8.56,0.313,-0.916,0.0
8.211,0.299,-0.926,0.0
7.831,0.284,-0.928,0.0
7.566,0.274,-0.941,0.0
0.0,0.0,0.0,0.0
0.0,0.0,0.0,0.0
8.57,0.305,-0.922,0.0
8.109,0.287,-0.919,0.0
7.869,0.278,-0.936,0.0
7.563,0.266,-0.944,0.0
0.0,0.0,0.0,0.0
0.0,0.0,0.0,0.0
8.5,0.294,-0.919,0.0
8.188,0.282,-0.932,0.0
7.822,0.268,-0.935,0.0
0.0,0.0,0.0,0.0
0.0,0.0,0.0,0.0
6.959,0.235,-0.952,0.0
8.452,0.283,-0.918,0.0
8.112,0.27,-0.927,0.0
7.796,0.259,-0.935,0.0
0.0,0.0,0.0,0.0
0.0,0.0,0.0,0.0
0.0,0.0,0.0,0.0
8.427,0.273,-0.919,0.0
8.081,0.261,-0.927,0.0
7.764,0.249,-0.935,0.0
0.0,0.0,0.0,0.0
0.0,0.0,0.0,0.0
0.0,0.0,0.0,0.0
8.397,0.263,-0.919,0.0
8.074,0.252,-0.929,0.0
7.755,0.241,-0.937,0.0
0.0,0.0,0.0,0.0
0.0,0.0,0.0,0.0
0.0,0.0,0.0,0.0
8.422,0.255,-0.924,0.0
8.088,0.244,-0.933,0.0
0.0,0.0,0.0,0.0
0.0,0.0,0.0,0.0
0.0,0.0,0.0,0.0
0.0,0.0,0.0,0.0
8.347,0.244,-0.918,0.0
8.043,0.234,-0.931,0.0
0.0,0.0,0.0,0.0
0.0,0.0,0.0,0.0
0.0,0.0,0.0,0.0
0.0,0.0,0.0,0.0
8.418,0.237,-0.928,0.0
8.016,0.224,-0.929,0.0
7.673,0.213,-0.933,0.0
0.0,0.0,0.0,0.0
0.0,0.0,0.0,0.0
0.0,0.0,0.0,0.0
8.381,0.226,-0.926,0.0
8.059,0.216,-0.936,0.0
7.671,0.204,-0.934,0.0
0.0,0.0,0.0,0.0
0.0,0.0,0.0,0.0
0.0,0.0,0.0,0.0
8.334,0.215,-0.922,0.0
0.0,0.0,0.0,0.0
7.695,0.196,-0.939,0.0
0.0,0.0,0.0,0.0
0.0,0.0,0.0,0.0
0.0,0.0,0.0,0.0
8.313,0.205,-0.921,0.0
0.0,0.0,0.0,0.0
7.648,0.186,-0.934,0.0
0.0,0.0,0.0,0.0
0.0,0.0,0.0,0.0
0.0,0.0,0.0,0.0
8.383,0.198,-0.929,0.0
7.981,0.187,-0.93,0.0
0.0,0.0,0.0,0.0
0.0,0.0,0.0,0.0
0.0,0.0,0.0,0.0
0.0,0.0,0.0,0.0
8.319,0.187,-0.922,0.0
7.998,0.178,-0.932,0.0
7.654,0.169,-0.935,0.0
0.0,0.0,0.0,0.0
0.0,0.0,0.0,0.0
0.0,0.0,0.0,0.0
8.338,0.177,-0.924,0.0
7.983,0.168,-0.93,0.0
0.0,0.0,0.0,0.0
0.0,0.0,0.0,0.0
0.0,0.0,0.0,0.0
0.0,0.0,0.0,0.0
8.343,0.168,-0.924,0.0
7.973,0.159,-0.928,0.0
7.689,0.152,-0.938,0.0
0.0,0.0,0.0,0.0
7.128,0.138,-0.951,0.0
0.0,0.0,0.0,0.0
8.34,0.158,-0.923,0.0
8.01,0.151,-0.931,0.0
0.0,0.0,0.0,0.0
0.0,0.0,0.0,0.0
0.0,0.0,0.0,0.0
0.0,0.0,0.0,0.0
8.384,0.149,-0.926,0.0
8.048,0.142,-0.934,0.0
0.0,0.0,0.0,0.0
0.0,0.0,0.0,0.0
0.0,0.0,0.0,0.0
0.0,0.0,0.0,0.0
8.378,0.14,-0.924,0.0
8.017,0.132,-0.929,0.0
7.72,0.126,-0.938,0.0
0.0,0.0,0.0,0.0
0.0,0.0,0.0,0.0
0.0,0.0,0.0,0.0
8.394,0.13,-0.924,0.0
7.962,0.122,-0.921,0.0
7.711,0.117,-0.935,0.0
0.0,0.0,0.0,0.0
0.0,0.0,0.0,0.0
0.0,0.0,0.0,0.0
8.388,0.121,-0.921,0.0
0.0,0.0,0.0,0.0
7.735,0.108,-0.935,0.0
0.0,0.0,0.0,0.0
0.0,0.0,0.0,0.0
0.0,0.0,0.0,0.0
8.397,0.111,-0.919,0.0
8.064,0.105,-0.927,0.0
7.755,0.099,-0.935,0.0
0.0,0.0,0.0,0.0
0.0,0.0,0.0,0.0
6.903,0.085,-0.949,0.0
8.437,0.102,-0.92,0.0
8.12,0.096,-0.93,0.0
7.754,0.091,-0.932,0.0
0.0,0.0,0.0,0.0
0.0,0.0,0.0,0.0
6.932,0.077,-0.95,0.0
8.489,0.093,-0.922,0.0
0.0,0.0,0.0,0.0
7.813,0.082,-0.935,0.0
0.0,0.0,0.0,0.0
0.0,0.0,0.0,0.0
6.94,0.069,-0.948,0.0
8.543,0.084,-0.923,0.0
0.0,0.0,0.0,0.0
7.831,0.074,-0.933,0.0
0.0,0.0,0.0,0.0
0.0,0.0,0.0,0.0
0.0,0.0,0.0,0.0
8.533,0.074,-0.918,0.0
8.183,0.069,-0.925,0.0
0.0,0.0,0.0,0.0
0.0,0.0,0.0,0.0
0.0,0.0,0.0,0.0
6.963,0.053,-0.943,0.0
8.584,0.065,-0.918,0.0
8.263,0.061,-0.93,0.0
7.901,0.056,-0.933,0.0
0.0,0.0,0.0,0.0
0.0,0.0,0.0,0.0
0.0,0.0,0.0,0.0
8.627,0.055,-0.918,0.0
8.299,0.052,-0.929,0.0
7.931,0.048,-0.931,0.0
0.0,0.0,0.0,0.0
0.0,0.0,0.0,0.0
0.0,0.0,0.0,0.0
8.693,0.046,-0.919,0.0
8.357,0.043,-0.929,0.0
0.0,0.0,0.0,0.0
0.0,0.0,0.0,0.0
0.0,0.0,0.0,0.0
7.108,0.031,-0.949,0.0
8.761,0.037,-0.92,0.0
8.364,0.034,-0.924,0.0
8.022,0.031,-0.931,0.0
0.0,0.0,0.0,0.0
0.0,0.0,0.0,0.0
7.119,0.023,-0.945,0.0
8.777,0.028,-0.915,0.0
8.411,0.025,-0.923,0.0
8.029,0.022,-0.925,0.0
0.0,0.0,0.0,0.0
0.0,0.0,0.0,0.0
7.186,0.016,-0.948,0.0
8.803,0.019,-0.911,0.0
8.462,0.016,-0.922,0.0
8.148,0.014,-0.932,0.0
0.0,0.0,0.0,0.0
0.0,0.0,0.0,0.0
7.207,0.008,-0.944,0.0
8.881,0.009,-0.911,0.0
8.485,0.007,-0.917,0.0
8.178,0.005,-0.929,0.0
0.0,0.0,0.0,0.0
7.568,0.002,-0.943,0.0
7.255,0.0,-0.944,0.0
8.998,0.0,-0.916,0.0
8.614,0.0,-0.923,0.0
8.255,-0.002,-0.93,0.0
7.9,-0.004,-0.934,0.0
7.569,-0.005,-0.937,0.0
7.345,-0.006,-0.949,0.0
9.058,-0.008,-0.913,0.0
8.654,-0.009,-0.92,0.0
8.259,-0.01,-0.923,0.0
0.0,0.0,0.0,0.0
7.628,-0.013,-0.937,0.0
0.0,0.0,0.0,0.0
9.1,-0.017,-0.909,0.0
8.671,-0.018,-0.913,0.0
8.327,-0.019,-0.922,0.0
0.0,0.0,0.0,0.0
7.722,-0.02,-0.94,0.0
7.415,-0.021,-0.944,0.0
9.155,-0.026,-0.905,0.0
8.857,-0.027,-0.924,0.0
8.413,-0.027,-0.923,0.0
8.045,-0.028,-0.927,0.0
7.7,-0.028,-0.93,0.0
7.478,-0.028,-0.944,0.0
9.259,-0.035,-0.906,0.0
8.88,-0.036,-0.917,0.0
8.473,-0.036,-0.921,0.0
8.126,-0.036,-0.928,0.0
7.837,-0.036,-0.938,0.0
7.551,-0.036,-0.945,0.0
9.385,-0.045,-0.908,0.0
8.918,-0.044,-0.911,0.0
8.551,-0.044,-0.92,0.0
0.0,0.0,0.0,0.0
7.895,-0.043,-0.936,0.0
7.62,-0.043,-0.945,0.0
9.459,-0.054,-0.905,0.0
9.068,-0.053,-0.916,0.0
8.684,-0.053,-0.924,0.0
8.313,-0.052,-0.931,0.0
7.965,-0.051,-0.935,0.0
7.688,-0.051,-0.944,0.0
9.555,-0.063,-0.903,0.0
9.163,-0.062,-0.915,0.0
8.796,-0.061,-0.926,0.0
8.406,-0.06,-0.931,0.0
8.042,-0.059,-0.935,0.0
7.722,-0.058,-0.939,0.0
9.638,-0.072,-0.899,0.0
9.233,-0.07,-0.911,0.0
8.852,-0.069,-0.921,0.0
8.442,-0.067,-0.925,0.0
8.085,-0.066,-0.93,0.0
7.782,-0.065,-0.937,0.0
9.756,-0.081,-0.898,0.0
9.307,-0.079,-0.907,0.0
8.919,-0.077,-0.917,0.0
8.477,-0.075,-0.918,0.0
8.211,-0.074,-0.933,0.0
7.924,-0.073,-0.944,0.0
9.85,-0.09,-0.894,0.0
9.434,-0.088,-0.907,0.0
9.052,-0.086,-0.919,0.0
0.0,0.0,0.0,0.0
8.269,-0.081,-0.929,0.0
7.929,-0.079,-0.934,0.0
9.958,-0.099,-0.891,0.0
9.537,-0.097,-0.904,0.0
9.108,-0.094,-0.912,0.0
0.0,0.0,0.0,0.0
8.349,-0.089,-0.927,0.0
8.036,-0.087,-0.936,0.0
10.111,-0.109,-0.891,0.0
9.635,-0.105,-0.9,0.0
9.238,-0.102,-0.913,0.0
8.777,-0.098,-0.915,0.0
8.475,-0.097,-0.929,0.0
8.108,-0.094,-0.933,0.0
10.258,-0.118,-0.89,0.0
9.768,-0.114,-0.899,0.0
9.327,-0.11,-0.909,0.0
8.922,-0.107,-0.918,0.0
8.534,-0.103,-0.924,0.0
8.179,-0.1,-0.929,0.0
10.346,-0.126,-0.883,0.0
9.87,-0.122,-0.895,0.0
9.419,-0.118,-0.904,0.0
9.014,-0.114,-0.914,0.0
8.656,-0.111,-0.924,0.0
8.32,-0.108,-0.933,0.0
10.476,-0.135,-0.879,0.0
10.035,-0.131,-0.895,0.0
9.54,-0.126,-0.902,0.0
9.118,-0.122,-0.911,0.0
8.743,-0.118,-0.921,0.0
8.367,-0.114,-0.926,0.0
10.634,-0.145,-0.876,0.0
10.187,-0.14,-0.893,0.0
9.667,-0.134,-0.899,0.0
9.276,-0.13,-0.913,0.0
8.862,-0.126,-0.92,0.0
8.533,-0.122,-0.931,0.0
10.836,-0.154,-0.876,0.0
10.268,-0.148,-0.885,0.0
9.82,-0.142,-0.899,0.0
9.39,-0.138,-0.91,0.0
9.03,-0.134,-0.923,0.0
8.575,-0.128,-0.923,0.0
10.99,-0.163,-0.872,0.0
10.398,-0.156,-0.88,0.0
9.933,-0.15,-0.893,0.0
9.494,-0.145,-0.905,0.0
9.11,-0.14,-0.917,0.0
8.712,-0.135,-0.924,0.0
11.108,-0.171,-0.864,0.0
10.587,-0.165,-0.879,0.0
10.085,-0.158,-0.891,0.0
9.649,-0.153,-0.905,0.0
9.224,-0.147,-0.914,0.0
8.83,-0.142,-0.922,0.0
11.337,-0.181,-0.864,0.0
10.754,-0.173,-0.876,0.0
10.235,-0.166,-0.888,0.0
9.793,-0.16,-0.902,0.0
9.33,-0.154,-0.909,0.0
8.948,-0.148,-0.919,0.0
11.485,-0.189,-0.856,0.0
10.953,-0.182,-0.874,0.0
10.39,-0.174,-0.884,0.0
9.884,-0.166,-0.894,0.0
9.473,-0.161,-0.907,0.0
9.062,-0.155,-0.916,0.0
11.705,-0.199,-0.853,0.0
11.103,-0.19,-0.868,0.0
10.54,-0.181,-0.879,0.0
10.084,-0.175,-0.896,0.0
9.628,-0.168,-0.906,0.0
9.197,-0.161,-0.914,0.0
11.966,-0.209,-0.852,0.0
11.325,-0.199,-0.866,0.0
10.737,-0.189,-0.878,0.0
10.236,-0.182,-0.892,0.0
9.767,-0.174,-0.902,0.0
9.339,-0.168,-0.912,0.0
12.276,-0.219,-0.853,0.0
11.494,-0.206,-0.859,0.0
10.946,-0.197,-0.876,0.0
10.381,-0.188,-0.886,0.0
9.892,-0.18,-0.897,0.0
9.483,-0.174,-0.91,0.0
12.53,-0.228,-0.849,0.0
11.666,-0.214,-0.852,0.0
11.085,-0.204,-0.868,0.0
10.533,-0.195,-0.881,0.0
10.085,-0.188,-0.896,0.0
9.595,-0.179,-0.903,0.0
12.932,-0.24,-0.854,0.0
11.984,-0.224,-0.854,0.0
11.32,-0.212,-0.866,0.0
10.743,-0.202,-0.879,0.0
10.247,-0.194,-0.893,0.0
9.787,-0.186,-0.904,0.0
13.25,-0.25,-0.851,0.0
12.3,-0.233,-0.855,0.0
11.511,-0.219,-0.86,0.0
10.9,-0.208,-0.873,0.0
10.408,-0.2,-0.888,0.0
9.951,-0.192,-0.901,0.0
13.548,-0.26,-0.846,0.0
12.513,-0.241,-0.847,0.0
11.711,-0.226,-0.854,0.0
11.108,-0.215,-0.869,0.0
10.593,-0.206,-0.884,0.0
10.111,-0.197,-0.897,0.0
13.789,-0.268,-0.836,0.0
12.989,-0.253,-0.855,0.0
12.053,-0.236,-0.857,0.0
11.336,-0.222,-0.866,0.0
10.8,-0.212,-0.882,0.0
10.271,-0.203,-0.892,0.0
14.148,-0.278,-0.832,0.0
13.247,-0.261,-0.848,0.0
12.36,-0.244,-0.856,0.0
11.545,-0.229,-0.861,0.0
10.991,-0.218,-0.877,0.0
10.44,-0.208,-0.887,0.0
14.526,-0.287,-0.827,0.0
13.561,-0.269,-0.843,0.0
12.649,-0.252,-0.852,0.0
11.786,-0.235,-0.856,0.0
11.197,-0.224,-0.872,0.0
10.637,-0.213,-0.884,0.0
14.837,-0.296,-0.817,0.0
13.905,-0.278,-0.838,0.0
13.042,-0.261,-0.854,0.0
12.12,-0.243,-0.857,0.0
11.388,-0.229,-0.865,0.0
10.867,-0.219,-0.882,0.0
15.322,-0.307,-0.814,0.0
14.261,-0.286,-0.832,0.0
13.339,-0.268,-0.848,0.0
12.378,-0.249,-0.852,0.0
11.602,-0.234,-0.859,0.0
11.035,-0.223,-0.875,0.0
18.084,-0.363,-0.927,0.0
14.616,-0.294,-0.825,0.0
13.727,-0.276,-0.846,0.0
0.0,0.0,0.0,0.0
11.902,-0.24,-0.859,0.0
11.231,-0.227,-0.869,0.0
18.14,-0.364,-0.895,0.0
15.101,-0.304,-0.823,0.0
14.073,-0.283,-0.84,0.0
13.155,-0.265,-0.855,0.0
12.231,-0.247,-0.859,0.0
11.468,-0.232,-0.865,0.0
16.773,-0.336,-0.795,0.0
15.495,-0.311,-0.815,0.0
14.372,-0.289,-0.83,0.0
13.397,-0.269,-0.845,0.0
12.469,-0.251,-0.851,0.0
11.676,-0.235,-0.858,0.0
17.853,-0.357,-0.812,0.0
18.151,-0.363,-0.919,0.0
14.753,-0.295,-0.824,0.0
13.75,-0.275,-0.84,0.0
12.921,-0.259,-0.857,0.0
12.031,-0.241,-0.86,0.0
18.085,-0.36,-0.787,6.0
16.545,-0.329,-0.805,0.0
15.2,-0.302,-0.819,0.0
14.167,-0.282,-0.838,0.0
13.211,-0.263,-0.85,0.0
12.353,-0.246,-0.859,0.0
18.116,-0.358,-0.753,15.0
16.839,-0.333,-0.787,0.0
15.687,-0.31,-0.814,0.0
14.461,-0.286,-0.827,0.0
13.645,-0.269,-0.851,0.0
12.622,-0.249,-0.853,0.0
18.202,-0.357,-0.72,1.0
17.791,-0.348,-0.796,0.0
16.066,-0.314,-0.802,0.0
14.92,-0.292,-0.824,0.0
13.927,-0.272,-0.841,0.0
13.091,-0.256,-0.858,0.0
19.923,-0.386,-0.749,0.0
18.122,-0.351,-0.775,21.0
16.68,-0.323,-0.8,0.0
15.318,-0.296,-0.815,0.0
14.355,-0.277,-0.838,0.0
13.349,-0.257,-0.849,0.0
20.629,-0.395,-0.735,0.0
18.145,-0.347,-0.74,2.0
17.272,-0.329,-0.794,0.0
15.796,-0.301,-0.809,0.0
14.65,-0.278,-0.826,0.0
13.709,-0.26,-0.844,0.0
21.51,-0.405,-0.723,0.0
19.475,-0.366,-0.755,0.0
18.084,-0.339,-0.795,5.0
16.275,-0.305,-0.801,0.0
15.193,-0.284,-0.826,0.0
14.073,-0.262,-0.839,0.0
22.551,-0.417,-0.713,0.0
20.053,-0.37,-0.738,0.0
18.119,-0.334,-0.76,17.0
16.86,-0.31,-0.796,0.0
15.568,-0.285,-0.816,0.0
14.497,-0.265,-0.835,0.0
23.472,-0.426,-0.695,0.0
21.273,-0.385,-0.74,0.0
19.022,-0.343,-0.76,0.0
17.688,-0.318,-0.8,0.0
15.999,-0.287,-0.806,0.0
14.954,-0.267,-0.831,0.0
24.632,-0.437,-0.68,0.0
21.931,-0.387,-0.719,0.0
19.827,-0.349,-0.752,0.0
18.102,-0.318,-0.782,7.0
16.653,-0.291,-0.805,0.0
15.293,-0.266,-0.818,0.0
26.214,-0.453,-0.671,0.0
22.954,-0.395,-0.706,0.0
20.59,-0.353,-0.739,0.0
18.366,-0.313,-0.756,0.0
17.105,-0.291,-0.793,0.0
15.81,-0.268,-0.814,0.0
27.329,-0.459,-0.645,0.0
0.0,0.0,0.0,0.0
21.523,-0.358,-0.729,0.0
19.375,-0.321,-0.759,0.0
17.839,-0.294,-0.791,0.0
16.374,-0.269,-0.81,0.0
29.383,-0.478,-0.635,0.0
25.408,-0.411,-0.68,0.0
22.412,-0.361,-0.715,0.0
20.077,-0.322,-0.746,0.0
18.379,-0.293,-0.778,0.0
16.733,-0.265,-0.795,0.0
30.749,-0.483,-0.603,0.0
26.369,-0.412,-0.653,0.0
23.527,-0.365,-0.704,0.0
21.21,-0.327,-0.746,0.0
19.039,-0.292,-0.768,0.0
17.376,-0.265,-0.791,0.0
0.0,0.0,0.0,0.0
0.0,0.0,0.0,0.0
24.554,-0.366,-0.686,0.0
21.764,-0.322,-0.722,0.0
19.901,-0.293,-0.763,0.0
18.007,-0.263,-0.784,0.0
34.314,-0.496,-0.537,0.0
29.538,-0.424,-0.614,0.0
25.991,-0.37,-0.674,0.0
22.834,-0.323,-0.713,0.0
20.259,-0.284,-0.737,0.0
18.531,-0.258,-0.77,0.0
37.649,-0.519,-0.514,0.0
31.258,-0.428,-0.588,0.0
27.569,-0.374,-0.661,0.0
23.705,-0.319,-0.693,0.0
21.189,-0.283,-0.729,0.0
19.349,-0.256,-0.765,0.0
0.0,0.0,0.0,0.0
33.825,-0.438,-0.569,0.0
0.0,0.0,0.0,0.0
24.824,-0.316,-0.676,0.0
22.288,-0.281,-0.723,0.0
19.994,-0.249,-0.752,0.0
0.0,0.0,0.0,0.0
0.0,0.0,0.0,0.0
30.51,-0.368,-0.611,0.0
26.312,-0.314,-0.665,0.0
23.35,-0.276,-0.711,0.0
20.802,-0.243,-0.741,0.0
47.171,-0.544,-0.365,0.0
0.0,0.0,0.0,0.0
0.0,0.0,0.0,0.0
27.732,-0.309,-0.647,0.0
24.204,-0.266,-0.69,0.0
21.757,-0.236,-0.733,0.0
0.0,0.0,0.0,0.0
0.0,0.0,0.0,0.0
34.802,-0.363,-0.561,0.0
29.425,-0.303,-0.629,0.0
25.889,-0.263,-0.687,0.0
22.566,-0.226,-0.715,0.0
0.0,0.0,0.0,0.0
0.0,0.0,0.0,0.0
0.0,0.0,0.0,0.0
0.0,0.0,0.0,0.0
26.759,-0.248,-0.658,0.0
23.488,-0.214,-0.699,0.0
0.0,0.0,0.0,0.0
47.78,-0.42,-0.337,1.0
0.0,0.0,0.0,0.0
0.0,0.0,0.0,0.0
28.459,-0.237,-0.645,0.0
24.812,-0.203,-0.691,0.0
0.0,0.0,0.0,0.0
0.0,0.0,0.0,0.0
45.277,-0.348,-0.468,0.0
35.234,-0.265,-0.55,0.0
29.867,-0.22,-0.62,0.0
0.0,0.0,0.0,0.0
0.0,0.0,0.0,0.0
0.0,0.0,0.0,0.0
0.0,0.0,0.0,0.0
0.0,0.0,0.0,0.0
31.181,-0.199,-0.588,0.0
27.221,-0.169,-0.655,0.0
0.0,0.0,0.0,0.0
0.0,0.0,0.0,0.0
0.0,0.0,0.0,0.0
0.0,0.0,0.0,0.0
33.616,-0.179,-0.571,0.0
0.0,0.0,0.0,0.0
110.97,-0.553,0.634,6.0
0.0,0.0,0.0,0.0
0.0,0.0,0.0,0.0
45.186,-0.201,-0.448,0.0
36.043,-0.153,-0.544,0.0
30.285,-0.123,-0.615,0.0
119.695,-0.467,0.907,6.0
0.0,0.0,0.0,0.0
0.0,0.0,0.0,0.0
0.0,0.0,0.0,0.0
38.263,-0.121,-0.508,0.0
0.0,0.0,0.0,0.0
114.46,-0.322,1.075,150.0
0.0,0.0,0.0,0.0
0.0,0.0,0.0,0.0
0.0,0.0,0.0,0.0
0.0,0.0,0.0,0.0
0.0,0.0,0.0,0.0
119.753,-0.199,1.345,12.0
110.723,-0.162,0.669,13.0
0.0,0.0,0.0,0.0
0.0,0.0,0.0,0.0
44.887,-0.04,-0.433,1.0
36.082,-0.025,-0.536,0.0
111.123,-0.056,1.447,15.0
111.21,-0.034,0.87,8.0
97.05,-0.01,0.254,1.0
0.0,0.0,0.0,0.0
0.0,0.0,0.0,0.0
0.0,0.0,0.0,0.0
111.092,0.078,1.647,10.0
111.18,0.101,1.069,16.0
103.172,0.114,0.454,2.0
0.0,0.0,0.0,0.0
0.0,0.0,0.0,0.0
42.872,0.074,-0.485,1.0
111.157,0.215,1.843,2.0
111.136,0.239,1.264,17.0
104.365,0.246,0.643,7.0
0.0,0.0,0.0,0.0
0.0,0.0,0.0,0.0
42.978,0.128,-0.411,0.0
119.875,0.384,2.197,29.0
119.813,0.408,1.569,15.0
110.933,0.402,0.875,14.0
91.295,0.35,0.233,1.0
0.0,0.0,0.0,0.0
47.576,0.203,-0.374,0.0
111.174,0.499,2.228,14.0
111.134,0.523,1.645,26.0
111.052,0.546,1.064,20.0
90.802,0.467,0.387,2.0
0.0,0.0,0.0,0.0
0.0,0.0,0.0,0.0
111.071,0.644,2.411,29.0
111.075,0.669,1.83,29.0
111.081,0.694,1.251,20.0
104.702,0.677,0.621,8.0
85.896,0.575,0.06,3.0
55.056,0.381,-0.249,0.0
104.817,0.75,2.451,20.0
104.847,0.773,1.902,6.0
100.817,0.767,1.302,1.0
104.782,0.822,0.795,18.0
85.317,0.689,0.201,5.0
0.0,0.0,0.0,0.0
104.719,0.894,2.621,33.0
0.0,0.0,0.0,0.0
99.755,0.898,1.452,4.0
98.657,0.911,0.909,17.0
85.458,0.809,0.339,4.0
0.0,0.0,0.0,0.0
98.79,0.983,2.634,19.0
98.729,1.005,2.113,17.0
98.616,1.027,1.593,23.0
98.587,1.05,1.065,29.0
98.113,1.068,0.545,6.0
80.147,0.892,0.025,1.0
98.643,1.122,2.786,25.0
98.596,1.145,2.267,27.0
98.552,1.168,1.748,33.0
98.539,1.192,1.221,28.0
98.408,1.214,0.701,13.0
81.111,1.02,0.151,3.0
98.47,1.264,2.935,32.0
98.54,1.289,2.419,29.0
98.574,1.312,1.9,30.0
98.506,1.336,1.372,27.0
98.568,1.362,0.855,22.0
85.013,1.195,0.289,6.0
98.5,1.41,3.087,14.0
98.558,1.436,2.57,25.0
119.929,1.777,2.496,68.0
98.837,1.488,1.525,12.0
92.0,1.408,0.936,26.0
85.209,1.325,0.418,7.0
70.051,1.108,2.3,7.0
92.024,1.478,2.536,12.0
91.949,1.5,2.049,25.0
91.879,1.523,1.554,37.0
87.503,1.472,1.019,19.0
91.798,1.568,0.585,22.0
91.983,1.596,3.157,10.0
91.842,1.616,2.666,19.0
91.795,1.639,2.18,17.0
87.252,1.58,1.603,41.0
91.917,1.688,1.203,32.0
91.898,1.712,0.718,21.0
91.718,1.734,3.28,22.0
91.837,1.759,2.798,32.0
87.002,1.69,2.191,30.0
91.921,1.809,1.82,22.0
99.406,1.981,1.442,9.0
85.432,1.726,0.789,27.0
85.365,1.748,3.173,21.0
85.366,1.771,2.722,21.0
85.345,1.793,2.269,28.0
85.296,1.814,1.808,35.0
85.272,1.835,1.355,35.0
85.275,1.858,0.904,36.0
78.872,1.742,3.042,24.0
85.259,1.905,2.836,35.0
85.235,1.926,2.382,39.0
85.215,1.949,1.922,37.0
85.251,1.971,1.47,34.0
85.25,1.993,1.018,35.0
85.348,2.022,3.406,26.0
78.882,1.889,2.728,18.0
85.298,2.065,2.497,27.0
85.29,2.088,2.036,28.0
85.35,2.112,1.584,17.0
85.338,2.134,1.131,8.0
78.879,1.997,3.251,22.0
78.848,2.017,2.83,28.0
78.915,2.039,2.412,24.0
78.891,2.06,1.984,31.0
78.908,2.081,1.565,34.0
78.773,2.099,1.144,18.0
78.792,2.124,3.347,34.0
78.799,2.146,2.928,31.0
78.807,2.167,2.509,32.0
78.641,2.184,2.077,10.0
76.508,2.145,1.613,4.0
74.297,2.104,1.171,3.0
79.297,2.271,3.468,10.0
78.876,2.28,3.029,8.0
78.851,2.301,2.607,26.0
78.867,2.323,2.18,17.0
78.835,2.343,1.758,2.0
78.966,2.367,1.34,23.0
117.141,3.552,5.265,4.0
78.795,2.41,3.12,10.0
190.782,5.888,6.537,18.0
74.107,2.307,2.135,4.0
120.036,3.769,2.818,7.0
72.51,2.296,1.315,11.0
72.451,2.319,3.341,25.0
72.503,2.341,2.956,29.0
72.48,2.36,2.567,32.0
72.442,2.379,2.171,32.0
72.403,2.397,1.782,34.0
72.386,2.416,1.395,34.0
72.344,2.441,3.419,33.0
72.386,2.462,3.033,35.0
72.41,2.482,2.646,38.0
72.393,2.502,2.25,35.0
72.385,2.522,1.862,34.0
72.371,2.541,1.475,31.0
72.375,2.567,3.5,26.0
72.431,2.588,3.114,31.0
72.438,2.608,2.725,28.0
72.45,2.628,2.329,30.0
72.505,2.65,1.942,24.0
72.511,2.669,1.553,12.0
66.096,2.458,3.266,41.0
66.269,2.483,2.918,18.0
190.045,7.171,7.348,18.0
190.697,7.248,6.328,12.0
195.322,7.477,5.433,8.0
120.102,4.631,2.696,10.0
65.35,2.544,3.296,14.0
66.177,2.594,2.981,12.0
66.135,2.611,2.623,25.0
66.145,2.629,2.261,8.0
194.825,7.799,5.611,20.0
63.583,2.562,1.489,8.0
65.148,2.651,3.35,41.0
66.014,2.703,3.038,12.0
66.024,2.721,2.682,22.0
66.018,2.74,2.32,35.0
64.723,2.704,1.926,19.0
62.097,2.612,1.513,5.0
65.926,2.799,3.452,28.0
65.946,2.817,3.097,10.0
52.916,2.275,2.199,26.0
66.018,2.856,2.38,30.0
66.074,2.876,2.026,6.0
61.113,2.678,1.544,10.0
52.913,2.34,2.819,9.0
65.937,2.934,3.156,14.0
52.668,2.358,2.236,8.0
66.21,2.982,2.446,1.0
61.803,2.801,1.949,6.0
66.181,3.017,1.73,7.0
59.507,2.738,3.222,9.0
59.573,2.757,2.902,6.0
52.924,2.463,2.292,4.0
190.093,8.9,7.184,5.0
60.89,2.867,1.971,2.0
50.82,2.407,1.37,3.0
59.452,2.841,3.268,14.0
59.461,2.857,2.945,24.0
59.509,2.876,2.625,11.0
66.003,3.208,2.547,1.0
0.0,0.0,0.0,0.0
50.726,2.493,1.407,11.0
59.777,2.964,3.333,9.0
59.488,2.964,2.993,8.0
59.398,2.976,2.665,17.0
59.435,2.994,2.338,27.0
59.437,3.01,2.016,28.0
50.627,2.577,1.442,15.0
52.767,2.71,2.981,17.0
59.394,3.066,3.032,10.0
59.348,3.079,2.706,22.0
59.4,3.097,2.38,28.0
59.408,3.114,2.057,34.0
50.607,2.667,1.477,31.0
59.33,3.153,3.394,18.0
59.351,3.17,3.071,17.0
52.445,2.815,2.428,26.0
59.458,3.207,2.422,29.0
59.448,3.223,2.098,22.0
50.624,2.758,1.511,42.0
41.378,2.273,2.395,17.0
52.36,2.89,2.744,22.0
52.545,2.914,2.467,4.0
119.686,6.669,4.954,30.0
119.705,6.703,4.301,29.0
50.631,2.849,1.543,20.0
41.565,2.358,2.431,24.0
52.447,2.989,2.781,24.0
52.522,3.007,2.497,3.0
119.099,6.85,5.001,15.0
118.782,6.865,4.339,14.0
49.933,2.898,1.551,8.0
41.617,2.435,2.459,32.0
52.844,3.106,2.832,5.0
90.091,5.318,4.335,9.0
115.457,6.847,4.913,23.0
115.451,6.876,4.281,28.0
49.474,2.96,1.563,15.0
41.632,2.51,2.482,26.0
79.592,4.82,4.309,9.0
53.153,3.232,2.585,3.0
111.025,6.781,4.781,14.0
111.027,6.81,4.174,20.0
49.131,3.027,1.578,18.0
41.447,2.573,2.492,41.0
52.475,3.271,2.866,26.0
52.394,3.28,2.574,14.0
90.007,5.658,3.919,9.0
110.996,7.005,4.224,18.0
48.557,3.077,1.581,14.0
41.502,2.65,2.514,34.0
52.266,3.351,2.879,40.0
52.273,3.365,2.592,39.0
52.303,3.38,2.3,32.0
52.326,3.395,2.014,32.0
48.103,3.133,1.587,9.0
41.5,2.724,2.531,38.0
52.262,3.443,2.9,26.0
52.246,3.455,2.611,42.0
52.231,3.467,2.317,46.0
52.24,3.481,2.03,47.0
