X,Y,Z,Reflectivity
8.21,-0.439,-0.923,0.0
7.938,-0.426,-0.938,0.0
7.581,-0.409,-0.938,0.0
7.319,-0.396,-0.947,0.0
9.031,-0.489,-0.912,0.0
8.604,-0.467,-0.917,0.0
8.267,-0.451,-0.927,0.0
7.955,-0.436,-0.937,0.0
7.61,-0.419,-0.939,0.0
7.343,-0.406,-0.948,0.0
9.088,-0.501,-0.915,0.0
0.0,0.0,0.0,0.0
8.271,-0.46,-0.924,0.0
7.969,-0.445,-0.936,0.0
7.599,-0.426,-0.935,0.0
7.343,-0.413,-0.945,0.0
9.046,-0.509,-0.907,0.0
8.635,-0.488,-0.914,0.0
8.305,-0.471,-0.925,0.0
7.965,-0.453,-0.932,0.0
7.636,-0.436,-0.936,0.0
7.36,-0.422,-0.943,0.0
9.095,-0.521,-0.908,0.0
8.751,-0.503,-0.922,0.0
8.321,-0.48,-0.923,0.0
8.036,-0.466,-0.936,0.0
0.0,0.0,0.0,0.0
7.389,-0.431,-0.943,0.0
9.117,-0.532,-0.905,0.0
8.836,-0.517,-0.926,0.0
8.353,-0.491,-0.922,0.0
8.046,-0.474,-0.934,0.0
7.726,-0.457,-0.939,0.0
7.419,-0.441,-0.943,0.0
9.185,-0.545,-0.907,0.0
8.773,-0.522,-0.915,0.0
8.405,-0.502,-0.923,0.0
8.037,-0.482,-0.928,0.0
7.744,-0.466,-0.937,0.0
7.441,-0.449,-0.942,0.0
9.24,-0.557,-0.907,0.0
8.892,-0.538,-0.922,0.0
8.463,-0.514,-0.924,0.0
8.12,-0.495,-0.933,0.0
7.841,-0.479,-0.944,0.0
7.453,-0.457,-0.939,0.0
9.3,-0.57,-0.908,0.0
8.884,-0.546,-0.916,0.0
8.494,-0.524,-0.923,0.0
8.12,-0.502,-0.928,0.0
7.874,-0.489,-0.943,0.0
7.506,-0.467,-0.941,0.0
9.323,-0.58,-0.904,0.0
8.89,-0.554,-0.911,0.0
8.528,-0.534,-0.921,0.0
8.155,-0.512,-0.926,0.0
7.861,-0.495,-0.936,0.0
7.552,-0.477,-0.941,0.0
9.39,-0.592,-0.904,0.0
8.997,-0.569,-0.915,0.0
8.597,-0.546,-0.922,0.0
8.211,-0.523,-0.926,0.0
7.929,-0.506,-0.938,0.0
7.583,-0.486,-0.939,0.0
9.453,-0.605,-0.903,0.0
9.043,-0.58,-0.913,0.0
8.621,-0.555,-0.918,0.0
8.266,-0.534,-0.926,0.0
7.964,-0.516,-0.936,0.0
7.62,-0.495,-0.938,0.0
9.541,-0.618,-0.904,0.0
9.048,-0.588,-0.907,0.0
8.717,-0.568,-0.921,0.0
8.297,-0.543,-0.923,0.0
8.032,-0.527,-0.938,0.0
7.66,-0.504,-0.937,0.0
9.603,-0.63,-0.902,0.0
9.104,-0.599,-0.905,0.0
0.0,0.0,0.0,0.0
8.362,-0.554,-0.924,0.0
8.057,-0.535,-0.934,0.0
7.73,-0.515,-0.939,0.0
9.642,-0.641,-0.898,0.0
9.215,-0.614,-0.908,0.0
8.839,-0.59,-0.919,0.0
8.436,-0.565,-0.924,0.0
8.08,-0.543,-0.93,0.0
7.816,-0.526,-0.942,0.0
9.75,-0.655,-0.899,0.0
9.304,-0.627,-0.909,0.0
8.907,-0.602,-0.919,0.0
0.0,0.0,0.0,0.0
8.159,-0.554,-0.931,0.0
7.852,-0.535,-0.939,0.0
9.838,-0.668,-0.898,0.0
9.397,-0.64,-0.909,0.0
8.969,-0.612,-0.917,0.0
0.0,0.0,0.0,0.0
8.235,-0.565,-0.932,0.0
7.865,-0.541,-0.934,0.0
9.887,-0.679,-0.894,0.0
9.451,-0.65,-0.905,0.0
9.002,-0.621,-0.911,0.0
0.0,0.0,0.0,0.0
8.25,-0.572,-0.926,0.0
8.0,-0.556,-0.942,0.0
9.984,-0.692,-0.893,0.0
9.566,-0.665,-0.907,0.0
9.066,-0.631,-0.909,0.0
0.0,0.0,0.0,0.0
8.338,-0.583,-0.927,0.0
7.987,-0.56,-0.932,0.0
10.104,-0.707,-0.893,0.0
9.622,-0.675,-0.903,0.0
9.196,-0.646,-0.912,0.0
0.0,0.0,0.0,0.0
8.395,-0.593,-0.925,0.0
8.048,-0.569,-0.931,0.0
10.188,-0.719,-0.89,0.0
9.705,-0.686,-0.9,0.0
9.28,-0.658,-0.911,0.0
8.868,-0.63,-0.919,0.0
8.464,-0.603,-0.923,0.0
8.135,-0.58,-0.932,0.0
10.292,-0.733,-0.888,0.0
9.773,-0.697,-0.896,0.0
9.346,-0.668,-0.907,0.0
8.911,-0.638,-0.914,0.0
0.0,0.0,0.0,0.0
8.22,-0.591,-0.932,0.0
10.395,-0.746,-0.885,0.0
9.886,-0.71,-0.895,0.0
9.441,-0.68,-0.906,0.0
9.005,-0.649,-0.913,0.0
8.726,-0.631,-0.932,0.0
8.29,-0.6,-0.931,0.0
10.473,-0.756,-0.88,0.0
10.023,-0.725,-0.896,0.0
9.591,-0.695,-0.909,0.0
9.164,-0.665,-0.919,0.0
8.688,-0.632,-0.918,0.0
8.336,-0.608,-0.926,0.0
10.655,-0.775,-0.883,0.0
10.129,-0.738,-0.894,0.0
9.66,-0.705,-0.904,0.0
9.223,-0.674,-0.914,0.0
8.823,-0.646,-0.922,0.0
8.451,-0.62,-0.929,0.0
10.814,-0.791,-0.883,0.0
10.252,-0.751,-0.892,0.0
9.756,-0.716,-0.901,0.0
9.372,-0.689,-0.917,0.0
8.947,-0.659,-0.924,0.0
8.534,-0.629,-0.927,0.0
10.93,-0.804,-0.879,0.0
10.323,-0.76,-0.886,0.0
9.858,-0.727,-0.899,0.0
9.395,-0.694,-0.908,0.0
8.975,-0.664,-0.915,0.0
8.585,-0.636,-0.922,0.0
11.035,-0.816,-0.874,0.0
10.468,-0.775,-0.885,0.0
9.959,-0.738,-0.895,0.0
9.541,-0.708,-0.91,0.0
9.084,-0.675,-0.915,0.0
8.71,-0.648,-0.924,0.0
11.179,-0.83,-0.871,0.0
10.609,-0.789,-0.883,0.0
10.103,-0.752,-0.895,0.0
9.646,-0.719,-0.907,0.0
9.206,-0.687,-0.915,0.0
8.822,-0.659,-0.925,0.0
11.323,-0.844,-0.868,0.0
10.767,-0.803,-0.883,0.0
10.241,-0.765,-0.894,0.0
9.757,-0.73,-0.905,0.0
9.341,-0.699,-0.917,0.0
8.858,-0.664,-0.917,0.0
11.513,-0.861,-0.867,0.0
10.921,-0.817,-0.881,0.0
10.348,-0.775,-0.89,0.0
9.844,-0.738,-0.9,0.0
9.421,-0.707,-0.912,0.0
8.956,-0.673,-0.915,0.0
11.674,-0.875,-0.864,0.0
11.047,-0.829,-0.876,0.0
10.479,-0.787,-0.887,0.0
9.942,-0.748,-0.896,0.0
9.493,-0.715,-0.906,0.0
9.098,-0.685,-0.917,0.0
11.869,-0.892,-0.862,0.0
11.187,-0.841,-0.872,0.0
10.643,-0.801,-0.886,0.0
10.116,-0.762,-0.897,0.0
9.64,-0.727,-0.907,0.0
9.235,-0.697,-0.918,0.0
12.084,-0.91,-0.861,0.0
11.372,-0.857,-0.871,0.0
10.799,-0.814,-0.884,0.0
10.235,-0.772,-0.894,0.0
9.769,-0.738,-0.905,0.0
9.292,-0.702,-0.91,0.0
12.269,-0.925,-0.857,0.0
11.547,-0.871,-0.868,0.0
10.939,-0.826,-0.88,0.0
10.381,-0.784,-0.891,0.0
9.883,-0.747,-0.901,0.0
9.43,-0.713,-0.91,0.0
12.416,-0.936,-0.849,0.0
11.741,-0.886,-0.865,0.0
11.077,-0.836,-0.875,0.0
10.496,-0.793,-0.886,0.0
9.979,-0.754,-0.895,0.0
9.552,-0.722,-0.908,0.0
12.693,-0.957,-0.85,0.0
11.965,-0.903,-0.865,0.0
11.24,-0.848,-0.872,0.0
10.696,-0.808,-0.887,0.0
10.164,-0.768,-0.897,0.0
9.72,-0.735,-0.91,0.0
13.034,-0.983,-0.854,0.0
12.146,-0.916,-0.86,0.0
11.431,-0.862,-0.87,0.0
10.85,-0.819,-0.884,0.0
10.299,-0.777,-0.894,0.0
9.819,-0.742,-0.904,0.0
13.286,-1.001,-0.851,0.0
12.366,-0.932,-0.857,0.0
11.628,-0.876,-0.868,0.0
10.991,-0.828,-0.88,0.0
10.419,-0.785,-0.889,0.0
9.933,-0.749,-0.9,0.0
13.503,-1.016,-0.845,0.0
12.541,-0.943,-0.851,0.0
11.815,-0.889,-0.864,0.0
11.162,-0.84,-0.876,0.0
10.585,-0.796,-0.887,0.0
10.085,-0.759,-0.899,0.0
13.73,-1.03,-0.838,0.0
12.88,-0.966,-0.854,0.0
12.057,-0.905,-0.863,0.0
11.332,-0.85,-0.873,0.0
10.795,-0.81,-0.888,0.0
10.241,-0.769,-0.897,0.0
13.981,-1.046,-0.833,0.0
13.184,-0.987,-0.854,0.0
12.238,-0.916,-0.858,0.0
11.548,-0.864,-0.871,0.0
10.941,-0.818,-0.883,0.0
10.38,-0.776,-0.893,0.0
14.342,-1.07,-0.832,0.0
13.379,-0.998,-0.847,0.0
12.5,-0.932,-0.857,0.0
11.727,-0.874,-0.867,0.0
11.074,-0.825,-0.877,0.0
10.517,-0.783,-0.889,0.0
14.587,-1.084,-0.824,0.0
13.603,-1.01,-0.84,0.0
12.747,-0.946,-0.854,0.0
11.958,-0.888,-0.866,0.0
11.279,-0.837,-0.876,0.0
10.711,-0.794,-0.888,0.0
14.939,-1.105,-0.821,0.0
13.882,-1.027,-0.836,0.0
13.052,-0.965,-0.854,0.0
12.161,-0.898,-0.861,0.0
11.471,-0.847,-0.873,0.0
10.879,-0.803,-0.885,0.0
15.215,-1.12,-0.813,0.0
14.171,-1.042,-0.831,0.0
13.329,-0.98,-0.852,0.0
12.368,-0.909,-0.857,0.0
11.676,-0.857,-0.871,0.0
11.016,-0.808,-0.879,0.0
15.527,-1.137,-0.805,0.0
14.486,-1.06,-0.827,0.0
13.55,-0.99,-0.845,0.0
12.649,-0.924,-0.857,0.0
11.892,-0.868,-0.868,0.0
11.211,-0.818,-0.878,0.0
16.026,-1.166,-0.806,0.0
14.807,-1.076,-0.823,0.0
13.84,-1.005,-0.842,0.0
12.865,-0.933,-0.851,0.0
12.086,-0.876,-0.863,0.0
11.382,-0.824,-0.873,0.0
16.43,-1.187,-0.801,0.0
15.088,-1.089,-0.815,0.0
14.092,-1.016,-0.835,0.0
13.186,-0.95,-0.852,0.0
12.271,-0.883,-0.857,0.0
11.606,-0.834,-0.872,0.0
16.727,-1.2,-0.79,0.0
15.438,-1.106,-0.81,0.0
14.4,-1.03,-0.831,0.0
13.457,-0.962,-0.848,0.0
12.564,-0.897,-0.858,0.0
11.839,-0.844,-0.871,0.0
17.267,-1.228,-0.788,0.0
15.892,-1.129,-0.808,0.0
14.721,-1.044,-0.826,0.0
13.666,-0.968,-0.84,0.0
12.862,-0.91,-0.858,0.0
12.036,-0.851,-0.866,0.0
17.737,-1.25,-0.782,0.0
16.376,-1.153,-0.807,0.0
15.097,-1.061,-0.823,0.0
13.965,-0.98,-0.836,0.0
13.211,-0.926,-0.86,0.0
12.238,-0.857,-0.861,0.0
18.105,-1.264,-0.769,0.0
16.675,-1.162,-0.796,0.0
15.373,-1.07,-0.814,0.0
14.314,-0.995,-0.835,0.0
13.418,-0.931,-0.853,0.0
12.475,-0.864,-0.858,0.0
18.54,-1.281,-0.759,0.0
17.187,-1.186,-0.793,0.0
15.793,-1.088,-0.812,0.0
14.579,-1.002,-0.827,0.0
13.63,-0.936,-0.845,0.0
20.029,-1.373,-1.347,0.0
19.688,-1.346,-0.775,0.0
17.542,-1.197,-0.782,0.0
16.252,-1.107,-0.809,0.0
14.95,-1.016,-0.825,0.0
13.928,-0.945,-0.841,0.0
20.006,-1.355,-1.314,0.0
19.789,-1.337,-0.748,2.0
17.934,-1.209,-0.771,0.0
16.598,-1.117,-0.801,0.0
15.234,-1.023,-0.817,0.0
14.197,-0.952,-0.835,0.0
13.327,-0.892,-0.854,0.0
20.03,-1.337,-0.726,3.0
20.057,-1.336,-0.832,0.0
20.083,-1.334,-0.938,0.0
15.67,-1.039,-0.816,0.0
14.52,-0.961,-0.832,0.0
13.559,-0.895,-0.848,0.0
20.127,-1.326,-0.698,15.0
19.964,-1.312,-0.797,1.0
20.098,-1.317,-0.907,0.0
20.063,-1.312,-1.013,0.0
14.808,-0.966,-0.825,0.0
13.764,-0.896,-0.839,0.0
20.111,-1.306,-0.666,20.0
19.877,-1.288,-0.763,1.0
20.123,-1.3,-0.877,0.0
20.102,-1.296,-0.984,0.0
15.198,-0.977,-0.823,0.0
14.155,-0.908,-0.841,0.0
20.13,-1.288,-0.636,27.0
19.94,-1.272,-0.734,3.0
20.159,-1.283,-0.848,0.0
20.107,-1.276,-0.953,0.0
20.067,-1.271,-1.056,0.0
14.502,-0.916,-0.839,0.0
20.127,-1.267,-0.605,20.0
20.048,-1.259,-0.707,9.0
19.962,-1.25,-0.809,0.0
17.131,-1.07,-0.785,0.0
16.055,-1.0,-0.82,0.0
14.74,-0.915,-0.83,0.0
23.686,-1.467,-0.675,1.0
20.094,-1.241,-0.678,4.0
19.867,-1.223,-0.774,0.0
17.672,-1.085,-0.783,0.0
16.318,-0.999,-0.809,0.0
15.099,-0.921,-0.828,0.0
19.996,-1.217,-0.54,66.0
19.997,-1.213,-0.644,150.0
19.946,-1.206,-0.747,17.0
18.021,-1.086,-0.771,0.0
16.786,-1.008,-0.807,0.0
15.304,-0.916,-0.816,0.0
19.985,-1.193,-0.509,151.0
19.986,-1.189,-0.614,150.0
19.953,-1.184,-0.717,15.0
19.756,-1.168,-0.816,0.0
17.147,-1.01,-0.798,0.0
15.729,-0.924,-0.815,0.0
20.011,-1.172,-0.48,31.0
20.01,-1.167,-0.585,20.0
19.993,-1.162,-0.689,1.0
19.177,-1.111,-0.763,0.0
17.472,-1.009,-0.787,0.0
16.163,-0.93,-0.813,0.0
20.012,-1.148,-0.45,0.0
24.011,-1.372,-0.666,0.0
21.761,-1.239,-0.718,0.0
19.898,-1.128,-0.762,1.0
17.939,-1.013,-0.782,0.0
16.446,-0.926,-0.803,0.0
0.0,0.0,0.0,0.0
25.434,-1.422,-0.669,0.0
0.0,0.0,0.0,0.0
19.902,-1.104,-0.734,2.0
18.433,-1.018,-0.776,0.0
16.857,-0.927,-0.799,0.0
0.0,0.0,0.0,0.0
26.877,-1.468,-0.667,0.0
23.61,-1.284,-0.71,1.0
20.099,-1.088,-0.712,3.0
18.939,-1.021,-0.77,0.0
17.347,-0.931,-0.797,1.0
19.948,-1.068,-0.362,0.0
20.054,-1.069,-0.469,7.0
20.075,-1.065,-0.575,18.0
20.062,-1.06,-0.682,10.0
19.756,-1.039,-0.775,0.0
17.795,-0.932,-0.792,0.0
20.033,-1.045,-0.335,16.0
20.038,-1.041,-0.44,24.0
20.061,-1.037,-0.546,29.0
20.072,-1.033,-0.654,25.0
19.846,-1.016,-0.751,2.0
18.191,-0.927,-0.784,0.0
20.012,-1.016,-0.306,26.0
20.031,-1.012,-0.412,30.0
20.061,-1.009,-0.518,28.0
20.05,-1.003,-0.625,18.0
19.923,-0.992,-0.726,5.0
18.377,-0.911,-0.766,0.0
19.997,-0.987,-0.279,27.0
20.03,-0.984,-0.384,28.0
20.058,-0.98,-0.49,23.0
20.093,-0.977,-0.599,2.0
20.018,-0.968,-0.702,4.0
19.125,-0.92,-0.771,0.0
19.993,-0.958,-0.251,33.0
20.017,-0.954,-0.357,24.0
20.055,-0.95,-0.463,11.0
24.503,-1.155,-0.697,1.0
21.552,-1.01,-0.726,0.0
19.699,-0.918,-0.768,0.0
20.009,-0.929,-0.224,24.0
20.023,-0.924,-0.33,8.0
0.0,0.0,0.0,0.0
25.057,-1.143,-0.679,0.0
22.184,-1.006,-0.718,0.0
19.852,-0.895,-0.747,0.0
20.121,-0.904,-0.199,0.0
0.0,0.0,0.0,0.0
0.0,0.0,0.0,0.0
26.23,-1.157,-0.677,0.0
22.863,-1.002,-0.71,0.0
20.53,-0.894,-0.746,0.0
47.308,-2.052,-0.407,0.0
38.235,-1.647,-0.53,0.0
0.0,0.0,0.0,0.0
26.785,-1.139,-0.657,0.0
23.519,-0.994,-0.701,0.0
20.927,-0.879,-0.734,0.0
0.0,0.0,0.0,0.0
0.0,0.0,0.0,0.0
0.0,0.0,0.0,0.0
27.887,-1.142,-0.648,0.0
24.362,-0.99,-0.695,0.0
21.548,-0.87,-0.729,0.0
0.0,0.0,0.0,0.0
0.0,0.0,0.0,0.0
32.745,-1.297,-0.545,0.0
29.21,-1.148,-0.643,0.0
24.811,-0.968,-0.677,0.0
21.978,-0.851,-0.716,0.0
0.0,0.0,0.0,0.0
0.0,0.0,0.0,0.0
35.374,-1.342,-0.545,0.0
0.0,0.0,0.0,0.0
26.002,-0.971,-0.678,0.0
22.925,-0.85,-0.719,0.0
0.0,0.0,0.0,0.0
0.0,0.0,0.0,0.0
37.101,-1.345,-0.527,0.0
30.9,-1.111,-0.606,0.0
26.544,-0.946,-0.661,0.0
23.334,-0.825,-0.704,0.0
0.0,0.0,0.0,0.0
46.935,-1.635,-0.363,0.0
38.127,-1.317,-0.497,0.0
32.029,-1.096,-0.59,0.0
27.397,-0.93,-0.65,0.0
23.675,-0.796,-0.687,0.0
0.0,0.0,0.0,0.0
0.0,0.0,0.0,0.0
41.521,-1.362,-0.494,0.0
0.0,0.0,0.0,0.0
0.0,0.0,0.0,0.0
24.848,-0.792,-0.693,0.0
0.0,0.0,0.0,0.0
0.0,0.0,0.0,0.0
41.415,-1.286,-0.447,1.0
0.0,0.0,0.0,0.0
0.0,0.0,0.0,0.0
21.896,-0.659,-0.587,46.0
0.0,0.0,0.0,0.0
0.0,0.0,0.0,0.0
44.425,-1.299,-0.431,2.0
35.07,-1.015,-0.53,0.0
21.911,-0.627,-0.447,2.0
21.868,-0.619,-0.563,204.0
0.0,0.0,0.0,0.0
59.172,-1.643,-0.197,0.0
47.901,-1.314,-0.414,1.0
37.907,-1.028,-0.533,0.0
21.894,-0.586,-0.424,0.0
21.863,-0.578,-0.54,165.0
0.0,0.0,0.0,0.0
0.0,0.0,0.0,0.0
0.0,0.0,0.0,0.0
38.305,-0.968,-0.499,0.0
0.0,0.0,0.0,0.0
21.913,-0.539,-0.519,0.0
0.0,0.0,0.0,0.0
0.0,0.0,0.0,0.0
54.534,-1.294,-0.36,0.0
0.0,0.0,0.0,0.0
33.722,-0.778,-0.586,0.0
0.0,0.0,0.0,0.0
138.82,-3.124,0.695,2.0
0.0,0.0,0.0,0.0
0.0,0.0,0.0,0.0
43.108,-0.927,-0.477,0.0
33.825,-0.716,-0.555,0.0
29.255,-0.61,-0.636,0.0
138.908,-2.863,0.827,10.0
81.435,-1.651,0.05,1.0
0.0,0.0,0.0,0.0
45.02,-0.883,-0.457,1.0
34.661,-0.668,-0.537,0.0
29.918,-0.567,-0.623,0.0
139.055,-2.599,0.955,16.0
0.0,0.0,0.0,0.0
0.0,0.0,0.0,0.0
46.826,-0.829,-0.434,0.0
0.0,0.0,0.0,0.0
30.5,-0.519,-0.608,0.0
139.115,-2.332,1.078,20.0
97.916,-1.607,0.235,1.0
0.0,0.0,0.0,0.0
46.666,-0.735,-0.391,1.0
37.41,-0.576,-0.514,0.0
31.436,-0.473,-0.6,0.0
138.86,-2.053,1.195,16.0
0.0,0.0,0.0,0.0
0.0,0.0,0.0,0.0
0.0,0.0,0.0,0.0
0.0,0.0,0.0,0.0
0.0,0.0,0.0,0.0
139.253,-1.784,1.312,19.0
0.0,0.0,0.0,0.0
0.0,0.0,0.0,0.0
0.0,0.0,0.0,0.0
40.445,-0.462,-0.49,0.0
33.212,-0.368,-0.58,0.0
119.754,-1.294,1.223,150.0
119.731,-1.252,0.58,29.0
43.915,-0.444,-0.022,0.0
0.0,0.0,0.0,0.0
0.0,0.0,0.0,0.0
0.0,0.0,0.0,0.0
119.655,-1.054,1.311,19.0
114.237,-0.966,0.638,9.0
0.0,0.0,0.0,0.0
55.17,-0.428,-0.29,0.0
42.428,-0.315,-0.451,0.0
0.0,0.0,0.0,0.0
119.697,-0.809,1.398,21.0
114.175,-0.731,0.719,4.0
0.0,0.0,0.0,0.0
0.0,0.0,0.0,0.0
0.0,0.0,0.0,0.0
0.0,0.0,0.0,0.0
119.697,-0.561,1.481,11.0
111.265,-0.485,0.776,4.0
0.0,0.0,0.0,0.0
0.0,0.0,0.0,0.0
45.083,-0.15,-0.418,1.0
36.355,-0.108,-0.533,0.0
113.02,-0.299,1.471,10.0
114.453,-0.264,0.871,9.0
0.0,0.0,0.0,0.0
0.0,0.0,0.0,0.0
45.155,-0.058,-0.391,1.0
37.642,-0.035,-0.529,0.0
117.335,-0.068,1.598,8.0
111.178,-0.028,0.913,7.0
95.678,0.009,0.269,7.0
0.0,0.0,0.0,0.0
45.883,0.035,-0.371,0.0
0.0,0.0,0.0,0.0
111.135,0.164,1.577,17.0
111.124,0.201,0.976,15.0
94.471,0.203,0.318,2.0
0.0,0.0,0.0,0.0
50.074,0.142,-0.378,0.0
0.0,0.0,0.0,0.0
119.879,0.425,1.765,30.0
111.023,0.431,1.033,14.0
94.753,0.4,0.369,1.0
0.0,0.0,0.0,0.0
48.4,0.237,-0.34,0.0
40.718,0.214,-0.507,0.0
100.196,0.564,1.525,4.0
105.037,0.627,1.029,5.0
97.147,0.613,0.425,3.0
70.812,0.472,-0.08,0.0
0.0,0.0,0.0,0.0
42.851,0.315,-0.514,0.0
104.789,0.81,1.644,41.0
104.789,0.846,1.075,36.0
97.962,0.824,0.473,6.0
0.0,0.0,0.0,0.0
54.464,0.495,-0.333,0.0
41.183,0.388,-0.476,0.0
98.674,0.969,1.59,29.0
98.595,1.001,1.052,28.0
98.157,1.031,0.514,5.0
0.0,0.0,0.0,0.0
0.0,0.0,0.0,0.0
42.198,0.487,-0.471,2.0
98.542,1.175,1.626,31.0
98.533,1.209,1.09,29.0
85.442,1.077,0.479,9.0
77.551,1.004,0.005,1.0
0.0,0.0,0.0,0.0
44.016,0.6,-0.476,2.0
98.665,1.385,1.663,28.0
98.791,1.422,1.127,9.0
91.941,1.355,0.547,12.0
75.202,1.135,0.03,3.0
0.0,0.0,0.0,0.0
41.805,0.658,-0.438,0.0
91.899,1.486,1.578,39.0
91.895,1.517,1.076,42.0
91.782,1.546,0.574,17.0
73.31,1.259,0.051,5.0
0.0,0.0,0.0,0.0
44.644,0.797,-0.456,0.0
91.87,1.678,1.602,8.0
87.921,1.636,1.053,1.0
85.469,1.62,0.557,19.0
71.309,1.374,0.068,3.0
0.0,0.0,0.0,0.0
0.0,0.0,0.0,0.0
85.367,1.742,1.51,28.0
85.289,1.768,1.042,38.0
85.161,1.795,0.574,14.0
71.744,1.537,0.084,7.0
0.0,0.0,0.0,0.0
43.969,0.971,-0.429,0.0
85.239,1.919,1.525,36.0
85.252,1.947,1.058,37.0
85.066,1.971,0.589,16.0
71.482,1.681,0.097,9.0
0.0,0.0,0.0,0.0
43.842,1.06,-0.421,0.0
119.997,2.956,2.166,18.0
79.032,1.973,0.993,13.0
78.915,1.997,0.559,24.0
71.103,1.824,0.106,9.0
65.051,1.69,-0.259,0.0
44.416,1.169,-0.42,0.0
78.881,2.111,1.434,36.0
78.744,2.134,0.999,22.0
78.805,2.162,0.567,16.0
70.829,1.966,0.113,9.0
57.187,1.607,-0.222,7.0
0.0,0.0,0.0,0.0
76.224,2.201,1.392,5.0
75.161,2.195,0.959,5.0
78.859,2.329,0.573,13.0
70.664,2.11,0.118,10.0
61.962,1.87,-0.237,2.0
45.56,1.39,-0.424,0.0
74.171,2.298,1.358,2.0
72.497,2.27,0.929,27.0
72.36,2.288,0.528,28.0
71.08,2.271,0.121,7.0
60.415,1.951,-0.229,5.0
45.46,1.482,-0.423,0.0
72.385,2.395,1.326,34.0
72.369,2.418,0.927,40.0
72.346,2.439,0.528,26.0
65.465,2.229,0.111,11.0
58.991,2.028,-0.225,6.0
46.691,1.621,-0.435,0.0
72.381,2.548,1.325,30.0
72.383,2.57,0.925,27.0
72.337,2.592,0.525,19.0
65.531,2.369,0.108,11.0
57.593,2.1,-0.222,3.0
44.745,1.646,-0.42,1.0
120.069,4.475,2.19,11.0
119.973,4.51,1.525,14.0
72.315,2.742,0.52,6.0
65.397,2.501,0.102,19.0
56.336,2.172,-0.222,1.0
44.779,1.741,-0.424,1.0
120.102,4.727,2.178,17.0
120.037,4.762,1.514,13.0
66.156,2.645,0.468,26.0
65.322,2.632,0.094,13.0
55.2,2.241,-0.225,4.0
44.818,1.834,-0.431,1.0
66.148,2.74,1.19,23.0
63.405,2.646,0.79,8.0
66.046,2.776,0.457,8.0
65.181,2.76,0.084,12.0
53.915,2.3,-0.228,3.0
44.687,1.92,-0.437,1.0
61.691,2.681,1.1,5.0
66.055,2.892,0.811,24.0
66.067,2.913,0.445,21.0
65.14,2.891,0.071,13.0
53.006,2.37,-0.235,11.0
44.057,1.983,-0.44,1.0
66.138,3.011,1.165,17.0
66.188,3.033,0.798,15.0
66.188,3.053,0.431,8.0
58.948,2.737,0.051,11.0
51.985,2.43,-0.243,10.0
43.656,2.054,-0.446,1.0
120.154,5.714,2.087,6.0
120.012,5.742,1.417,13.0
120.055,5.782,0.751,9.0
59.097,2.864,0.035,14.0
51.019,2.488,-0.252,2.0
42.857,2.103,-0.45,1.0
120.173,5.957,2.053,12.0
120.091,5.99,1.384,14.0
72.716,3.647,0.433,3.0
58.877,2.971,0.017,16.0
49.939,2.534,-0.262,3.0
42.479,2.169,-0.46,2.0
59.438,3.065,0.996,29.0
59.381,3.08,0.664,30.0
59.344,3.095,0.334,30.0
52.515,2.754,-0.002,16.0
49.049,2.588,-0.275,3.0
42.49,2.254,-0.475,2.0
59.358,3.179,0.974,36.0
59.324,3.195,0.642,32.0
59.293,3.21,0.311,23.0
52.116,2.837,-0.021,26.0
48.111,2.633,-0.288,2.0
42.449,2.336,-0.491,1.0
59.401,3.299,0.951,21.0
59.397,3.315,0.619,20.0
59.387,3.331,0.288,16.0
51.767,2.918,-0.042,21.0
47.243,2.677,-0.302,11.0
0.0,0.0,0.0,0.0
115.786,6.655,1.805,8.0
115.344,6.662,1.154,8.0
59.245,3.438,0.261,3.0
51.544,3.005,-0.065,24.0
46.319,2.714,-0.317,19.0
37.938,2.234,-0.472,0.0
113.823,6.762,1.722,8.0
113.405,6.769,1.081,7.0
52.426,3.144,0.206,4.0
51.386,3.095,-0.089,22.0
45.669,2.764,-0.335,15.0
37.981,2.309,-0.491,1.0
111.115,6.812,1.626,61.0
111.196,6.849,1.004,22.0
52.38,3.241,0.18,20.0
51.22,3.182,-0.115,22.0
44.945,2.805,-0.353,7.0
37.682,2.362,-0.507,0.0
50.65,3.201,0.714,3.0
50.192,3.185,0.426,2.0
52.154,3.324,0.151,15.0
51.236,3.28,-0.143,7.0
44.271,2.847,-0.372,8.0
36.557,2.361,-0.512,0.0
49.475,3.221,0.669,2.0
49.226,3.218,0.39,4.0
51.999,3.412,0.12,16.0
45.894,3.024,-0.155,20.0
43.622,2.886,-0.392,9.0
35.49,2.357,-0.518,0.0
48.72,3.261,0.63,5.0
48.648,3.269,0.356,5.0
51.895,3.5,0.088,17.0
45.503,3.081,-0.182,20.0
42.934,2.919,-0.412,2.0
35.038,2.391,-0.534,0.0
48.189,3.313,0.593,10.0
48.203,3.326,0.322,6.0
51.805,3.588,0.055,20.0
45.025,3.131,-0.209,19.0
42.202,2.945,-0.433,8.0
34.558,2.421,-0.549,0.0
47.891,3.379,0.558,13.0
47.812,3.384,0.288,14.0
51.785,3.679,0.02,6.0
0.0,0.0,0.0,0.0
41.472,2.967,-0.453,2.0
33.785,2.426,-0.559,1.0
47.64,3.444,0.522,26.0
52.275,3.792,0.278,15.0
46.011,3.349,-0.013,18.0
44.432,3.245,-0.267,11.0
40.908,2.998,-0.476,1.0
32.782,2.411,-0.566,0.0
101.062,7.481,1.035,6.0
52.381,3.89,0.241,4.0
45.73,3.407,-0.046,19.0
41.577,3.107,-0.28,16.0
40.281,3.02,-0.498,1.0
32.013,2.409,-0.577,0.0
100.113,7.581,0.951,9.0
91.762,6.969,0.355,4.0
45.433,3.461,-0.08,17.0
40.961,3.13,-0.307,16.0
40.308,3.09,-0.529,0.0
31.229,2.401,-0.586,0.0
99.12,7.67,0.866,8.0
45.933,3.565,0.142,7.0
45.2,3.519,-0.115,19.0
40.668,3.175,-0.337,10.0
36.074,2.825,-0.502,0.0
30.363,2.385,-0.594,0.0
45.895,3.628,0.363,37.0
45.771,3.628,0.104,21.0
45.003,3.578,-0.151,24.0
40.459,3.226,-0.369,9.0
35.397,2.83,-0.523,1.0
29.479,2.364,-0.602,0.0
45.806,3.695,0.324,37.0
45.672,3.694,0.065,28.0
44.634,3.621,-0.188,19.0
40.206,3.27,-0.401,6.0
34.447,2.809,-0.538,1.0
28.762,2.353,-0.612,0.0
45.753,3.763,0.285,35.0
45.547,3.756,0.025,30.0
43.947,3.634,-0.223,19.0
40.097,3.324,-0.434,7.0
33.346,2.772,-0.55,1.0
28.187,2.35,-0.625,0.0
45.732,3.833,0.243,26.0
45.408,3.815,-0.014,21.0
42.513,3.581,-0.254,18.0
39.946,3.373,-0.469,14.0
32.402,2.743,-0.564,0.0
27.501,2.334,-0.634,0.0
45.739,3.903,0.202,16.0
45.256,3.871,-0.056,19.0
40.764,3.495,-0.281,16.0
39.814,3.422,-0.504,2.0
31.484,2.713,-0.577,0.0
26.81,2.316,-0.644,0.0
45.79,3.975,0.159,13.0
45.158,3.93,-0.098,18.0
40.462,3.529,-0.317,16.0
36.722,3.21,-0.5,1.0
30.627,2.684,-0.591,0.0
26.179,2.3,-0.654,0.0
45.724,4.036,0.115,2.0
44.85,3.967,-0.141,19.0
40.111,3.556,-0.353,15.0
36.215,3.217,-0.528,1.0
29.711,2.646,-0.602,0.0
25.645,2.289,-0.665,0.0
45.731,4.1,0.07,36.0
44.179,3.97,-0.182,19.0
39.702,3.575,-0.389,8.0
35.829,3.233,-0.558,0.0
28.84,2.608,-0.613,0.0
25.101,2.275,-0.676,0.0
45.707,4.161,0.024,17.0
43.122,3.934,-0.222,18.0
39.581,3.618,-0.428,7.0
32.653,2.991,-0.542,1.0
28.059,2.576,-0.625,0.0
24.396,2.244,-0.683,0.0
45.529,4.207,-0.022,11.0
0.0,0.0,0.0,0.0
39.487,3.662,-0.468,6.0
32.007,2.975,-0.565,1.0
27.286,2.541,-0.636,0.0
23.784,2.219,-0.69,0.0
45.445,4.258,-0.069,17.0
40.47,3.798,-0.292,16.0
39.401,3.705,-0.508,4.0
30.999,2.92,-0.579,1.0
26.608,2.511,-0.649,0.0
23.179,2.192,-0.697,0.0
44.882,4.261,-0.116,20.0
39.896,3.795,-0.331,23.0
39.373,3.752,-0.55,1.0
30.21,2.884,-0.597,0.0
25.869,2.474,-0.659,0.0
22.731,2.178,-0.708,0.0
44.029,4.234,-0.162,19.0
39.552,3.81,-0.37,14.0
34.571,3.336,-0.521,1.0
29.104,2.813,-0.607,0.0
25.275,2.448,-0.671,0.0
22.031,2.138,-0.711,0.0
42.992,4.186,-0.206,18.0
39.293,3.832,-0.412,7.0
34.365,3.357,-0.556,1.0
28.054,2.745,-0.617,0.0
24.645,2.416,-0.682,0.0
21.625,2.123,-0.722,0.0
0.0,0.0,0.0,0.0
39.235,3.871,-0.456,7.0
31.532,3.116,-0.546,0.0
27.237,2.696,-0.629,0.0
23.776,2.357,-0.685,0.0
21.08,2.093,-0.728,0.0
40.249,4.01,-0.284,19.0
39.201,3.911,-0.5,7.0
31.085,3.106,-0.574,1.0
26.511,2.653,-0.643,0.0
23.239,2.329,-0.697,0.0
20.531,2.061,-0.733,0.0
39.672,3.995,-0.326,20.0
39.159,3.949,-0.545,2.0
30.278,3.057,-0.594,0.0
25.895,2.619,-0.659,0.0
22.779,2.307,-0.709,0.0
20.058,2.035,-0.739,0.0
39.305,3.998,-0.369,14.0
33.697,3.432,-0.508,0.0
28.888,2.946,-0.601,0.0
25.142,2.568,-0.669,0.0
22.02,2.252,-0.712,0.0
19.645,2.012,-0.747,0.0
39.101,4.016,-0.412,7.0
33.228,3.417,-0.54,1.0
28.175,2.901,-0.619,0.0
24.263,2.501,-0.674,0.0
21.458,2.215,-0.719,0.0
19.203,1.985,-0.754,0.0
39.046,4.047,-0.459,7.0
32.941,3.418,-0.575,1.0
27.224,2.828,-0.631,0.0
23.591,2.454,-0.684,0.0
20.594,2.145,-0.715,1.0
18.748,1.955,-0.758,0.0
38.989,4.075,-0.504,7.0
30.751,3.218,-0.574,1.0
26.435,2.769,-0.644,0.0
22.963,2.409,-0.693,0.0
20.385,2.141,-0.732,0.0
18.337,1.928,-0.764,0.0
38.963,4.106,-0.551,2.0
29.853,3.149,-0.593,0.0
25.589,2.702,-0.655,0.0
22.439,2.372,-0.705,0.0
19.949,2.112,-0.741,0.0
17.916,1.899,-0.768,0.0
0.0,0.0,0.0,0.0
28.879,3.07,-0.609,0.0
25.01,2.661,-0.671,0.0
21.863,2.329,-0.714,0.0
19.466,2.076,-0.747,0.0
17.698,1.89,-0.781,0.0
32.369,3.462,-0.538,1.0
27.716,2.967,-0.619,0.0
24.283,2.602,-0.681,0.0
21.318,2.287,-0.722,0.0
18.952,2.035,-0.751,0.0
17.177,1.847,-0.779,0.0
31.806,3.425,-0.568,2.0
26.837,2.892,-0.633,0.0
23.333,2.517,-0.684,0.0
20.624,2.227,-0.725,0.0
18.583,2.009,-0.759,0.0
16.906,1.829,-0.788,0.0
30.389,3.293,-0.58,1.0
26.019,2.822,-0.646,0.0
22.824,2.477,-0.697,0.0
20.148,2.189,-0.733,0.0
18.221,1.981,-0.767,0.0
16.556,1.802,-0.792,0.0
29.231,3.186,-0.595,0.0
25.316,2.761,-0.66,0.0
22.298,2.434,-0.709,0.0
19.724,2.155,-0.742,0.0
17.787,1.945,-0.771,0.0
16.251,1.779,-0.798,0.0
28.228,3.093,-0.609,0.0
24.628,2.701,-0.672,0.0
21.639,2.375,-0.715,0.0
19.163,2.105,-0.745,0.0
17.327,1.905,-0.773,0.0
15.896,1.749,-0.801,0.0
27.262,3.002,-0.623,0.0
23.764,2.618,-0.679,0.0
21.059,2.322,-0.722,0.0
18.769,2.071,-0.753,0.0
16.987,1.876,-0.779,0.0
15.582,1.722,-0.805,0.0
26.361,2.916,-0.635,0.0
23.156,2.563,-0.691,0.0
20.438,2.263,-0.727,0.0
18.341,2.033,-0.759,0.0
16.674,1.849,-0.786,0.0
15.343,1.703,-0.811,0.0
25.577,2.84,-0.648,0.0
22.541,2.505,-0.701,0.0
20.022,2.226,-0.737,0.0
17.945,1.997,-0.765,0.0
16.324,1.818,-0.79,0.0
15.069,1.679,-0.816,0.0
24.823,2.767,-0.661,0.0
21.885,2.441,-0.708,0.0
19.517,2.178,-0.743,0.0
17.623,1.968,-0.774,0.0
16.081,1.797,-0.799,0.0
14.752,1.649,-0.818,0.0
24.162,2.702,-0.673,0.0
21.426,2.397,-0.72,0.0
18.978,2.124,-0.747,0.0
17.288,1.936,-0.781,0.0
15.842,1.775,-0.807,0.0
14.492,1.625,-0.821,0.0
23.483,2.633,-0.684,0.0
20.623,2.314,-0.719,0.0
18.481,2.074,-0.75,0.0
16.842,1.891,-0.782,0.0
15.504,1.742,-0.809,0.0
14.302,1.608,-0.829,0.0
22.827,2.566,-0.693,0.0
20.22,2.274,-0.73,0.0
18.143,2.041,-0.759,0.0
16.523,1.86,-0.788,0.0
15.224,1.715,-0.814,0.0
14.072,1.586,-0.833,0.0
22.166,2.497,-0.701,0.0
19.749,2.225,-0.738,0.0
17.752,2.001,-0.765,0.0
16.212,1.828,-0.794,0.0
14.938,1.685,-0.817,0.0
13.86,1.564,-0.838,0.0
21.622,2.439,-0.711,0.0
19.256,2.173,-0.743,0.0
17.504,1.976,-0.776,0.0
15.977,1.804,-0.802,0.0
14.643,1.654,-0.819,0.0
13.646,1.542,-0.842,0.0
21.014,2.373,-0.716,0.0
18.882,2.133,-0.752,0.0
17.143,1.937,-0.781,0.0
15.578,1.761,-0.801,0.0
14.47,1.636,-0.827,0.0
13.469,1.524,-0.847,0.0
20.381,2.304,-0.72,0.0
18.307,2.07,-0.751,0.0
16.734,1.892,-0.783,0.0
15.28,1.728,-0.804,0.0
14.154,1.602,-0.826,0.0
13.222,1.497,-0.848,0.0
20.074,2.27,-0.733,0.0
18.013,2.037,-0.761,0.0
16.464,1.862,-0.79,0.0
15.094,1.708,-0.812,0.0
14.003,1.585,-0.834,0.0
13.058,1.478,-0.853,0.0
19.592,2.216,-0.739,0.0
17.655,1.997,-0.767,0.0
16.143,1.826,-0.794,0.0
14.842,1.679,-0.817,0.0
13.78,1.559,-0.838,0.0
12.819,1.451,-0.853,0.0
19.147,2.164,-0.745,0.0
17.39,1.966,-0.776,0.0
15.865,1.793,-0.8,0.0
14.581,1.649,-0.82,0.0
13.558,1.533,-0.841,0.0
12.591,1.424,-0.853,0.0
18.749,2.117,-0.752,0.0
16.939,1.913,-0.776,0.0
15.573,1.759,-0.803,0.0
14.301,1.615,-0.821,0.0
13.393,1.513,-0.846,0.0
12.421,1.404,-0.856,0.0
18.234,2.057,-0.753,0.0
16.679,1.881,-0.784,0.0
15.235,1.718,-0.804,0.0
14.106,1.591,-0.827,0.0
13.171,1.486,-0.848,0.0
12.235,1.381,-0.858,0.0
17.865,2.012,-0.758,0.0
16.362,1.843,-0.788,0.0
15.061,1.696,-0.812,0.0
13.914,1.567,-0.831,0.0
13.045,1.469,-0.855,0.0
12.046,1.357,-0.859,0.0
17.625,1.981,-0.768,0.0
16.129,1.813,-0.795,0.0
14.777,1.661,-0.813,0.0
13.731,1.543,-0.836,0.0
12.72,1.429,-0.848,0.0
11.837,1.33,-0.857,0.0
17.382,1.949,-0.777,0.0
15.836,1.775,-0.799,0.0
14.512,1.627,-0.815,0.0
13.617,1.526,-0.845,0.0
12.6,1.412,-0.854,0.0
11.715,1.313,-0.862,0.0
16.917,1.892,-0.775,0.0
15.534,1.737,-0.801,0.0
14.358,1.605,-0.823,0.0
13.33,1.49,-0.842,0.0
12.466,1.393,-0.859,0.0
11.538,1.289,-0.861,0.0
16.651,1.856,-0.781,0.0
15.318,1.707,-0.806,0.0
14.147,1.576,-0.826,0.0
13.188,1.469,-0.847,0.0
12.38,1.379,-0.866,0.0
11.393,1.269,-0.863,0.0
16.531,1.836,-0.793,0.0
15.088,1.675,-0.81,0.0
13.963,1.55,-0.83,0.0
13.011,1.444,-0.849,0.0
12.161,1.349,-0.864,0.0
11.303,1.254,-0.868,0.0
16.17,1.789,-0.793,0.0
14.817,1.639,-0.811,0.0
13.817,1.528,-0.836,0.0
12.912,1.427,-0.857,0.0
11.804,1.304,-0.851,0.0
11.119,1.228,-0.866,0.0
15.882,1.75,-0.795,0.0
14.663,1.615,-0.818,0.0
13.578,1.495,-0.835,0.0
12.665,1.394,-0.853,0.0
11.764,1.294,-0.86,0.0
10.984,1.208,-0.866,0.0
15.605,1.711,-0.797,0.0
14.429,1.581,-0.82,0.0
13.474,1.476,-0.843,0.0
12.407,1.359,-0.848,0.0
11.664,1.277,-0.864,0.0
10.876,1.19,-0.869,0.0
15.363,1.676,-0.8,0.0
14.311,1.56,-0.827,0.0
13.248,1.444,-0.842,0.0
12.333,1.343,-0.855,0.0
11.433,1.245,-0.859,0.0
10.813,1.177,-0.874,0.0
15.228,1.652,-0.807,0.0
14.072,1.526,-0.827,0.0
13.219,1.432,-0.852,0.0
12.28,1.33,-0.863,0.0
11.301,1.223,-0.859,0.0
10.69,1.157,-0.874,0.0
15.044,1.623,-0.812,0.0
13.964,1.505,-0.833,0.0
12.879,1.387,-0.842,0.0
0.0,0.0,0.0,0.0
11.244,1.21,-0.865,0.0
10.571,1.137,-0.874,0.0
14.855,1.592,-0.815,0.0
13.794,1.477,-0.836,0.0
12.797,1.37,-0.848,0.0
11.943,1.278,-0.861,0.0
11.145,1.192,-0.868,0.0
10.466,1.118,-0.875,0.0
14.654,1.56,-0.817,0.0
13.61,1.448,-0.836,0.0
12.669,1.347,-0.851,0.0
11.72,1.245,-0.856,0.0
11.001,1.168,-0.866,0.0
10.403,1.104,-0.879,0.0
14.404,1.522,-0.815,0.0
13.443,1.42,-0.838,0.0
12.529,1.322,-0.852,0.0
11.642,1.228,-0.86,0.0
10.899,1.149,-0.867,0.0
10.361,1.091,-0.884,0.0
14.279,1.498,-0.82,0.0
13.288,1.393,-0.839,0.0
12.369,1.296,-0.852,0.0
11.51,1.205,-0.86,0.0
10.803,1.13,-0.869,0.0
10.274,1.074,-0.885,0.0
14.172,1.475,-0.825,0.0
13.16,1.369,-0.841,0.0
12.28,1.276,-0.855,0.0
11.4,1.184,-0.86,0.0
10.739,1.114,-0.872,0.0
10.217,1.059,-0.888,0.0
14.027,1.448,-0.828,0.0
13.059,1.347,-0.845,0.0
12.202,1.257,-0.859,0.0
11.303,1.164,-0.862,0.0
10.646,1.095,-0.872,0.0
10.11,1.039,-0.886,0.0
13.925,1.425,-0.832,0.0
12.942,1.323,-0.847,0.0
11.931,1.219,-0.849,0.0
11.233,1.146,-0.864,0.0
10.592,1.08,-0.876,0.0
10.028,1.022,-0.886,0.0
13.787,1.398,-0.833,0.0
12.859,1.303,-0.851,0.0
11.839,1.198,-0.851,0.0
11.058,1.118,-0.859,0.0
10.542,1.065,-0.879,0.0
9.998,1.009,-0.891,0.0
13.721,1.378,-0.839,0.0
12.612,1.265,-0.843,0.0
11.798,1.182,-0.856,0.0
11.023,1.104,-0.863,0.0
10.46,1.046,-0.879,0.0
9.947,0.994,-0.893,0.0
13.576,1.35,-0.839,0.0
12.51,1.243,-0.844,0.0
11.77,1.168,-0.861,0.0
10.917,1.082,-0.862,0.0
10.352,1.025,-0.876,0.0
9.876,0.977,-0.893,0.0
13.492,1.328,-0.842,0.0
12.511,1.23,-0.852,0.0
11.639,1.143,-0.858,0.0
10.827,1.062,-0.861,0.0
10.341,1.013,-0.882,0.0
9.867,0.965,-0.898,0.0
13.403,1.305,-0.844,0.0
12.396,1.205,-0.851,0.0
11.472,1.114,-0.853,0.0
10.827,1.05,-0.867,0.0
10.289,0.997,-0.883,0.0
9.786,0.947,-0.896,0.0
13.142,1.265,-0.835,0.0
12.34,1.186,-0.854,0.0
11.387,1.093,-0.852,0.0
10.723,1.028,-0.865,0.0
10.228,0.98,-0.883,0.0
9.714,0.929,-0.894,0.0
13.206,1.257,-0.845,0.0
12.26,1.165,-0.854,0.0
11.387,1.081,-0.858,0.0
10.702,1.014,-0.868,0.0
10.255,0.971,-0.89,0.0
9.713,0.918,-0.899,0.0
13.101,1.232,-0.845,0.0
12.163,1.142,-0.853,0.0
11.372,1.066,-0.862,0.0
10.664,0.998,-0.87,0.0
10.151,0.949,-0.886,0.0
9.659,0.902,-0.898,0.0
13.027,1.21,-0.846,0.0
12.066,1.119,-0.851,0.0
11.265,1.043,-0.859,0.0
10.613,0.981,-0.87,0.0
10.043,0.927,-0.881,0.0
9.595,0.884,-0.896,0.0
13.0,1.191,-0.849,0.0
12.037,1.101,-0.854,0.0
11.223,1.025,-0.86,0.0
10.583,0.965,-0.872,0.0
10.026,0.913,-0.883,0.0
9.626,0.875,-0.902,0.0
12.859,1.163,-0.844,0.0
11.965,1.08,-0.853,0.0
11.16,1.006,-0.859,0.0
10.543,0.949,-0.872,0.0
10.034,0.901,-0.887,0.0
9.597,0.861,-0.903,0.0
12.819,1.143,-0.846,0.0
11.891,1.058,-0.852,0.0
11.116,0.988,-0.859,0.0
10.491,0.931,-0.871,0.0
10.039,0.889,-0.89,0.0
9.571,0.846,-0.903,0.0
12.688,1.115,-0.841,0.0
11.881,1.042,-0.854,0.0
11.086,0.971,-0.86,0.0
10.5,0.918,-0.875,0.0
10.04,0.876,-0.893,0.0
9.549,0.832,-0.903,0.0
12.787,1.107,-0.85,0.0
11.831,1.023,-0.853,0.0
11.068,0.955,-0.861,0.0
10.45,0.9,-0.873,0.0
10.011,0.86,-0.893,0.0
9.522,0.817,-0.903,0.0
12.686,1.082,-0.846,0.0
11.787,1.003,-0.852,0.0
10.999,0.934,-0.857,0.0
10.458,0.887,-0.875,0.0
9.89,0.837,-0.884,0.0
9.49,0.801,-0.901,0.0
12.665,1.063,-0.847,0.0
11.75,0.984,-0.852,0.0
11.052,0.924,-0.863,0.0
10.454,0.872,-0.876,0.0
9.93,0.827,-0.889,0.0
9.478,0.788,-0.902,0.0
12.514,1.033,-0.838,0.0
11.737,0.967,-0.852,0.0
10.986,0.903,-0.859,0.0
10.437,0.857,-0.876,0.0
9.936,0.814,-0.89,0.0
9.498,0.776,-0.904,0.0
12.686,1.03,-0.851,0.0
11.761,0.953,-0.855,0.0
11.041,0.893,-0.864,0.0
10.387,0.838,-0.872,0.0
9.926,0.799,-0.89,0.0
9.499,0.763,-0.905,0.0
12.751,1.018,-0.856,0.0
11.725,0.934,-0.852,0.0
10.997,0.874,-0.861,0.0
10.446,0.828,-0.878,0.0
9.984,0.79,-0.895,0.0
9.427,0.744,-0.898,0.0
12.731,0.998,-0.854,0.0
11.722,0.917,-0.852,0.0
11.022,0.86,-0.863,0.0
10.419,0.811,-0.875,0.0
9.929,0.771,-0.89,0.0
9.471,0.734,-0.902,0.0
12.736,0.981,-0.854,0.0
11.739,0.901,-0.853,0.0
10.999,0.842,-0.86,0.0
10.422,0.796,-0.875,0.0
9.957,0.759,-0.891,0.0
9.481,0.721,-0.902,0.0
12.726,0.962,-0.852,0.0
11.75,0.886,-0.852,0.0
11.012,0.828,-0.86,0.0
10.434,0.782,-0.874,0.0
9.932,0.743,-0.888,0.0
9.519,0.71,-0.904,0.0
12.586,0.933,-0.841,0.0
11.76,0.869,-0.851,0.0
11.034,0.813,-0.86,0.0
10.467,0.769,-0.876,0.0
9.982,0.732,-0.891,0.0
9.556,0.699,-0.906,0.0
12.63,0.918,-0.842,0.0
11.778,0.853,-0.85,0.0
11.057,0.799,-0.86,0.0
10.489,0.756,-0.875,0.0
9.993,0.718,-0.89,0.0
9.483,0.679,-0.897,0.0
12.794,0.911,-0.85,0.0
11.798,0.837,-0.849,0.0
11.106,0.786,-0.861,0.0
10.507,0.741,-0.874,0.0
9.993,0.703,-0.887,0.0
9.553,0.67,-0.902,0.0
12.751,0.888,-0.844,0.0
11.847,0.823,-0.85,0.0
11.1,0.769,-0.858,0.0
10.535,0.727,-0.874,0.0
10.086,0.694,-0.893,0.0
9.563,0.656,-0.9,0.0
12.849,0.876,-0.846,0.0
11.907,0.809,-0.85,0.0
11.202,0.759,-0.862,0.0
10.59,0.715,-0.875,0.0
10.119,0.681,-0.892,0.0
9.608,0.645,-0.901,0.0
12.885,0.859,-0.844,0.0
11.927,0.793,-0.847,0.0
11.23,0.744,-0.86,0.0
10.595,0.699,-0.871,0.0
10.101,0.665,-0.887,0.0
9.622,0.631,-0.898,0.0
13.062,0.851,-0.851,0.0
12.037,0.781,-0.851,0.0
11.266,0.729,-0.858,0.0
10.629,0.686,-0.87,0.0
10.141,0.652,-0.886,0.0
9.68,0.62,-0.899,0.0
13.064,0.831,-0.845,0.0
12.123,0.769,-0.851,0.0
11.264,0.711,-0.853,0.0
10.695,0.673,-0.87,0.0
10.176,0.638,-0.884,0.0
9.727,0.608,-0.899,0.0
13.11,0.814,-0.842,0.0
12.186,0.754,-0.85,0.0
11.323,0.698,-0.852,0.0
10.771,0.662,-0.871,0.0
10.228,0.626,-0.884,0.0
9.795,0.598,-0.9,0.0
13.181,0.799,-0.84,0.0
12.236,0.739,-0.847,0.0
11.428,0.687,-0.854,0.0
10.825,0.649,-0.87,0.0
10.283,0.614,-0.883,0.0
9.83,0.585,-0.898,0.0
13.276,0.784,-0.838,0.0
12.369,0.728,-0.849,0.0
11.569,0.678,-0.858,0.0
10.808,0.631,-0.862,0.0
10.324,0.601,-0.88,0.0
9.895,0.573,-0.898,0.0
13.476,0.775,-0.843,0.0
12.423,0.712,-0.845,0.0
11.619,0.663,-0.854,0.0
10.932,0.621,-0.865,0.0
10.399,0.589,-0.88,0.0
9.919,0.559,-0.894,0.0
13.532,0.758,-0.838,0.0
12.514,0.698,-0.843,0.0
11.677,0.649,-0.851,0.0
11.049,0.611,-0.867,0.0
10.438,0.575,-0.876,0.0
9.957,0.546,-0.89,0.0
13.694,0.746,-0.838,0.0
12.745,0.691,-0.85,0.0
11.778,0.636,-0.85,0.0
11.096,0.597,-0.862,0.0
10.541,0.564,-0.877,0.0
10.047,0.536,-0.891,0.0
13.794,0.73,-0.834,0.0
12.917,0.681,-0.852,0.0
11.861,0.622,-0.847,0.0
11.191,0.585,-0.861,0.0
10.597,0.551,-0.874,0.0
10.101,0.523,-0.888,0.0
13.922,0.716,-0.831,0.0
13.074,0.669,-0.852,0.0
11.994,0.611,-0.847,0.0
11.235,0.57,-0.856,0.0
10.72,0.541,-0.875,0.0
10.183,0.512,-0.887,0.0
14.052,0.701,-0.827,0.0
13.107,0.651,-0.843,0.0
12.222,0.604,-0.853,0.0
11.339,0.558,-0.854,0.0
10.822,0.53,-0.874,0.0
10.244,0.499,-0.883,0.0
14.263,0.69,-0.828,0.0
13.242,0.638,-0.84,0.0
12.325,0.591,-0.849,0.0
11.528,0.55,-0.858,0.0
10.952,0.52,-0.875,0.0
10.327,0.488,-0.881,0.0
14.432,0.677,-0.825,0.0
13.542,0.632,-0.847,0.0
12.506,0.58,-0.85,0.0
11.634,0.537,-0.855,0.0
11.043,0.507,-0.872,0.0
10.443,0.477,-0.881,0.0
14.488,0.658,-0.814,0.0
13.613,0.615,-0.839,0.0
12.759,0.573,-0.855,0.0
11.755,0.525,-0.853,0.0
11.147,0.495,-0.869,0.0
10.525,0.465,-0.878,0.0
14.822,0.651,-0.818,0.0
13.771,0.601,-0.835,0.0
12.855,0.558,-0.849,0.0
11.868,0.512,-0.849,0.0
11.255,0.483,-0.866,0.0
10.624,0.454,-0.875,0.0
14.999,0.636,-0.813,0.0
13.928,0.587,-0.83,0.0
13.078,0.549,-0.85,0.0
12.025,0.501,-0.848,0.0
11.334,0.47,-0.86,0.0
10.794,0.445,-0.878,0.0
15.156,0.621,-0.806,0.0
14.17,0.577,-0.829,0.0
13.26,0.537,-0.848,0.0
12.248,0.493,-0.85,0.0
11.425,0.457,-0.855,0.0
10.94,0.435,-0.878,0.0
15.43,0.609,-0.803,0.0
14.382,0.565,-0.826,0.0
13.447,0.525,-0.845,0.0
12.391,0.481,-0.846,0.0
11.604,0.447,-0.855,0.0
11.036,0.423,-0.873,0.0
15.741,0.599,-0.802,0.0
14.541,0.55,-0.818,0.0
13.648,0.513,-0.842,0.0
12.647,0.472,-0.849,0.0
11.773,0.437,-0.854,0.0
11.146,0.411,-0.868,1.0
16.095,0.589,-0.801,0.0
14.809,0.539,-0.816,0.0
13.781,0.498,-0.833,0.0
12.946,0.465,-0.854,0.0
11.936,0.426,-0.851,0.0
11.294,0.4,-0.866,0.0
16.428,0.578,-0.797,0.0
15.111,0.528,-0.814,0.0
14.069,0.488,-0.833,0.0
13.149,0.453,-0.851,0.0
12.188,0.418,-0.854,0.0
11.398,0.388,-0.86,0.0
16.665,0.563,-0.788,0.0
15.343,0.515,-0.807,0.0
14.277,0.476,-0.828,0.0
13.329,0.441,-0.845,0.0
12.372,0.406,-0.851,0.0
11.576,0.377,-0.858,0.0
17.031,0.551,-0.783,0.0
15.642,0.503,-0.803,0.0
14.585,0.465,-0.826,0.0
13.592,0.431,-0.844,0.0
12.609,0.397,-0.85,0.0
11.753,0.367,-0.856,0.0
17.426,0.54,-0.778,0.0
15.99,0.492,-0.799,0.0
14.828,0.453,-0.82,0.0
13.776,0.418,-0.837,0.0
12.92,0.389,-0.854,0.0
11.954,0.357,-0.854,0.0
17.862,0.529,-0.773,0.0
16.429,0.483,-0.798,0.0
15.144,0.442,-0.816,0.0
14.084,0.408,-0.836,0.0
13.147,0.378,-0.85,0.0
12.205,0.348,-0.854,0.0
18.391,0.52,-0.77,0.0
16.712,0.469,-0.789,0.0
15.356,0.427,-0.806,0.0
14.355,0.396,-0.831,0.0
13.426,0.368,-0.849,0.0
12.445,0.338,-0.853,0.0
18.669,0.503,-0.755,0.0
17.2,0.46,-0.787,0.0
15.73,0.417,-0.803,0.0
14.565,0.383,-0.822,0.0
13.668,0.356,-0.844,0.0
12.692,0.328,-0.851,0.0
19.221,0.493,-0.749,0.0
17.58,0.447,-0.778,0.0
16.181,0.408,-0.802,0.0
14.768,0.369,-0.811,0.0
13.872,0.343,-0.836,0.0
12.963,0.318,-0.85,0.0
19.739,0.481,-0.739,0.0
17.946,0.433,-0.767,0.0
16.649,0.398,-0.8,0.0
15.268,0.362,-0.816,0.0
14.226,0.334,-0.835,0.0
13.267,0.309,-0.849,0.0
20.31,0.469,-0.729,0.0
18.508,0.423,-0.762,0.0
16.998,0.385,-0.79,0.0
15.644,0.351,-0.811,0.0
14.53,0.323,-0.83,0.0
13.559,0.299,-0.846,0.0
20.96,0.458,-0.72,0.0
18.984,0.411,-0.752,0.0
17.459,0.374,-0.784,0.0
15.969,0.339,-0.802,0.0
14.836,0.312,-0.824,0.0
13.772,0.286,-0.838,0.0
21.637,0.446,-0.708,0.0
19.633,0.401,-0.746,0.0
17.834,0.36,-0.772,0.0
16.448,0.329,-0.8,0.0
15.197,0.301,-0.819,0.0
14.114,0.277,-0.835,0.0
22.673,0.441,-0.705,0.0
20.258,0.39,-0.737,0.0
18.41,0.35,-0.766,0.0
16.794,0.316,-0.789,0.0
15.568,0.29,-0.814,0.0
14.483,0.267,-0.833,0.0
23.605,0.431,-0.695,0.0
21.021,0.38,-0.729,0.0
18.95,0.339,-0.757,0.0
17.535,0.31,-0.794,1.0
15.875,0.277,-0.803,0.0
14.808,0.256,-0.827,0.0
24.609,0.422,-0.683,0.0
21.631,0.367,-0.714,0.0
19.529,0.327,-0.747,0.0
17.64,0.292,-0.769,1.0
16.494,0.27,-0.806,0.0
15.158,0.245,-0.82,0.0
25.759,0.413,-0.671,0.0
22.478,0.356,-0.703,0.0
20.106,0.314,-0.734,0.0
18.287,0.282,-0.765,1.0
16.792,0.256,-0.791,0.0
15.576,0.235,-0.815,0.0
26.5,0.396,-0.644,0.0
23.496,0.346,-0.694,0.0
21.142,0.308,-0.735,0.0
18.949,0.272,-0.76,0.0
17.317,0.246,-0.785,0.0
15.988,0.224,-0.808,0.0
27.797,0.386,-0.627,0.0
24.843,0.34,-0.69,0.0
21.823,0.295,-0.72,0.0
19.608,0.261,-0.751,0.0
17.824,0.234,-0.776,0.0
16.487,0.214,-0.804,0.0
29.457,0.379,-0.611,0.0
0.0,0.0,0.0,0.0
22.774,0.284,-0.71,0.0
20.263,0.25,-0.74,0.0
18.462,0.224,-0.77,0.0
16.94,0.203,-0.795,0.0
30.849,0.365,-0.583,0.0
26.808,0.313,-0.647,0.0
23.532,0.27,-0.69,0.0
21.133,0.239,-0.732,0.0
19.084,0.213,-0.761,0.0
17.53,0.193,-0.79,0.0
0.0,0.0,0.0,0.0
28.476,0.305,-0.634,0.0
24.706,0.26,-0.679,0.0
21.925,0.227,-0.719,0.0
19.802,0.202,-0.752,0.0
17.934,0.18,-0.775,0.0
34.762,0.345,-0.529,0.0
0.0,0.0,0.0,0.0
26.338,0.253,-0.675,0.0
22.615,0.214,-0.699,0.0
20.412,0.189,-0.737,0.0
18.57,0.169,-0.767,0.0
0.0,0.0,0.0,0.0
31.562,0.28,-0.584,0.0
27.29,0.237,-0.646,0.0
23.796,0.203,-0.69,0.0
21.338,0.179,-0.729,0.0
19.188,0.158,-0.756,0.0
42.881,0.349,-0.488,0.0
33.285,0.266,-0.552,0.0
0.0,0.0,0.0,0.0
25.064,0.192,-0.678,0.0
22.222,0.167,-0.717,0.0
19.967,0.147,-0.748,0.0
42.942,0.313,-0.406,0.0
36.154,0.258,-0.529,0.0
30.366,0.212,-0.602,0.0
26.316,0.18,-0.661,0.0
23.402,0.157,-0.709,0.0
20.807,0.137,-0.738,0.0
0.0,0.0,0.0,0.0
39.558,0.25,-0.501,0.0
0.0,0.0,0.0,0.0
0.0,0.0,0.0,0.0
24.259,0.143,-0.687,0.0
21.673,0.125,-0.726,0.0
54.862,0.312,-0.303,0.0
42.938,0.238,-0.459,1.0
35.243,0.191,-0.559,0.0
29.547,0.156,-0.625,0.0
25.936,0.134,-0.683,0.0
22.514,0.113,-0.709,0.0
0.0,0.0,0.0,0.0
46.007,0.221,-0.4,1.0
0.0,0.0,0.0,0.0
0.0,0.0,0.0,0.0
0.0,0.0,0.0,0.0
23.805,0.102,-0.702,0.0
0.0,0.0,0.0,0.0
49.857,0.204,-0.333,0.0
40.198,0.16,-0.476,0.0
0.0,0.0,0.0,0.0
28.574,0.107,-0.636,0.0
0.0,0.0,0.0,0.0
0.0,0.0,0.0,0.0
0.0,0.0,0.0,0.0
42.921,0.142,-0.421,1.0
0.0,0.0,0.0,0.0
30.182,0.093,-0.611,0.0
26.245,0.078,-0.666,0.0
92.455,0.267,0.237,1.0
0.0,0.0,0.0,0.0
49.683,0.132,-0.385,0.0
38.375,0.098,-0.499,0.0
0.0,0.0,0.0,0.0
27.781,0.065,-0.648,0.0
103.678,0.236,0.479,1.0
0.0,0.0,0.0,0.0
0.0,0.0,0.0,0.0
42.795,0.084,-0.468,1.0
35.332,0.066,-0.569,0.0
29.307,0.052,-0.623,0.0
110.742,0.187,0.742,11.0
0.0,0.0,0.0,0.0
51.216,0.077,-0.184,1.0
45.613,0.064,-0.404,2.0
0.0,0.0,0.0,0.0
0.0,0.0,0.0,0.0
111.192,0.128,0.976,11.0
95.603,0.102,0.346,3.0
0.0,0.0,0.0,0.0
0.0,0.0,0.0,0.0
40.477,0.032,-0.482,0.0
33.953,0.024,-0.58,0.0
111.119,0.072,1.207,15.0
110.588,0.063,0.632,7.0
0.0,0.0,0.0,0.0
0.0,0.0,0.0,0.0
45.214,0.015,-0.444,2.0
0.0,0.0,0.0,0.0
117.291,0.021,1.52,11.0
111.224,0.012,0.868,10.0
97.199,0.003,0.258,1.0
0.0,0.0,0.0,0.0
0.0,0.0,0.0,0.0
38.37,-0.006,-0.494,0.0
111.202,-0.027,1.674,12.0
117.296,-0.036,1.162,14.0
110.638,-0.041,0.526,2.0
0.0,0.0,0.0,0.0
54.437,-0.027,-0.306,0.0
44.825,-0.025,-0.483,0.0
112.875,-0.072,1.939,18.0
111.132,-0.077,1.336,7.0
111.061,-0.084,0.764,13.0
0.0,0.0,0.0,0.0
0.0,0.0,0.0,0.0
45.454,-0.042,-0.393,1.0
114.027,-0.113,2.2,12.0
111.035,-0.116,1.569,8.0
117.411,-0.129,1.056,13.0
99.378,-0.114,0.372,1.0
0.0,0.0,0.0,0.0
0.0,0.0,0.0,0.0
114.507,-0.15,2.45,13.0
112.999,-0.154,1.836,14.0
119.706,-0.168,1.329,13.0
110.83,-0.161,0.65,14.0
0.0,0.0,0.0,0.0
0.0,0.0,0.0,0.0
119.81,-0.191,2.82,5.0
114.052,-0.187,2.098,13.0
112.998,-0.189,1.496,11.0
114.428,-0.196,0.914,24.0
99.815,-0.174,0.285,1.0
0.0,0.0,0.0,0.0
119.806,-0.221,3.074,28.0
114.577,-0.215,2.351,14.0
113.135,-0.216,1.739,11.0
119.709,-0.232,1.212,18.0
110.689,-0.217,0.551,6.0
0.0,0.0,0.0,0.0
194.562,-0.399,5.406,18.0
194.051,-0.403,4.393,6.0
114.051,-0.24,1.996,10.0
119.712,-0.254,1.467,8.0
114.485,-0.245,0.813,150.0
0.0,0.0,0.0,0.0
70.189,-0.156,2.099,13.0
119.81,-0.268,2.967,9.0
114.477,-0.258,2.247,13.0
113.158,-0.257,1.627,12.0
114.48,-0.261,1.057,150.0
101.782,-0.234,0.417,1.0
117.48,-0.277,3.767,22.0
119.84,-0.283,3.224,17.0
115.361,-0.274,2.51,3.0
113.741,-0.271,1.878,9.0
119.684,-0.286,1.359,16.0
111.172,-0.266,0.69,12.0
117.47,-0.288,4.015,29.0
70.186,-0.172,2.036,7.0
119.787,-0.294,2.86,20.0
114.29,-0.281,2.128,16.0
113.232,-0.278,1.526,10.0
114.455,-0.28,0.954,150.0
117.413,-0.295,4.262,35.0
117.552,-0.294,3.66,8.0
119.766,-0.299,3.112,21.0
114.904,-0.286,2.383,7.0
113.438,-0.282,1.767,7.0
119.751,-0.296,1.251,16.0
117.354,-0.297,4.509,36.0
117.461,-0.296,3.909,25.0
70.182,-0.176,1.973,2.0
119.823,-0.298,2.739,20.0
114.18,-0.283,2.023,14.0
113.164,-0.278,1.421,7.0
117.342,-0.295,4.756,20.0
117.43,-0.293,4.154,33.0
70.204,-0.173,2.121,6.0
119.815,-0.294,2.991,21.0
114.677,-0.279,2.272,12.0
113.304,-0.272,1.661,10.0
95.331,-0.234,4.065,15.0
117.384,-0.285,4.401,33.0
117.488,-0.282,3.798,24.0
119.772,-0.284,3.243,8.0
115.604,-0.271,2.534,2.0
114.039,-0.264,1.913,7.0
80.813,-0.191,3.618,4.0
117.362,-0.274,4.647,25.0
117.423,-0.27,4.044,33.0
70.174,-0.159,2.048,11.0
193.991,-0.432,4.661,20.0
114.288,-0.25,2.158,16.0
80.923,-0.181,3.793,10.0
117.406,-0.258,4.897,17.0
117.389,-0.253,4.291,35.0
117.481,-0.248,3.674,24.0
119.855,-0.248,3.131,13.0
114.787,-0.232,2.408,9.0
80.894,-0.167,3.961,11.0
95.367,-0.193,4.176,11.0
117.348,-0.231,4.532,29.0
117.421,-0.226,3.917,32.0
70.142,-0.131,1.978,10.0
119.852,-0.218,2.761,6.0
81.6,-0.152,4.164,13.0
80.771,-0.146,3.705,13.0
117.372,-0.206,4.777,25.0
117.41,-0.199,4.158,31.0
70.152,-0.115,2.123,14.0
119.807,-0.19,3.006,20.0
60.32,-0.098,3.203,13.0
80.719,-0.126,3.869,13.0
95.386,-0.143,4.078,17.0
117.412,-0.169,4.402,24.0
117.428,-0.161,3.796,28.0
117.57,-0.153,3.196,13.0
60.219,-0.081,3.323,21.0
80.697,-0.103,4.035,16.0
117.434,-0.142,5.262,13.0
117.487,-0.134,4.644,22.0
117.483,-0.126,4.037,24.0
70.13,-0.069,2.047,18.0
60.5,-0.062,3.462,23.0
77.899,-0.075,4.053,16.0
80.643,-0.071,3.778,2.0
95.39,-0.077,3.965,9.0
117.477,-0.085,4.275,7.0
117.431,-0.076,3.667,24.0
60.654,-0.041,3.595,5.0
77.881,-0.047,4.212,14.0
80.421,-0.041,3.931,20.0
95.33,-0.042,4.156,4.0
70.101,-0.024,2.692,9.0
70.025,-0.018,2.327,15.0
60.6,-0.018,3.713,4.0
60.265,-0.013,3.379,25.0
80.491,-0.01,4.094,7.0
80.805,-0.003,3.683,3.0
189.819,0.01,7.67,55.0
69.938,0.01,2.462,23.0
60.291,0.007,3.815,20.0
71.804,0.014,4.169,3.0
78.013,0.024,4.124,22.0
80.616,0.032,3.834,18.0
117.719,0.058,4.989,6.0
70.145,0.042,2.608,22.0
60.366,0.034,3.938,11.0
60.541,0.04,3.634,3.0
73.927,0.057,4.054,8.0
80.443,0.07,3.983,24.0
102.7,0.1,4.553,8.0
117.693,0.127,4.607,19.0
50.486,0.053,3.394,5.0
67.975,0.079,4.214,2.0
74.015,0.094,4.203,6.0
97.001,0.134,4.992,9.0
80.645,0.12,3.731,11.0
70.247,0.112,2.885,15.0
67.859,0.107,4.692,9.0
60.523,0.102,3.869,5.0
67.793,0.122,3.979,2.0
78.625,0.151,4.197,9.0
80.533,0.163,3.879,29.0
70.21,0.151,3.017,19.0
45.868,0.098,3.26,11.0
60.389,0.136,3.975,11.0
60.514,0.144,3.668,5.0
81.482,0.203,4.505,13.0
81.263,0.212,4.07,14.0
102.921,0.282,4.618,17.0
45.849,0.125,3.346,17.0
60.47,0.172,4.096,8.0
67.182,0.2,4.2,8.0
73.547,0.229,4.206,19.0
78.679,0.254,4.088,11.0
80.378,0.27,3.757,11.0
45.933,0.154,3.438,10.0
73.6,0.256,5.123,10.0
60.281,0.217,3.88,8.0
73.501,0.275,4.338,8.0
81.29,0.315,4.373,9.0
80.869,0.324,3.928,8.0
41.959,0.168,3.218,42.0
45.813,0.189,3.273,37.0
60.497,0.258,4.005,21.0
60.189,0.265,3.662,6.0
73.914,0.336,4.111,13.0
78.683,0.369,3.963,9.0
41.735,0.196,3.277,44.0
47.818,0.231,3.503,6.0
60.75,0.302,4.131,19.0
60.262,0.308,3.776,7.0
73.505,0.386,4.22,3.0
81.058,0.438,4.23,10.0
41.842,0.226,3.36,47.0
47.713,0.265,3.581,13.0
61.001,0.347,4.257,9.0
60.546,0.354,3.902,6.0
74.194,0.445,4.391,4.0
80.55,0.494,4.344,8.0
41.792,0.257,3.43,37.0
41.907,0.264,3.218,32.0
60.751,0.392,4.346,3.0
48.017,0.317,3.178,8.0
60.071,0.406,3.659,1.0
80.62,0.557,4.488,13.0
41.521,0.287,3.481,44.0
41.977,0.297,3.297,17.0
51.416,0.372,3.767,6.0
47.977,0.354,3.258,25.0
59.984,0.453,3.756,12.0
78.446,0.605,4.501,12.0
41.531,0.321,3.553,45.0
41.849,0.33,3.358,35.0
47.569,0.383,3.566,12.0
47.834,0.393,3.329,18.0
60.062,0.503,3.864,7.0
78.307,0.669,4.624,24.0
41.434,0.355,3.615,48.0
41.696,0.364,3.417,38.0
47.75,0.425,3.661,4.0
68.095,0.617,4.853,16.0
67.133,0.62,4.431,9.0
71.759,0.675,4.357,8.0
41.52,0.392,3.692,33.0
41.522,0.399,3.472,39.0
41.273,0.403,3.232,22.0
47.643,0.474,3.474,14.0
41.552,0.42,2.81,27.0
59.986,0.618,3.74,18.0
41.41,0.428,3.75,32.0
41.571,0.437,3.544,41.0
41.674,0.445,3.331,44.0
41.35,0.449,3.082,34.0
41.547,0.458,2.876,28.0
60.214,0.675,3.851,18.0
41.444,0.467,3.82,32.0
41.541,0.475,3.607,16.0
41.35,0.48,3.371,49.0
41.281,0.487,3.142,39.0
41.497,0.497,2.938,34.0
60.17,0.731,3.942,18.0
41.346,0.505,3.876,35.0
41.471,0.513,3.666,28.0
41.223,0.518,3.424,26.0
40.955,0.522,3.18,44.0
41.487,0.536,3.001,37.0
67.054,0.879,4.494,17.0
41.118,0.542,3.917,44.0
41.124,0.549,3.698,39.0
40.886,0.553,3.458,43.0
40.851,0.56,3.233,38.0
48.612,0.676,3.588,16.0
41.474,0.584,2.841,6.0
41.246,0.584,3.991,42.0
40.92,0.587,3.74,49.0
40.96,0.595,3.525,39.0
40.983,0.603,3.304,41.0
41.213,0.614,3.102,38.0
41.439,0.625,2.899,36.0
41.051,0.623,4.032,48.0
41.045,0.63,3.812,40.0
40.764,0.634,3.567,48.0
40.806,0.642,3.348,26.0
40.884,0.651,3.136,39.0
41.4,0.667,2.955,35.0
41.043,0.665,4.09,41.0
41.275,0.677,3.891,41.0
40.871,0.678,3.633,44.0
41.013,0.688,3.422,32.0
40.801,0.692,3.186,40.0
41.195,0.707,2.997,41.0
41.111,0.71,4.154,39.0
41.244,0.72,3.945,38.0
40.966,0.723,3.698,38.0
40.917,0.73,3.47,38.0
40.749,0.735,3.237,42.0
40.978,0.747,3.036,41.0
40.942,0.751,4.192,41.0
41.174,0.763,3.994,38.0
40.958,0.768,3.753,36.0
40.783,0.772,3.513,39.0
40.769,0.78,3.293,49.0
40.981,0.792,3.09,41.0
40.781,0.793,4.23,46.0
41.389,0.813,4.069,33.0
40.912,0.812,3.802,38.0
40.78,0.817,3.566,30.0
40.94,0.829,3.359,41.0
41.051,0.839,3.148,40.0
40.741,0.838,4.278,44.0
41.242,0.856,4.107,32.0
40.882,0.858,3.85,43.0
40.676,0.861,3.607,42.0
40.66,0.869,3.387,44.0
40.859,0.881,3.183,47.0
40.769,0.886,4.332,38.0
40.814,0.894,4.115,45.0
40.963,0.906,3.908,40.0
40.723,0.909,3.661,38.0
40.643,0.915,3.434,30.0
40.902,0.929,3.236,44.0
40.614,0.929,4.363,50.0
40.828,0.942,4.165,41.0
40.726,0.948,3.934,38.0
40.776,0.958,3.713,35.0
40.59,0.962,3.477,30.0
40.729,0.973,3.269,34.0
40.566,0.975,4.405,46.0
40.862,0.991,4.215,39.0
40.763,0.996,3.984,36.0
40.561,1.0,3.74,43.0
40.564,1.009,3.521,34.0
40.752,1.021,3.317,37.0
40.723,1.028,4.469,37.0
40.955,1.042,4.271,40.0
40.873,1.048,4.04,32.0
40.581,1.049,3.786,33.0
40.652,1.059,3.573,36.0
40.617,1.067,3.349,40.0
40.676,1.075,4.507,33.0
40.922,1.09,4.311,43.0
40.991,1.101,4.095,36.0
40.558,1.097,3.827,26.0
40.61,1.107,3.611,33.0
40.725,1.118,3.4,41.0
40.721,1.126,4.555,39.0
40.866,1.138,4.347,40.0
41.044,1.152,4.142,42.0
40.613,1.148,3.873,46.0
40.597,1.156,3.65,18.0
40.611,1.165,3.431,36.0
40.709,1.176,4.594,17.0
40.897,1.19,4.391,37.0
41.088,1.204,4.186,39.0
40.816,1.204,3.932,49.0
40.57,1.205,3.687,34.0
40.508,1.212,3.461,37.0
40.783,1.229,4.641,43.0
40.742,1.236,4.413,38.0
40.863,1.248,4.202,41.0
41.199,1.266,4.007,42.0
40.531,1.255,3.72,43.0
