X,Y,Z,Reflectivity
78.278,-8.156,2.268,15.0
104.669,-10.923,2.466,16.0
204.284,-21.353,3.726,6.0
33.141,-3.47,0.428,19.0
74.538,-7.809,3.044,30.0
88.107,-9.243,3.128,8.0
78.256,-8.222,2.362,10.0
78.82,-8.293,1.952,28.0
33.149,-3.493,0.644,37.0
33.131,-3.496,0.468,69.0
72.287,-7.634,3.039,11.0
72.367,-7.653,2.657,14.0
78.085,-8.269,2.452,11.0
33.144,-3.515,0.861,52.0
33.153,-3.521,0.685,72.0
33.116,-3.522,0.508,73.0
72.308,-7.696,3.13,21.0
33.187,-3.536,1.26,2.0
33.163,-3.538,1.082,45.0
33.158,-3.542,0.902,72.0
33.135,-3.544,0.726,77.0
33.118,-3.547,0.549,83.0
33.209,-3.56,1.478,4.0
33.186,-3.561,1.3,69.0
33.171,-3.564,1.123,72.0
33.151,-3.566,0.943,77.0
33.143,-3.569,0.766,82.0
33.127,-3.572,0.59,79.0
33.206,-3.583,1.519,72.0
33.178,-3.583,1.341,72.0
33.152,-3.585,1.163,80.0
33.144,-3.588,0.983,79.0
33.138,-3.591,0.807,81.0
33.131,-3.594,0.631,77.0
33.188,-3.604,1.56,73.0
33.165,-3.604,1.382,82.0
33.163,-3.608,1.206,82.0
33.153,-3.61,1.025,79.0
33.147,-3.613,0.849,76.0
33.137,-3.616,0.672,45.0
33.178,-3.623,1.6,81.0
33.162,-3.624,1.423,81.0
33.166,-3.628,1.247,79.0
33.163,-3.631,1.067,77.0
33.139,-3.632,0.89,46.0
33.153,-3.637,0.715,35.0
33.176,-3.643,1.642,82.0
33.17,-3.645,1.465,79.0
33.175,-3.648,1.289,79.0
33.147,-3.648,1.108,47.0
33.166,-3.653,0.932,35.0
33.148,-3.654,0.756,1.0
33.179,-3.661,1.685,82.0
33.176,-3.663,1.508,80.0
33.17,-3.665,1.331,51.0
33.164,-3.667,1.151,35.0
33.195,-3.673,0.975,2.0
75.142,-8.322,1.81,26.0
33.188,-3.679,1.727,81.0
33.197,-3.682,1.551,61.0
33.18,-3.682,1.373,38.0
33.198,-3.686,1.194,6.0
74.802,-8.312,2.293,17.0
74.967,-8.336,1.9,42.0
33.2,-3.695,1.77,72.0
33.187,-3.695,1.592,41.0
33.193,-3.698,1.416,20.0
73.943,-8.242,2.753,36.0
74.816,-8.345,2.388,7.0
74.715,-8.338,1.987,42.0
33.197,-3.708,1.812,47.0
33.2,-3.71,1.635,31.0
72.729,-8.131,3.195,9.0
73.604,-8.232,2.834,34.0
74.156,-8.298,2.461,9.0
74.624,-8.355,2.079,28.0
33.207,-3.721,1.854,40.0
33.219,-3.724,1.678,8.0
69.774,-7.825,3.153,13.0
72.233,-8.103,2.872,16.0
74.079,-8.313,2.55,23.0
74.519,-8.366,2.169,15.0
33.228,-3.734,1.897,29.0
70.852,-7.964,3.668,10.0
69.717,-7.839,3.237,27.0
72.284,-8.13,2.964,16.0
74.14,-8.34,2.646,30.0
74.383,-8.371,2.258,11.0
33.229,-3.743,1.939,7.0
72.421,-8.16,3.841,33.0
72.429,-8.162,3.456,5.0
0.0,0.0,0.0,0.0
74.088,-8.352,2.737,17.0
75.462,-8.509,2.386,11.0
33.221,-3.75,1.981,2.0
72.796,-8.218,3.952,25.0
70.78,-7.991,3.464,10.0
73.271,-8.272,3.189,12.0
72.426,-8.178,2.765,14.0
75.353,-8.51,2.476,23.0
72.226,-8.166,4.398,8.0
72.42,-8.187,4.022,20.0
0.0,0.0,0.0,0.0
69.695,-7.879,3.119,23.0
72.243,-8.167,2.849,12.0
75.126,-8.494,2.562,35.0
72.662,-8.225,4.514,16.0
72.458,-8.201,4.114,14.0
0.0,0.0,0.0,0.0
69.684,-7.885,3.205,33.0
0.0,0.0,0.0,0.0
75.025,-8.489,2.651,44.0
72.701,-8.236,4.607,12.0
71.074,-8.05,4.123,24.0
72.798,-8.243,3.834,26.0
72.396,-8.196,3.418,17.0
73.743,-8.348,3.088,17.0
0.0,0.0,0.0,0.0
33.287,-3.772,2.15,2.0
69.69,-7.895,4.128,9.0
72.509,-8.212,3.908,30.0
0.0,0.0,0.0,0.0
72.999,-8.264,3.146,11.0
72.913,-8.252,2.754,15.0
33.276,-3.771,2.19,4.0
69.714,-7.897,4.215,11.0
72.394,-8.198,3.989,27.0
0.0,0.0,0.0,0.0
69.73,-7.891,3.089,17.0
72.505,-8.202,2.825,17.0
33.243,-3.765,2.228,14.0
72.61,-8.221,4.477,15.0
72.458,-8.199,4.08,16.0
0.0,0.0,0.0,0.0
69.688,-7.88,3.17,30.0
72.221,-8.163,2.899,10.0
33.24,-3.762,2.267,31.0
33.241,-3.76,2.089,4.0
70.519,-7.972,4.054,17.0
70.822,-8.002,3.685,9.0
69.682,-7.87,3.252,19.0
0.0,0.0,0.0,0.0
33.226,-3.756,2.306,40.0
33.226,-3.753,2.127,26.0
33.231,-3.751,1.949,2.0
72.696,-8.202,3.867,34.0
72.451,-8.17,3.466,6.0
72.459,-8.166,3.078,7.0
33.224,-3.749,2.344,55.0
33.213,-3.745,2.165,32.0
33.22,-3.743,1.987,27.0
33.232,-3.742,1.806,1.0
70.84,-7.973,3.469,10.0
72.515,-8.156,3.163,15.0
33.224,-3.742,2.383,79.0
33.211,-3.737,2.202,51.0
33.204,-3.734,2.024,39.0
33.199,-3.73,1.842,29.0
70.867,-7.957,3.551,10.0
69.764,-7.827,3.122,10.0
33.22,-3.732,2.42,81.0
33.222,-3.729,2.241,76.0
33.221,-3.726,2.062,63.0
33.186,-3.719,1.878,41.0
33.198,-3.717,1.7,35.0
33.203,-3.715,1.522,7.0
33.222,-3.722,2.457,82.0
33.224,-3.719,2.278,80.0
33.207,-3.713,2.098,79.0
33.196,-3.708,1.916,75.0
33.187,-3.704,1.736,49.0
33.189,-3.701,1.558,40.0
33.216,-3.71,2.493,86.0
33.217,-3.706,2.314,80.0
33.213,-3.701,2.134,76.0
33.186,-3.695,1.95,81.0
33.191,-3.691,1.772,76.0
33.185,-3.687,1.593,67.0
33.248,-3.7,2.531,75.0
33.223,-3.693,2.35,77.0
33.205,-3.687,2.169,73.0
33.191,-3.681,1.986,79.0
33.19,-3.677,1.807,76.0
33.177,-3.671,1.628,77.0
33.242,-3.684,2.567,71.0
33.233,-3.679,2.386,68.0
33.216,-3.672,2.205,65.0
33.198,-3.666,2.021,77.0
33.184,-3.66,1.841,85.0
33.179,-3.656,1.662,79.0
33.26,-3.67,2.602,6.0
33.219,-3.661,2.419,41.0
33.229,-3.657,2.24,67.0
33.21,-3.65,2.056,69.0
33.187,-3.643,1.875,71.0
33.185,-3.639,1.696,75.0
70.594,-7.753,5.595,49.0
70.239,-7.703,5.186,23.0
33.222,-3.639,2.273,6.0
33.189,-3.63,2.087,38.0
33.206,-3.627,1.909,66.0
33.201,-3.622,1.73,66.0
70.402,-7.693,5.649,17.0
70.195,-7.658,5.252,30.0
69.726,-7.596,4.838,7.0
70.407,-7.66,4.497,17.0
33.219,-3.609,1.942,3.0
33.205,-3.602,1.762,26.0
33.329,-3.621,2.707,45.0
33.308,-3.614,2.524,44.0
33.315,-3.609,2.343,37.0
33.287,-3.6,2.158,24.0
70.015,-7.561,4.16,18.0
69.95,-7.544,3.777,33.0
33.311,-3.598,2.737,53.0
33.317,-3.593,2.556,56.0
33.301,-3.585,2.373,47.0
33.285,-3.577,2.188,48.0
70.254,-7.539,4.238,12.0
70.03,-7.505,3.845,40.0
33.308,-3.575,2.767,53.0
33.302,-3.568,2.585,51.0
33.291,-3.561,2.402,39.0
33.281,-3.553,2.218,49.0
69.19,-7.376,4.235,26.0
69.881,-7.438,3.899,46.0
33.297,-3.549,2.795,50.0
33.289,-3.542,2.613,44.0
33.298,-3.537,2.432,54.0
33.278,-3.529,2.246,48.0
69.258,-7.332,4.298,15.0
68.824,-7.273,3.898,16.0
33.293,-3.524,2.824,55.0
33.292,-3.517,2.642,54.0
33.321,-3.514,2.462,61.0
33.266,-3.501,2.273,49.0
69.252,-7.276,4.356,25.0
68.953,-7.233,3.962,21.0
33.29,-3.497,2.851,52.0
33.281,-3.489,2.668,52.0
33.282,-3.482,2.486,52.0
33.261,-3.474,2.3,49.0
69.235,-7.217,4.41,17.0
68.911,-7.17,4.015,22.0
33.284,-3.468,2.877,52.0
33.279,-3.461,2.694,52.0
33.278,-3.454,2.512,53.0
33.243,-3.443,2.325,51.0
33.267,-3.439,2.145,19.0
69.069,-7.127,4.077,17.0
33.274,-3.439,2.902,53.0
33.266,-3.43,2.719,52.0
33.266,-3.423,2.536,53.0
33.248,-3.414,2.35,52.0
33.272,-3.41,2.17,37.0
69.058,-7.063,4.127,14.0
33.276,-3.408,2.927,52.0
33.26,-3.399,2.742,52.0
33.264,-3.392,2.561,52.0
33.228,-3.381,2.373,52.0
33.257,-3.377,2.193,48.0
69.24,-7.017,4.187,19.0
33.266,-3.376,2.949,53.0
33.259,-3.368,2.766,52.0
33.25,-3.359,2.582,48.0
33.233,-3.35,2.395,52.0
33.251,-3.345,2.214,52.0
0.0,0.0,0.0,0.0
33.26,-3.344,2.971,52.0
33.246,-3.334,2.786,52.0
33.242,-3.326,2.604,51.0
33.222,-3.316,2.416,52.0
33.245,-3.311,2.235,51.0
70.314,-6.988,4.343,17.0
33.252,-3.309,2.992,54.0
33.239,-3.3,2.807,52.0
33.228,-3.291,2.623,51.0
33.216,-3.282,2.436,52.0
33.239,-3.277,2.255,51.0
70.284,-6.913,4.384,16.0
33.243,-3.274,3.011,52.0
33.231,-3.265,2.826,51.0
33.228,-3.256,2.643,52.0
33.213,-3.246,2.456,53.0
33.233,-3.241,2.274,52.0
70.217,-6.831,4.42,46.0
33.239,-3.238,3.03,54.0
33.229,-3.229,2.845,52.0
33.217,-3.219,2.661,52.0
33.196,-3.209,2.472,51.0
33.219,-3.203,2.291,50.0
69.835,-6.718,4.433,46.0
33.235,-3.202,3.047,53.0
33.22,-3.191,2.862,51.0
33.219,-3.183,2.678,53.0
33.195,-3.172,2.489,51.0
33.217,-3.166,2.308,53.0
69.807,-6.637,4.466,29.0
33.229,-3.163,3.063,49.0
33.207,-3.152,2.877,33.0
33.199,-3.143,2.692,21.0
33.2,-3.135,2.506,20.0
33.208,-3.127,2.323,36.0
69.931,-6.568,4.507,31.0
73.794,-6.941,6.837,6.0
76.078,-7.135,6.626,16.0
73.648,-6.888,6.006,10.0
70.571,-6.583,5.357,48.0
70.248,-6.534,4.945,29.0
33.205,-3.08,2.154,5.0
79.098,-7.346,7.362,8.0
74.397,-6.889,6.511,12.0
73.503,-6.787,6.025,9.0
70.491,-6.49,5.38,36.0
70.346,-6.458,4.979,46.0
33.215,-3.041,2.167,1.0
73.749,-6.759,6.893,10.0
73.557,-6.722,6.465,9.0
73.374,-6.685,6.041,4.0
70.768,-6.429,5.427,29.0
70.308,-6.369,5.002,39.0
70.678,-6.384,4.637,11.0
73.82,-6.675,6.925,15.0
76.147,-6.864,6.72,9.0
74.368,-6.683,6.149,10.0
70.772,-6.341,5.45,37.0
70.142,-6.266,5.013,28.0
70.64,-6.292,4.657,10.0
73.449,-6.549,6.914,26.0
73.324,-6.517,6.492,11.0
74.465,-6.597,6.178,12.0
70.831,-6.255,5.475,19.0
69.97,-6.16,5.021,34.0
70.594,-6.197,4.673,24.0
73.5,-6.458,6.938,33.0
73.291,-6.419,6.509,11.0
71.488,-6.241,5.95,15.0
70.831,-6.164,5.493,24.0
70.316,-6.099,5.062,32.0
70.158,-6.067,4.661,27.0
73.337,-6.348,6.94,16.0
71.43,-6.162,6.36,20.0
71.206,-6.123,5.942,16.0
71.033,-6.088,5.523,23.0
70.411,-6.015,5.083,13.0
70.101,-5.969,4.671,35.0
71.068,-6.057,6.739,7.0
71.787,-6.097,6.404,9.0
70.53,-5.971,5.898,21.0
73.153,-6.173,5.701,14.0
70.468,-5.926,5.098,28.0
70.051,-5.871,4.678,35.0
71.054,-5.96,6.748,14.0
72.216,-6.036,6.453,11.0
70.515,-5.874,5.906,14.0
73.033,-6.063,5.701,12.0
70.639,-5.844,5.119,9.0
71.571,-5.901,4.788,18.0
71.14,-5.869,6.764,7.0
79.499,-6.536,7.112,3.0
75.721,-6.203,6.349,4.0
73.185,-5.975,5.719,8.0
70.614,-5.745,5.123,9.0
70.947,-5.752,4.751,38.0
71.931,-5.835,6.844,18.0
70.962,-5.736,6.352,7.0
70.72,-5.695,5.934,11.0
70.955,-5.694,5.548,9.0
70.68,-5.652,5.13,20.0
70.988,-5.657,4.756,10.0
71.139,-5.671,6.77,8.0
70.902,-5.631,6.348,7.0
73.373,-5.805,6.157,24.0
74.632,-5.883,5.836,8.0
70.932,-5.572,5.148,10.0
67.973,-5.32,4.553,35.0
70.883,-5.55,6.745,9.0
68.028,-5.306,6.089,11.0
68.002,-5.284,5.704,72.0
67.981,-5.262,5.313,82.0
67.988,-5.244,4.932,69.0
71.152,-5.468,4.762,9.0
68.024,-5.228,6.468,34.0
68.012,-5.206,6.083,14.0
70.491,-5.376,5.907,17.0
77.683,-5.901,6.065,5.0
74.628,-5.648,5.406,8.0
71.887,-5.421,4.805,19.0
71.175,-5.367,6.76,13.0
71.01,-5.334,6.344,6.0
73.056,-5.465,6.114,10.0
73.517,-5.479,5.73,11.0
78.863,-5.855,5.703,15.0
75.751,-5.602,5.052,4.0
71.361,-5.278,6.768,7.0
70.805,-5.216,6.315,23.0
72.189,-5.296,6.03,6.0
74.467,-5.44,5.792,10.0
76.012,-5.531,5.484,11.0
78.501,-5.69,5.221,8.0
73.266,-5.31,6.935,11.0
71.06,-5.129,6.323,19.0
72.592,-5.218,6.048,11.0
74.096,-5.304,5.747,17.0
75.895,-5.41,5.459,7.0
76.344,-5.421,5.061,9.0
69.99,-4.968,6.608,6.0
0.0,0.0,0.0,0.0
72.406,-5.096,6.015,23.0
72.172,-5.058,5.58,22.0
72.135,-5.034,5.169,9.0
71.622,-4.978,4.728,28.0
69.604,-4.835,6.552,24.0
69.385,-4.799,6.137,8.0
72.334,-4.982,5.988,12.0
72.155,-4.949,5.557,16.0
72.017,-4.919,5.139,8.0
71.62,-4.871,4.706,30.0
69.668,-4.735,6.536,20.0
64.369,-4.356,5.673,30.0
72.835,-4.907,6.005,33.0
71.7,-4.81,5.497,12.0
72.047,-4.812,5.117,9.0
71.672,-4.767,4.685,19.0
69.914,-4.646,6.533,17.0
64.326,-4.255,5.645,38.0
0.0,0.0,0.0,0.0
73.964,-4.85,5.643,8.0
72.046,-4.703,5.089,8.0
72.014,-4.681,4.679,11.0
64.107,-4.163,5.965,32.0
64.093,-4.143,5.599,39.0
71.267,-4.585,5.819,24.0
73.755,-4.724,5.596,12.0
74.718,-4.764,5.245,5.0
71.48,-4.539,4.613,31.0
64.104,-4.066,5.936,35.0
63.969,-4.038,5.559,39.0
63.536,-3.992,5.159,30.0
72.732,-4.548,5.484,11.0
58.792,-3.66,4.099,27.0
58.818,-3.645,3.767,23.0
64.053,-3.964,5.899,31.0
63.696,-3.924,5.503,38.0
63.563,-3.897,5.129,38.0
58.78,-3.587,4.402,17.0
58.634,-3.561,4.058,32.0
58.746,-3.551,3.732,27.0
63.999,-3.864,5.86,36.0
63.419,-3.81,5.445,38.0
63.472,-3.795,5.087,30.0
58.768,-3.497,4.369,30.0
58.887,-3.487,4.043,32.0
58.662,-3.457,3.694,29.0
64.103,-3.772,5.833,26.0
63.391,-3.711,5.405,38.0
63.277,-3.686,5.034,38.0
58.814,-3.409,4.337,10.0
59.182,-3.414,4.027,29.0
58.795,-3.375,3.666,30.0
63.022,-3.611,5.695,39.0
63.186,-3.602,5.348,38.0
63.012,-3.574,4.973,37.0
64.64,-3.647,4.726,16.0
58.77,-3.3,3.961,32.0
58.651,-3.277,3.619,32.0
62.533,-3.487,5.609,34.0
63.064,-3.498,5.295,33.0
63.097,-3.481,4.936,29.0
58.7,-3.222,4.251,21.0
63.683,-3.478,4.248,12.0
58.519,-3.18,3.57,32.0
57.023,-3.092,5.075,21.0
58.443,-3.152,4.866,31.0
0.0,0.0,0.0,0.0
63.814,-3.406,4.575,26.0
58.448,-3.103,3.856,32.0
58.309,-3.079,3.514,32.0
56.969,-3.0,5.026,20.0
58.458,-3.063,4.822,32.0
56.951,-2.968,4.371,30.0
59.878,-3.104,4.247,29.0
58.274,-3.005,3.799,31.0
58.374,-2.994,3.473,27.0
60.181,-3.079,5.262,7.0
58.673,-2.985,4.793,33.0
56.74,-2.87,4.309,30.0
0.0,0.0,0.0,0.0
58.338,-2.919,3.756,31.0
58.312,-2.902,3.421,31.0
56.847,-2.821,4.923,23.0
58.593,-2.891,4.737,33.0
56.834,-2.789,4.268,29.0
59.85,-2.92,4.145,7.0
58.54,-2.841,3.719,31.0
58.231,-2.81,3.366,25.0
56.761,-2.73,4.866,23.0
44.133,-2.11,3.529,18.0
56.858,-2.703,4.219,27.0
0.0,0.0,0.0,0.0
58.181,-2.735,3.644,31.0
58.165,-2.719,3.31,22.0
44.06,-2.052,3.736,33.0
44.129,-2.043,3.487,42.0
58.844,-2.708,4.312,11.0
58.193,-2.663,3.924,15.0
58.292,-2.652,3.595,22.0
67.289,-3.043,3.764,6.0
44.13,-1.988,3.699,39.0
44.181,-1.979,3.449,45.0
44.436,-1.978,3.212,19.0
0.0,0.0,0.0,0.0
58.277,-2.564,3.537,19.0
67.149,-2.937,3.69,26.0
44.16,-1.924,3.657,34.0
44.201,-1.913,3.406,32.0
44.38,-1.91,3.164,35.0
57.135,-2.443,3.738,24.0
0.0,0.0,0.0,0.0
59.866,-2.529,3.229,27.0
55.204,-2.323,4.514,6.0
44.167,-1.847,3.357,44.0
44.391,-1.845,3.118,45.0
57.453,-2.372,3.698,32.0
59.773,-2.453,3.504,31.0
59.794,-2.438,3.161,17.0
44.051,-1.788,3.554,38.0
44.11,-1.779,3.304,46.0
44.358,-1.777,3.067,27.0
57.913,-2.305,3.664,32.0
59.684,-2.361,3.432,33.0
66.34,-2.608,3.434,6.0
44.034,-1.722,3.504,37.0
44.153,-1.716,3.258,44.0
44.339,-1.712,3.016,51.0
58.061,-2.227,3.608,32.0
59.662,-2.274,3.363,26.0
80.996,-3.067,4.1,14.0
44.291,-1.668,3.473,37.0
44.16,-1.652,3.207,43.0
0.0,0.0,0.0,0.0
0.0,0.0,0.0,0.0
66.361,-2.433,3.663,28.0
81.118,-2.954,4.01,27.0
44.143,-1.599,3.408,46.0
44.181,-1.589,3.155,47.0
57.57,-2.057,3.778,10.0
59.929,-2.127,3.581,34.0
66.384,-2.339,3.583,25.0
81.119,-2.839,3.911,14.0
44.208,-1.538,3.358,42.0
0.0,0.0,0.0,0.0
57.882,-1.986,3.726,23.0
66.035,-2.249,3.862,26.0
66.62,-2.254,3.512,22.0
94.459,-3.173,4.435,22.0
44.164,-1.474,3.298,46.0
45.827,-1.518,3.157,17.0
57.131,-1.879,3.604,19.0
66.077,-2.158,3.78,41.0
80.378,-2.607,4.134,21.0
81.365,-2.62,3.715,17.0
44.264,-1.416,3.247,32.0
56.749,-1.801,3.834,19.0
56.999,-1.796,3.521,30.0
65.722,-2.056,3.673,32.0
80.809,-2.509,4.048,42.0
81.296,-2.505,3.604,22.0
46.193,-1.414,3.327,21.0
57.002,-1.731,3.774,24.0
56.901,-1.715,3.438,30.0
66.051,-1.975,3.601,30.0
81.137,-2.409,3.954,25.0
94.672,-2.79,4.068,16.0
45.998,-1.345,3.249,9.0
56.891,-1.651,3.688,30.0
57.103,-1.644,3.371,25.0
85.402,-2.439,4.537,14.0
81.157,-2.299,3.841,33.0
94.653,-2.662,3.933,13.0
46.018,-1.284,3.185,12.0
51.759,-1.433,3.281,25.0
65.692,-1.803,3.784,9.0
81.468,-2.218,4.211,10.0
81.504,-2.202,3.741,15.0
101.723,-2.727,4.081,8.0
57.104,-1.517,3.869,10.0
51.568,-1.359,3.194,24.0
78.619,-2.054,4.412,21.0
74.057,-1.919,3.719,12.0
81.934,-2.105,3.639,17.0
96.726,-2.465,3.737,8.0
51.423,-1.299,3.406,35.0
51.659,-1.294,3.121,20.0
74.189,-1.842,4.052,32.0
81.278,-2.001,3.959,17.0
96.753,-2.362,4.152,8.0
106.288,-2.573,3.945,15.0
51.344,-1.231,3.323,37.0
61.234,-1.455,3.606,7.0
74.194,-1.747,3.938,39.0
81.031,-1.891,3.821,32.0
96.42,-2.231,3.989,15.0
113.381,-2.601,4.033,20.0
51.328,-1.165,3.241,37.0
61.191,-1.377,3.508,8.0
74.522,-1.662,3.839,9.0
94.652,-2.092,4.316,10.0
96.697,-2.118,3.849,13.0
113.107,-2.454,3.845,22.0
61.132,-1.313,3.763,8.0
73.81,-1.57,4.113,23.0
81.772,-1.723,4.08,10.0
95.374,-1.991,4.196,21.0
113.327,-2.344,4.328,10.0
112.615,-2.306,3.646,25.0
61.176,-1.239,3.666,35.0
73.44,-1.473,3.973,19.0
81.551,-1.62,3.937,11.0
95.812,-1.884,4.058,7.0
112.728,-2.196,4.121,16.0
113.242,-2.184,3.482,20.0
61.203,-1.166,3.566,21.0
81.798,-1.543,4.288,24.0
81.621,-1.524,3.804,26.0
106.747,-1.974,4.344,19.0
112.72,-2.063,3.931,25.0
113.061,-2.048,3.286,18.0
61.128,-1.093,3.458,19.0
81.963,-1.451,4.158,22.0
95.319,-1.67,4.281,15.0
106.515,-1.846,4.152,13.0
112.878,-1.937,3.746,7.0
112.666,-1.913,3.084,21.0
81.531,-1.366,4.473,13.0
81.224,-1.346,3.983,28.0
106.514,-1.747,4.602,7.0
112.849,-1.831,4.208,8.0
0.0,0.0,0.0,0.0
112.896,-1.792,2.896,1.0
73.426,-1.149,3.902,7.0
81.175,-1.257,3.84,17.0
112.064,-1.716,4.649,13.0
190.517,-2.884,6.775,18.0
112.7,-1.686,3.351,2.0
206.189,-3.051,4.932,17.0
81.632,-1.19,4.194,11.0
81.348,-1.171,3.704,13.0
112.306,-1.598,4.459,7.0
0.0,0.0,0.0,0.0
113.379,-1.576,3.17,2.0
210.535,-2.891,4.66,5.0
81.282,-1.099,4.029,12.0
85.006,-1.135,3.718,7.0
190.475,-2.513,7.221,51.0
210.017,-2.736,6.716,10.0
206.239,-2.653,5.394,5.0
0.0,0.0,0.0,0.0
81.215,-1.014,3.878,11.0
112.143,-1.382,4.699,8.0
190.512,-2.319,6.875,22.0
209.733,-2.519,6.323,10.0
208.86,-2.477,5.08,8.0
204.42,-2.391,3.78,5.0
80.726,-0.927,3.705,3.0
189.868,-2.152,7.606,47.0
210.547,-2.353,7.204,16.0
209.816,-2.313,5.935,6.0
119.744,-1.302,2.69,61.0
119.739,-1.285,1.993,151.0
95.553,-1.006,4.207,19.0
190.473,-1.976,7.275,44.0
210.755,-2.154,6.818,14.0
119.715,-1.206,3.162,150.0
119.724,-1.188,2.464,150.0
119.735,-1.171,1.768,150.0
189.77,-1.82,7.996,56.0
190.643,-1.801,6.92,22.0
210.638,-1.959,6.416,19.0
119.714,-1.096,2.935,119.0
119.742,-1.079,2.238,86.0
119.709,-1.063,1.541,22.0
189.843,-1.65,7.639,37.0
0.0,0.0,0.0,0.0
119.714,-1.006,3.417,79.0
119.753,-0.991,2.708,76.0
119.741,-0.974,2.009,37.0
119.728,-0.958,1.312,16.0
190.515,-1.49,7.297,42.0
215.308,-1.655,6.989,8.0
119.779,-0.905,3.19,16.0
194.001,-1.439,4.013,23.0
119.765,-0.873,1.779,26.0
119.699,-0.856,1.079,15.0
190.567,-1.33,6.928,21.0
205.93,-1.41,6.281,6.0
119.769,-0.804,2.952,20.0
119.788,-0.789,2.24,7.0
119.69,-0.773,1.542,16.0
114.154,-0.723,0.804,6.0
215.734,-1.332,7.417,6.0
207.811,-1.257,5.93,9.0
119.834,-0.71,2.718,97.0
119.822,-0.694,2.005,28.0
119.711,-0.68,1.305,16.0
110.968,-0.617,0.563,2.0
206.779,-1.117,6.697,7.0
119.78,-0.633,3.179,23.0
193.913,-1.002,4.016,19.0
119.765,-0.604,1.767,22.0
119.75,-0.59,1.067,12.0
95.016,-0.457,0.291,1.0
206.128,-0.961,6.263,5.0
119.807,-0.544,2.939,28.0
119.81,-0.531,2.239,12.0
119.676,-0.517,1.525,17.0
111.016,-0.467,0.767,5.0
0.0,0.0,0.0,0.0
194.279,-0.768,5.507,19.0
119.819,-0.46,2.696,18.0
119.845,-0.448,1.996,150.0
119.677,-0.434,1.281,15.0
103.111,-0.363,0.5,1.0
0.0,0.0,0.0,0.0
119.801,-0.394,3.153,25.0
119.816,-0.381,2.451,87.0
0.0,0.0,0.0,0.0
114.441,-0.34,0.992,150.0
0.0,0.0,0.0,0.0
0.0,0.0,0.0,0.0
119.856,-0.317,2.908,10.0
119.916,-0.305,2.207,2.0
119.681,-0.293,1.502,6.0
110.844,-0.261,0.733,12.0
0.0,0.0,0.0,0.0
0.0,0.0,0.0,0.0
119.824,-0.245,2.659,8.0
114.58,-0.224,1.873,7.0
117.475,-0.219,1.232,9.0
99.56,-0.176,0.451,1.0
0.0,0.0,0.0,0.0
45.344,-0.072,-0.323,0.0
114.912,-0.171,2.314,5.0
111.007,-0.155,1.585,6.0
111.299,-0.146,0.938,7.0
0.0,0.0,0.0,0.0
0.0,0.0,0.0,0.0
44.98,-0.047,-0.414,1.0
113.998,-0.109,2.056,9.0
111.137,-0.098,1.356,12.0
110.709,-0.088,0.702,7.0
0.0,0.0,0.0,0.0
0.0,0.0,0.0,0.0
41.254,-0.022,-0.466,0.0
111.209,-0.052,1.772,9.0
117.211,-0.046,1.182,7.0
0.0,0.0,0.0,0.0
0.0,0.0,0.0,0.0
45.816,-0.007,-0.347,1.0
0.0,0.0,0.0,0.0
111.139,-0.001,1.534,14.0
110.9,0.007,0.881,10.0
0.0,0.0,0.0,0.0
0.0,0.0,0.0,0.0
44.982,0.012,-0.435,1.0
35.258,0.011,-0.547,0.0
111.189,0.044,1.302,20.0
103.672,0.048,0.608,6.0
0.0,0.0,0.0,0.0
0.0,0.0,0.0,0.0
39.798,0.026,-0.468,0.0
32.312,0.023,-0.569,0.0
111.16,0.086,1.067,7.0
0.0,0.0,0.0,0.0
0.0,0.0,0.0,0.0
45.518,0.043,-0.366,1.0
0.0,0.0,0.0,0.0
30.151,0.032,-0.595,0.0
110.732,0.124,0.829,9.0
0.0,0.0,0.0,0.0
0.0,0.0,0.0,0.0
42.783,0.055,-0.435,1.0
34.144,0.045,-0.547,0.0
0.0,0.0,0.0,0.0
100.806,0.144,0.539,1.0
0.0,0.0,0.0,0.0
50.048,0.076,-0.317,0.0
0.0,0.0,0.0,0.0
31.435,0.051,-0.57,0.0
26.335,0.044,-0.632,0.0
93.077,0.158,0.3,3.0
0.0,0.0,0.0,0.0
44.792,0.08,-0.379,1.0
35.704,0.065,-0.515,0.0
29.76,0.055,-0.603,0.0
25.037,0.048,-0.654,0.0
0.0,0.0,0.0,0.0
52.678,0.103,-0.25,0.0
42.901,0.086,-0.454,0.0
33.818,0.069,-0.56,0.0
0.0,0.0,0.0,0.0
23.776,0.05,-0.672,0.0
0.0,0.0,0.0,0.0
0.0,0.0,0.0,0.0
38.274,0.083,-0.488,0.0
30.8,0.068,-0.575,0.0
26.149,0.059,-0.642,0.0
22.717,0.052,-0.691,0.0
0.0,0.0,0.0,0.0
42.92,0.099,-0.387,0.0
34.404,0.08,-0.512,0.0
29.02,0.068,-0.604,0.0
24.834,0.059,-0.663,0.0
21.821,0.052,-0.71,0.0
52.837,0.126,-0.28,0.0
0.0,0.0,0.0,0.0
33.773,0.082,-0.574,0.0
0.0,0.0,0.0,0.0
23.842,0.059,-0.687,0.0
20.882,0.052,-0.724,0.0
46.449,0.115,-0.346,0.0
37.211,0.092,-0.494,0.0
0.0,0.0,0.0,0.0
26.147,0.066,-0.656,0.0
22.49,0.057,-0.696,0.0
20.007,0.051,-0.736,0.0
42.849,0.107,-0.41,1.0
34.107,0.086,-0.526,0.0
0.0,0.0,0.0,0.0
24.539,0.062,-0.668,0.0
21.611,0.055,-0.715,0.0
19.132,0.049,-0.745,0.0
0.0,0.0,0.0,0.0
0.0,0.0,0.0,0.0
0.0,0.0,0.0,0.0
23.391,0.059,-0.686,0.0
20.653,0.052,-0.727,0.0
18.473,0.047,-0.758,0.0
35.934,0.089,-0.495,0.0
29.987,0.074,-0.589,0.0
26.072,0.065,-0.665,0.0
22.297,0.055,-0.701,0.0
19.75,0.049,-0.737,0.0
17.897,0.044,-0.772,0.0
34.011,0.082,-0.54,0.0
28.136,0.067,-0.612,0.0
24.225,0.058,-0.668,0.0
21.283,0.051,-0.714,0.0
18.958,0.045,-0.747,0.0
17.207,0.041,-0.779,0.0
31.123,0.071,-0.56,0.0
26.58,0.061,-0.633,0.0
23.107,0.053,-0.686,0.0
20.311,0.046,-0.724,0.0
18.369,0.041,-0.762,0.0
16.677,0.037,-0.79,0.0
29.468,0.063,-0.591,0.0
0.0,0.0,0.0,0.0
22.286,0.047,-0.708,0.0
19.618,0.041,-0.74,0.0
17.68,0.037,-0.77,0.0
16.021,0.033,-0.792,0.0
27.673,0.054,-0.613,0.0
23.952,0.047,-0.67,0.0
21.129,0.041,-0.715,0.0
18.669,0.035,-0.742,0.0
17.059,0.032,-0.778,0.0
15.594,0.029,-0.803,0.0
26.124,0.046,-0.632,0.0
22.945,0.039,-0.689,0.0
20.32,0.034,-0.729,0.0
18.27,0.03,-0.765,0.0
16.548,0.027,-0.789,0.0
15.163,0.024,-0.812,0.0
24.809,0.037,-0.651,0.0
22.018,0.032,-0.706,0.0
19.461,0.028,-0.738,0.0
17.605,0.025,-0.773,0.0
16.05,0.022,-0.798,0.0
14.659,0.019,-0.815,0.0
23.669,0.028,-0.67,0.0
21.049,0.024,-0.718,0.0
18.595,0.021,-0.743,0.0
16.918,0.018,-0.777,0.0
15.361,0.016,-0.795,0.0
14.279,0.014,-0.823,0.0
22.709,0.02,-0.688,0.0
19.974,0.017,-0.722,0.0
18.153,0.014,-0.763,0.0
16.42,0.012,-0.787,0.0
15.069,0.011,-0.811,0.0
13.89,0.009,-0.829,0.0
21.552,0.011,-0.697,0.0
19.407,0.009,-0.741,0.0
17.531,0.007,-0.772,0.0
15.987,0.006,-0.799,0.0
14.578,0.005,-0.814,0.0
13.562,0.003,-0.837,0.0
20.903,0.002,-0.718,0.0
18.65,0.001,-0.749,0.0
16.916,0.0,-0.779,0.0
15.335,0.0,-0.797,0.0
14.276,-0.001,-0.826,0.0
13.251,-0.001,-0.844,0.0
19.995,-0.006,-0.726,0.0
17.919,-0.006,-0.756,0.0
16.42,-0.006,-0.788,0.0
15.0,-0.007,-0.809,0.0
13.852,-0.007,-0.829,0.0
12.931,-0.007,-0.849,0.0
19.303,-0.014,-0.739,0.0
17.571,-0.014,-0.775,0.0
15.891,-0.014,-0.794,0.0
14.555,-0.013,-0.814,0.0
13.504,-0.013,-0.834,0.0
12.536,-0.013,-0.848,0.0
18.577,-0.023,-0.747,0.0
16.943,-0.022,-0.78,0.0
15.387,-0.021,-0.799,0.0
14.184,-0.02,-0.821,0.0
13.192,-0.02,-0.841,0.0
12.188,-0.019,-0.848,0.0
17.838,-0.032,-0.752,0.0
16.42,-0.03,-0.788,0.0
15.021,-0.029,-0.809,0.0
13.845,-0.028,-0.828,0.0
12.854,-0.026,-0.844,0.0
11.827,-0.025,-0.846,0.0
17.545,-0.041,-0.773,0.0
15.897,-0.039,-0.793,0.0
14.571,-0.036,-0.812,0.0
13.509,-0.035,-0.833,0.0
12.502,-0.033,-0.845,0.0
11.58,-0.032,-0.85,0.0
16.908,-0.05,-0.777,0.0
15.461,-0.047,-0.801,0.0
14.282,-0.045,-0.823,0.0
13.249,-0.042,-0.842,0.0
12.203,-0.04,-0.847,0.0
11.381,-0.038,-0.857,0.0
16.492,-0.059,-0.789,0.0
15.055,-0.055,-0.808,0.0
13.943,-0.052,-0.829,0.0
12.881,-0.05,-0.843,0.0
11.868,-0.047,-0.846,0.0
11.167,-0.045,-0.861,0.0
15.922,-0.068,-0.79,0.0
14.634,-0.064,-0.812,0.0
13.533,-0.06,-0.83,0.0
12.521,-0.057,-0.842,0.0
11.615,-0.054,-0.849,0.0
10.95,-0.052,-0.865,0.0
15.444,-0.077,-0.794,0.0
14.355,-0.072,-0.822,0.0
13.302,-0.068,-0.839,0.0
12.252,-0.064,-0.846,0.0
11.424,-0.061,-0.856,0.0
10.776,-0.059,-0.87,0.0
15.144,-0.086,-0.806,0.0
13.925,-0.08,-0.822,0.0
13.053,-0.077,-0.847,0.0
11.96,-0.071,-0.847,0.0
11.206,-0.068,-0.859,0.0
10.593,-0.065,-0.874,0.0
14.789,-0.095,-0.812,0.0
13.633,-0.089,-0.828,0.0
12.636,-0.084,-0.842,0.0
11.685,-0.079,-0.848,0.0
10.974,-0.075,-0.86,0.0
10.416,-0.072,-0.877,0.0
14.469,-0.104,-0.82,0.0
13.399,-0.098,-0.837,0.0
12.354,-0.092,-0.844,0.0
11.461,-0.086,-0.851,0.0
10.847,-0.083,-0.869,0.0
10.288,-0.08,-0.885,0.0
14.111,-0.113,-0.824,0.0
13.123,-0.107,-0.842,0.0
12.057,-0.1,-0.844,0.0
11.3,-0.095,-0.858,0.0
10.629,-0.09,-0.87,0.0
10.134,-0.087,-0.888,0.0
13.738,-0.122,-0.825,0.0
12.728,-0.115,-0.838,0.0
11.775,-0.107,-0.844,0.0
11.081,-0.102,-0.86,0.0
10.462,-0.098,-0.873,0.0
10.002,-0.095,-0.894,0.0
13.463,-0.131,-0.83,0.0
12.484,-0.123,-0.843,0.0
11.566,-0.116,-0.848,0.0
10.934,-0.111,-0.867,0.0
10.321,-0.106,-0.878,0.0
9.834,-0.102,-0.895,0.0
13.306,-0.142,-0.842,0.0
12.246,-0.132,-0.846,0.0
11.429,-0.125,-0.856,0.0
10.765,-0.119,-0.87,0.0
10.216,-0.114,-0.886,0.0
9.702,-0.11,-0.898,0.0
13.003,-0.15,-0.843,0.0
11.927,-0.14,-0.843,0.0
11.192,-0.132,-0.856,0.0
10.607,-0.127,-0.874,0.0
10.084,-0.122,-0.89,0.0
9.561,-0.117,-0.9,0.0
12.658,-0.159,-0.84,0.0
11.687,-0.148,-0.844,0.0
11.06,-0.142,-0.863,0.0
10.436,-0.135,-0.876,0.0
9.913,-0.13,-0.89,0.0
9.443,-0.125,-0.903,0.0
12.446,-0.168,-0.845,0.0
11.54,-0.157,-0.85,0.0
10.919,-0.15,-0.868,0.0
10.327,-0.144,-0.882,0.0
9.804,-0.138,-0.895,0.0
9.328,-0.133,-0.906,0.0
12.196,-0.177,-0.846,0.0
11.356,-0.166,-0.854,0.0
10.756,-0.159,-0.871,0.0
10.199,-0.152,-0.886,0.0
9.698,-0.146,-0.899,0.0
9.225,-0.14,-0.909,0.0
11.894,-0.184,-0.842,0.0
11.191,-0.175,-0.857,0.0
10.581,-0.167,-0.872,0.0
10.044,-0.16,-0.887,0.0
9.574,-0.154,-0.902,0.0
9.109,-0.148,-0.911,0.0
11.699,-0.194,-0.845,0.0
11.047,-0.185,-0.862,0.0
10.428,-0.176,-0.874,0.0
9.898,-0.168,-0.888,0.0
9.461,-0.163,-0.904,0.0
9.033,-0.157,-0.916,0.0
11.551,-0.203,-0.85,0.0
10.921,-0.194,-0.867,0.0
10.349,-0.186,-0.881,0.0
9.823,-0.178,-0.895,0.0
9.339,-0.171,-0.905,0.0
8.909,-0.164,-0.915,0.0
11.408,-0.213,-0.854,0.0
10.784,-0.203,-0.87,0.0
10.226,-0.195,-0.884,0.0
9.681,-0.186,-0.895,0.0
9.25,-0.179,-0.909,0.0
8.807,-0.172,-0.917,0.0
11.236,-0.223,-0.856,0.0
10.623,-0.212,-0.871,0.0
10.117,-0.204,-0.888,0.0
9.607,-0.195,-0.9,0.0
9.116,-0.187,-0.907,0.0
8.697,-0.18,-0.916,0.0
11.114,-0.233,-0.861,0.0
10.491,-0.221,-0.873,0.0
9.959,-0.212,-0.886,0.0
9.458,-0.203,-0.898,0.0
9.048,-0.196,-0.912,0.0
8.632,-0.188,-0.92,0.0
10.982,-0.242,-0.864,0.0
10.383,-0.231,-0.877,0.0
9.893,-0.222,-0.893,0.0
9.37,-0.212,-0.901,0.0
8.994,-0.205,-0.917,0.0
8.513,-0.196,-0.917,0.0
10.874,-0.253,-0.868,0.0
10.293,-0.241,-0.881,0.0
9.758,-0.23,-0.892,0.0
9.265,-0.22,-0.902,0.0
8.873,-0.213,-0.915,0.0
8.47,-0.205,-0.923,0.0
10.71,-0.261,-0.867,0.0
10.202,-0.251,-0.885,0.0
9.653,-0.239,-0.893,0.0
9.237,-0.231,-0.909,0.0
8.792,-0.221,-0.916,0.0
8.398,-0.213,-0.924,0.0
10.601,-0.271,-0.87,0.0
10.084,-0.26,-0.886,0.0
9.575,-0.249,-0.896,0.0
9.158,-0.24,-0.911,0.0
8.741,-0.231,-0.921,0.0
8.354,-0.222,-0.928,0.0
10.498,-0.282,-0.873,0.0
9.963,-0.269,-0.886,0.0
9.455,-0.257,-0.895,0.0
9.065,-0.248,-0.912,0.0
8.704,-0.24,-0.926,0.0
8.263,-0.23,-0.927,0.0
10.392,-0.291,-0.875,0.0
9.844,-0.278,-0.885,0.0
9.387,-0.267,-0.898,0.0
8.973,-0.257,-0.911,0.0
8.585,-0.248,-0.922,0.0
8.187,-0.238,-0.926,0.0
10.318,-0.302,-0.878,0.0
9.808,-0.289,-0.891,0.0
9.3,-0.276,-0.899,0.0
8.923,-0.266,-0.915,0.0
8.483,-0.255,-0.919,0.0
8.169,-0.247,-0.932,0.0
10.243,-0.312,-0.881,0.0
9.77,-0.3,-0.897,0.0
9.185,-0.284,-0.896,0.0
8.886,-0.276,-0.919,0.0
8.421,-0.264,-0.92,0.0
8.059,-0.254,-0.927,0.0
10.158,-0.322,-0.883,0.0
9.697,-0.31,-0.899,0.0
9.197,-0.296,-0.905,0.0
8.764,-0.284,-0.914,0.0
8.372,-0.273,-0.922,0.0
8.044,-0.264,-0.932,0.0
10.095,-0.333,-0.886,0.0
9.597,-0.319,-0.897,0.0
9.149,-0.306,-0.908,0.0
8.775,-0.295,-0.922,0.0
8.362,-0.283,-0.927,0.0
7.986,-0.272,-0.932,0.0
10.01,-0.343,-0.887,0.0
9.518,-0.328,-0.898,0.0
9.054,-0.314,-0.906,0.0
0.0,0.0,0.0,0.0
8.298,-0.291,-0.927,0.0
7.953,-0.281,-0.934,0.0
9.937,-0.353,-0.888,0.0
9.426,-0.337,-0.896,0.0
9.063,-0.326,-0.913,0.0
0.0,0.0,0.0,0.0
8.225,-0.299,-0.925,0.0
7.918,-0.29,-0.936,0.0
9.871,-0.363,-0.889,0.0
9.447,-0.35,-0.905,0.0
8.944,-0.333,-0.908,0.0
8.642,-0.324,-0.928,0.0
8.192,-0.309,-0.926,0.0
7.899,-0.3,-0.939,0.0
9.824,-0.374,-0.891,0.0
9.31,-0.357,-0.898,0.0
8.908,-0.343,-0.91,0.0
8.566,-0.332,-0.925,0.0
8.175,-0.319,-0.93,0.0
7.824,-0.307,-0.935,0.0
9.783,-0.385,-0.893,0.0
9.283,-0.368,-0.901,0.0
8.89,-0.354,-0.913,0.0
8.414,-0.337,-0.914,0.0
8.118,-0.327,-0.928,0.0
7.779,-0.315,-0.934,0.0
9.728,-0.395,-0.894,0.0
9.269,-0.379,-0.905,0.0
8.849,-0.364,-0.914,0.0
8.462,-0.35,-0.923,0.0
8.032,-0.334,-0.923,0.0
7.763,-0.325,-0.936,0.0
9.706,-0.407,-0.897,0.0
9.207,-0.388,-0.903,0.0
8.807,-0.373,-0.914,0.0
8.414,-0.359,-0.923,0.0
8.041,-0.345,-0.928,0.0
7.727,-0.333,-0.936,0.0
9.673,-0.418,-0.899,0.0
9.152,-0.398,-0.902,0.0
8.799,-0.385,-0.918,0.0
8.383,-0.368,-0.923,0.0
8.059,-0.356,-0.934,0.0
7.695,-0.342,-0.936,0.0
9.619,-0.428,-0.898,0.0
9.137,-0.409,-0.905,0.0
8.807,-0.396,-0.922,0.0
8.354,-0.378,-0.924,0.0
7.99,-0.363,-0.929,0.0
7.661,-0.35,-0.935,0.0
9.603,-0.44,-0.9,0.0
9.09,-0.419,-0.904,0.0
8.733,-0.404,-0.918,0.0
8.304,-0.386,-0.921,0.0
7.961,-0.372,-0.929,0.0
7.65,-0.36,-0.936,0.0
9.551,-0.45,-0.899,0.0
9.14,-0.433,-0.912,0.0
8.697,-0.414,-0.917,0.0
8.325,-0.398,-0.926,0.0
7.982,-0.384,-0.934,0.0
7.611,-0.368,-0.934,0.0
9.513,-0.46,-0.898,0.0
9.106,-0.443,-0.911,0.0
8.666,-0.423,-0.916,0.0
8.338,-0.409,-0.93,0.0
7.962,-0.393,-0.933,0.0
7.626,-0.378,-0.938,0.0
9.446,-0.469,-0.894,0.0
9.068,-0.453,-0.91,0.0
8.682,-0.435,-0.92,0.0
8.285,-0.417,-0.926,0.0
7.985,-0.404,-0.938,0.0
7.663,-0.39,-0.944,0.0
9.506,-0.484,-0.902,0.0
9.081,-0.465,-0.913,0.0
8.623,-0.443,-0.916,0.0
8.254,-0.426,-0.924,0.0
7.941,-0.412,-0.934,0.0
7.619,-0.397,-0.94,0.0
9.494,-0.496,-0.902,0.0
9.088,-0.477,-0.915,0.0
8.66,-0.456,-0.921,0.0
8.257,-0.437,-0.926,0.0
7.91,-0.421,-0.932,0.0
7.618,-0.407,-0.941,0.0
9.458,-0.506,-0.9,0.0
9.022,-0.484,-0.91,0.0
8.627,-0.465,-0.918,0.0
8.243,-0.447,-0.925,0.0
7.954,-0.433,-0.938,0.0
7.614,-0.416,-0.941,0.0
9.469,-0.518,-0.902,0.0
9.033,-0.496,-0.911,0.0
8.664,-0.478,-0.923,0.0
8.266,-0.458,-0.928,0.0
7.929,-0.441,-0.935,0.0
7.619,-0.426,-0.942,0.0
9.461,-0.529,-0.902,0.0
9.014,-0.507,-0.91,0.0
8.62,-0.486,-0.919,0.0
8.214,-0.466,-0.922,0.0
7.875,-0.448,-0.929,0.0
7.616,-0.435,-0.942,0.0
9.399,-0.537,-0.896,0.0
9.008,-0.517,-0.909,0.0
8.557,-0.493,-0.912,0.0
8.253,-0.478,-0.927,0.0
7.91,-0.46,-0.933,0.0
7.579,-0.443,-0.937,0.0
9.439,-0.551,-0.899,0.0
9.014,-0.529,-0.909,0.0
8.616,-0.507,-0.917,0.0
8.26,-0.488,-0.927,0.0
7.857,-0.467,-0.926,0.0
7.6,-0.453,-0.939,0.0
9.434,-0.562,-0.898,0.0
9.073,-0.543,-0.914,0.0
8.64,-0.519,-0.919,0.0
8.259,-0.498,-0.926,0.0
7.94,-0.481,-0.935,0.0
7.617,-0.463,-0.94,0.0
9.496,-0.577,-0.902,0.0
9.063,-0.553,-0.912,0.0
8.635,-0.529,-0.917,0.0
8.227,-0.506,-0.921,0.0
7.897,-0.488,-0.928,0.0
7.604,-0.472,-0.937,0.0
9.493,-0.588,-0.9,0.0
9.108,-0.567,-0.914,0.0
8.682,-0.542,-0.92,0.0
8.255,-0.518,-0.922,0.0
7.914,-0.498,-0.929,0.0
7.647,-0.483,-0.94,0.0
9.553,-0.603,-0.904,0.0
9.081,-0.576,-0.91,0.0
8.622,-0.548,-0.912,0.0
8.294,-0.53,-0.924,0.0
7.985,-0.512,-0.935,0.0
7.651,-0.492,-0.939,0.0
9.56,-0.615,-0.902,0.0
9.089,-0.586,-0.908,0.0
8.68,-0.562,-0.915,0.0
8.34,-0.542,-0.927,0.0
7.986,-0.521,-0.932,0.0
7.64,-0.5,-0.935,0.0
9.578,-0.627,-0.9,0.0
9.132,-0.599,-0.909,0.0
8.72,-0.574,-0.917,0.0
8.317,-0.55,-0.922,0.0
8.023,-0.532,-0.934,0.0
7.707,-0.513,-0.94,0.0
9.615,-0.64,-0.901,0.0
9.147,-0.61,-0.907,0.0
8.66,-0.58,-0.907,0.0
8.415,-0.566,-0.929,0.0
8.064,-0.544,-0.936,0.0
7.707,-0.522,-0.937,0.0
9.629,-0.651,-0.898,0.0
9.161,-0.621,-0.905,0.0
8.814,-0.6,-0.92,0.0
8.373,-0.572,-0.921,0.0
8.033,-0.55,-0.929,0.0
7.746,-0.532,-0.939,0.0
9.658,-0.663,-0.897,0.0
9.216,-0.635,-0.907,0.0
8.834,-0.61,-0.918,0.0
8.458,-0.586,-0.927,0.0
8.105,-0.564,-0.933,0.0
7.775,-0.542,-0.939,0.0
9.719,-0.677,-0.898,0.0
9.258,-0.647,-0.906,0.0
8.906,-0.624,-0.921,0.0
0.0,0.0,0.0,0.0
8.104,-0.572,-0.929,0.0
7.802,-0.552,-0.938,0.0
9.745,-0.689,-0.895,0.0
9.315,-0.661,-0.907,0.0
8.888,-0.632,-0.914,0.0
0.0,0.0,0.0,0.0
8.193,-0.586,-0.935,0.0
7.863,-0.565,-0.941,0.0
9.787,-0.702,-0.893,0.0
9.319,-0.67,-0.902,0.0
8.935,-0.644,-0.914,0.0
0.0,0.0,0.0,0.0
8.224,-0.597,-0.933,0.0
7.846,-0.571,-0.934,0.0
9.888,-0.719,-0.897,0.0
9.404,-0.685,-0.904,0.0
8.973,-0.656,-0.912,0.0
0.0,0.0,0.0,0.0
8.229,-0.605,-0.929,0.0
7.875,-0.581,-0.932,0.0
9.899,-0.728,-0.891,0.0
9.43,-0.696,-0.901,0.0
8.956,-0.663,-0.905,0.0
0.0,0.0,0.0,0.0
8.302,-0.618,-0.931,0.0
7.937,-0.592,-0.934,0.0
9.982,-0.744,-0.892,0.0
9.529,-0.712,-0.904,0.0
9.117,-0.683,-0.915,0.0
0.0,0.0,0.0,0.0
8.337,-0.628,-0.929,0.0
7.99,-0.603,-0.935,0.0
10.048,-0.758,-0.891,0.0
9.561,-0.723,-0.9,0.0
9.086,-0.689,-0.905,0.0
8.782,-0.667,-0.924,0.0
8.325,-0.634,-0.922,0.0
8.005,-0.611,-0.931,0.0
10.145,-0.773,-0.892,0.0
9.636,-0.737,-0.9,0.0
9.132,-0.7,-0.903,0.0
8.813,-0.677,-0.921,0.0
8.443,-0.65,-0.928,0.0
8.09,-0.625,-0.934,0.0
10.213,-0.787,-0.89,0.0
9.72,-0.751,-0.9,0.0
9.307,-0.721,-0.913,0.0
8.82,-0.685,-0.914,0.0
8.481,-0.66,-0.926,0.0
8.117,-0.633,-0.93,0.0
10.273,-0.8,-0.887,0.0
9.782,-0.764,-0.898,0.0
9.303,-0.728,-0.905,0.0
8.904,-0.698,-0.915,0.0
8.502,-0.668,-0.921,0.0
8.2,-0.646,-0.933,0.0
10.37,-0.815,-0.886,0.0
9.835,-0.775,-0.894,0.0
9.385,-0.741,-0.904,0.0
9.009,-0.713,-0.918,0.0
8.605,-0.683,-0.924,0.0
8.216,-0.653,-0.927,0.0
10.454,-0.83,-0.884,0.0
9.949,-0.791,-0.896,0.0
9.462,-0.754,-0.903,0.0
9.097,-0.727,-0.919,0.0
8.71,-0.697,-0.927,0.0
8.284,-0.665,-0.927,0.0
10.558,-0.845,-0.883,0.0
10.019,-0.804,-0.893,0.0
9.58,-0.77,-0.906,0.0
9.096,-0.733,-0.91,0.0
8.692,-0.702,-0.917,0.0
8.342,-0.675,-0.926,0.0
10.687,-0.863,-0.884,0.0
10.144,-0.821,-0.894,0.0
9.671,-0.784,-0.905,0.0
9.199,-0.747,-0.912,0.0
8.783,-0.715,-0.918,0.0
8.382,-0.683,-0.922,0.0
10.792,-0.878,-0.882,0.0
10.22,-0.833,-0.891,0.0
9.72,-0.794,-0.9,0.0
9.239,-0.756,-0.906,0.0
8.879,-0.728,-0.919,0.0
8.488,-0.697,-0.925,0.0
10.899,-0.893,-0.88,0.0
10.325,-0.848,-0.889,0.0
9.793,-0.806,-0.896,0.0
9.359,-0.771,-0.908,0.0
8.968,-0.74,-0.919,0.0
8.565,-0.708,-0.924,0.0
11.017,-0.909,-0.878,0.0
10.428,-0.862,-0.887,0.0
9.928,-0.822,-0.898,0.0
9.396,-0.779,-0.902,0.0
9.021,-0.75,-0.915,0.0
8.661,-0.721,-0.925,0.0
11.135,-0.925,-0.875,0.0
10.558,-0.878,-0.887,0.0
10.016,-0.835,-0.895,0.0
9.543,-0.797,-0.906,0.0
9.131,-0.763,-0.916,0.0
8.713,-0.73,-0.921,0.0
11.234,-0.939,-0.871,0.0
10.678,-0.894,-0.885,0.0
10.12,-0.848,-0.893,0.0
9.653,-0.81,-0.905,0.0
9.187,-0.772,-0.911,0.0
8.793,-0.74,-0.92,0.0
11.409,-0.959,-0.871,0.0
10.811,-0.91,-0.884,0.0
10.249,-0.863,-0.893,0.0
9.733,-0.821,-0.901,0.0
9.332,-0.789,-0.915,0.0
8.888,-0.752,-0.919,0.0
11.545,-0.975,-0.868,0.0
10.944,-0.925,-0.882,0.0
10.356,-0.877,-0.89,0.0
9.822,-0.833,-0.898,0.0
9.399,-0.798,-0.91,0.0
8.959,-0.762,-0.916,0.0
11.704,-0.993,-0.867,0.0
11.082,-0.941,-0.88,0.0
10.474,-0.89,-0.888,0.0
9.964,-0.848,-0.899,0.0
9.537,-0.813,-0.912,0.0
9.091,-0.776,-0.918,0.0
11.863,-1.01,-0.864,0.0
11.188,-0.954,-0.875,0.0
10.621,-0.906,-0.887,0.0
10.077,-0.861,-0.897,0.0
9.607,-0.822,-0.907,0.0
9.132,-0.782,-0.911,0.0
12.074,-1.032,-0.865,0.0
11.349,-0.971,-0.873,0.0
10.785,-0.923,-0.888,0.0
10.195,-0.874,-0.895,0.0
9.73,-0.835,-0.906,0.0
9.282,-0.797,-0.914,0.0
12.23,-1.048,-0.86,0.0
11.504,-0.987,-0.871,0.0
10.892,-0.935,-0.883,0.0
10.323,-0.887,-0.893,0.0
9.814,-0.844,-0.901,0.0
9.348,-0.805,-0.909,0.0
12.401,-1.066,-0.857,0.0
11.684,-1.005,-0.87,0.0
11.05,-0.951,-0.881,0.0
10.474,-0.902,-0.892,0.0
9.951,-0.858,-0.901,0.0
9.478,-0.818,-0.909,0.0
12.634,-1.088,-0.856,0.0
11.849,-1.021,-0.866,0.0
11.188,-0.965,-0.878,0.0
10.607,-0.915,-0.89,0.0
10.062,-0.869,-0.898,0.0
9.598,-0.83,-0.908,0.0
12.85,-1.108,-0.854,0.0
12.044,-1.039,-0.865,0.0
11.325,-0.978,-0.873,0.0
10.765,-0.93,-0.889,0.0
10.22,-0.884,-0.898,0.0
9.719,-0.841,-0.906,0.0
13.019,-1.124,-0.848,0.0
12.247,-1.058,-0.863,0.0
11.528,-0.996,-0.874,0.0
10.896,-0.942,-0.885,0.0
10.329,-0.894,-0.894,0.0
9.813,-0.85,-0.902,0.0
13.388,-1.157,-0.854,0.0
12.401,-1.072,-0.857,0.0
11.678,-1.01,-0.869,0.0
11.061,-0.957,-0.883,0.0
10.472,-0.906,-0.892,0.0
9.953,-0.862,-0.901,0.0
13.537,-1.17,-0.845,0.0
12.604,-1.089,-0.854,0.0
11.878,-1.027,-0.868,0.0
11.202,-0.969,-0.879,0.0
10.647,-0.921,-0.892,0.0
10.088,-0.873,-0.899,0.0
13.778,-1.19,-0.841,0.0
12.856,-1.111,-0.853,0.0
12.101,-1.046,-0.867,0.0
11.373,-0.983,-0.877,0.0
10.785,-0.933,-0.889,0.0
10.236,-0.885,-0.898,0.0
13.98,-1.207,-0.834,0.0
13.022,-1.124,-0.846,0.0
12.269,-1.059,-0.862,0.0
11.546,-0.997,-0.874,0.0
10.942,-0.945,-0.886,0.0
10.368,-0.896,-0.895,0.0
14.279,-1.231,-0.832,0.0
13.375,-1.153,-0.85,0.0
12.452,-1.073,-0.857,0.0
11.738,-1.012,-0.872,0.0
11.111,-0.958,-0.884,0.0
10.524,-0.907,-0.894,0.0
14.535,-1.25,-0.827,0.0
13.653,-1.175,-0.849,0.0
12.719,-1.094,-0.858,0.0
11.901,-1.024,-0.867,0.0
11.248,-0.967,-0.879,0.0
10.702,-0.921,-0.893,0.0
14.839,-1.274,-0.823,0.0
13.834,-1.187,-0.84,0.0
12.974,-1.113,-0.856,0.0
12.152,-1.042,-0.868,0.0
11.441,-0.981,-0.878,0.0
10.834,-0.929,-0.889,0.0
15.109,-1.293,-0.816,0.0
14.013,-1.199,-0.831,0.0
13.142,-1.124,-0.848,0.0
12.317,-1.053,-0.862,0.0
11.613,-0.993,-0.874,0.0
11.002,-0.94,-0.886,0.0
15.386,-1.312,-0.809,0.0
14.415,-1.229,-0.833,0.0
13.476,-1.148,-0.85,0.0
12.503,-1.065,-0.856,0.0
11.805,-1.005,-0.871,0.0
11.136,-0.948,-0.881,0.0
15.844,-1.346,-0.809,0.0
14.639,-1.243,-0.825,0.0
13.737,-1.166,-0.847,0.0
12.828,-1.088,-0.86,0.0
12.044,-1.021,-0.871,0.0
11.33,-0.96,-0.879,0.0
16.096,-1.362,-0.799,0.0
14.933,-1.262,-0.82,0.0
13.892,-1.174,-0.836,0.0
13.007,-1.098,-0.853,0.0
12.237,-1.033,-0.867,0.0
11.513,-0.971,-0.876,0.0
16.559,-1.394,-0.797,0.0
15.239,-1.282,-0.814,0.0
14.237,-1.196,-0.835,0.0
13.343,-1.121,-0.855,0.0
12.425,-1.043,-0.862,0.0
11.682,-0.98,-0.872,0.0
16.753,-1.402,-0.782,0.0
15.555,-1.301,-0.808,0.0
14.466,-1.209,-0.828,0.0
13.562,-1.132,-0.849,0.0
12.532,-1.046,-0.851,0.0
11.911,-0.993,-0.871,0.0
17.244,-1.435,-0.78,0.0
15.905,-1.322,-0.803,0.0
14.815,-1.23,-0.826,0.0
13.756,-1.141,-0.841,0.0
12.964,-1.075,-0.861,0.0
12.145,-1.006,-0.87,0.0
17.74,-1.466,-0.776,0.0
16.458,-1.359,-0.806,0.0
15.131,-1.248,-0.821,0.0
14.039,-1.157,-0.837,0.0
13.184,-1.085,-0.856,0.0
12.323,-1.013,-0.865,0.0
17.966,-1.474,-0.759,0.0
16.804,-1.377,-0.798,0.0
15.43,-1.263,-0.814,0.0
14.359,-1.174,-0.835,0.0
13.481,-1.101,-0.855,0.0
12.49,-1.019,-0.858,0.0
18.701,-1.523,-0.762,0.0
17.118,-1.392,-0.788,0.0
15.794,-1.283,-0.81,0.0
14.622,-1.186,-0.828,0.0
13.677,-1.108,-0.847,0.0
12.708,-1.028,-0.854,0.0
19.059,-1.539,-0.748,0.0
17.55,-1.415,-0.781,0.0
16.03,-1.29,-0.798,0.0
14.949,-1.202,-0.824,0.0
13.966,-1.121,-0.844,0.0
13.114,-1.051,-0.861,0.0
19.892,-1.592,-0.752,0.0
17.877,-1.428,-0.769,0.0
16.52,-1.318,-0.798,0.0
15.231,-1.213,-0.817,0.0
14.238,-1.132,-0.839,0.0
13.314,-1.057,-0.854,0.0
20.481,-1.623,-0.743,0.0
18.267,-1.445,-0.759,0.0
16.883,-1.333,-0.79,0.0
15.63,-1.232,-0.815,0.0
14.516,-1.142,-0.833,0.0
13.581,-1.067,-0.851,0.0
21.001,-1.647,-0.731,0.0
18.905,-1.48,-0.757,0.0
17.43,-1.362,-0.79,0.0
15.979,-1.246,-0.81,0.0
14.832,-1.155,-0.83,0.0
13.762,-1.07,-0.842,0.0
21.759,-1.688,-0.726,0.0
19.425,-1.504,-0.75,0.0
17.73,-1.37,-0.778,0.0
16.41,-1.265,-0.807,0.0
15.101,-1.162,-0.823,0.0
14.044,-1.079,-0.839,0.0
22.192,-1.702,-0.708,0.0
0.0,0.0,0.0,0.0
18.039,-1.377,-0.765,0.0
16.664,-1.27,-0.796,0.0
15.324,-1.165,-0.812,0.0
14.381,-1.092,-0.838,0.0
23.005,-1.743,-0.7,0.0
20.698,-1.564,-0.739,0.0
18.671,-1.408,-0.764,0.0
17.133,-1.289,-0.793,0.0
15.648,-1.175,-0.807,0.0
14.629,-1.096,-0.831,0.0
0.0,0.0,0.0,0.0
21.141,-1.577,-0.724,0.0
19.017,-1.415,-0.751,0.0
17.439,-1.294,-0.782,0.0
16.029,-1.187,-0.803,0.0
14.966,-1.106,-0.829,0.0
24.525,-1.809,-0.675,0.0
21.818,-1.605,-0.715,0.0
19.647,-1.442,-0.748,0.0
17.873,-1.308,-0.776,0.0
16.568,-1.21,-0.807,0.0
15.198,-1.107,-0.82,0.0
25.535,-1.856,-0.667,0.0
22.672,-1.644,-0.711,0.0
19.716,-1.426,-0.722,2.0
18.327,-1.321,-0.769,0.0
16.848,-1.212,-0.796,0.0
15.513,-1.113,-0.815,0.0
26.175,-1.874,-0.646,0.0
23.065,-1.646,-0.691,0.0
20.229,-1.44,-0.712,0.0
18.881,-1.34,-0.766,0.0
17.266,-1.222,-0.791,0.0
15.951,-1.126,-0.815,0.0
0.0,0.0,0.0,0.0
24.024,-1.687,-0.685,0.0
21.534,-1.508,-0.728,0.0
19.653,-1.372,-0.77,1.0
17.659,-1.229,-0.784,0.0
16.316,-1.132,-0.811,0.0
29.006,-2.009,-0.635,0.0
0.0,0.0,0.0,0.0
22.178,-1.526,-0.719,0.0
19.788,-1.358,-0.747,2.0
18.113,-1.239,-0.78,0.0
16.623,-1.133,-0.803,0.0
20.081,-1.366,-0.412,7.0
20.098,-1.363,-0.518,3.0
20.13,-1.361,-0.625,0.0
19.989,-1.347,-0.727,2.0
18.472,-1.241,-0.77,0.0
20.14,-1.348,-0.945,0.0
20.074,-1.341,-0.384,27.0
20.095,-1.337,-0.49,24.0
20.126,-1.335,-0.597,20.0
20.112,-1.329,-0.705,12.0
19.978,-1.316,-0.805,2.0
20.125,-1.321,-0.917,0.0
20.058,-1.314,-0.357,28.0
20.074,-1.31,-0.463,32.0
20.107,-1.307,-0.569,29.0
20.089,-1.301,-0.677,16.0
19.877,-1.283,-0.775,1.0
20.144,-1.296,-0.891,0.0
20.061,-1.287,-0.33,29.0
20.086,-1.284,-0.436,29.0
20.11,-1.281,-0.543,27.0
20.108,-1.276,-0.651,19.0
19.888,-1.257,-0.749,2.0
18.083,-1.139,-0.776,0.0
20.07,-1.261,-0.304,24.0
20.102,-1.257,-0.41,27.0
20.101,-1.252,-0.516,9.0
20.069,-1.245,-0.623,0.0
19.967,-1.234,-0.726,3.0
18.346,-1.129,-0.764,0.0
19.982,-1.227,-0.277,14.0
19.998,-1.223,-0.382,26.0
19.983,-1.216,-0.487,151.0
19.977,-1.211,-0.595,150.0
19.945,-1.204,-0.699,16.0
19.924,-1.198,-0.804,2.0
19.991,-1.198,-0.251,151.0
19.984,-1.193,-0.356,150.0
19.983,-1.187,-0.462,150.0
19.982,-1.182,-0.57,150.0
19.982,-1.177,-0.675,33.0
19.792,-1.161,-0.774,1.0
20.029,-1.172,-0.227,74.0
19.991,-1.164,-0.332,5.0
19.998,-1.159,-0.438,2.0
19.995,-1.153,-0.545,0.0
22.301,-1.28,-0.726,0.0
19.921,-1.138,-0.754,2.0
0.0,0.0,0.0,0.0
0.0,0.0,0.0,0.0
30.087,-1.698,-0.622,0.0
25.717,-1.444,-0.67,0.0
23.177,-1.295,-0.726,0.0
19.918,-1.108,-0.73,2.0
0.0,0.0,0.0,0.0
0.0,0.0,0.0,0.0
0.0,0.0,0.0,0.0
26.348,-1.438,-0.654,0.0
23.584,-1.281,-0.711,2.0
20.084,-1.085,-0.711,5.0
20.02,-1.078,-0.153,14.0
41.2,-2.208,-0.535,0.0
20.024,-1.067,-0.365,0.0
20.045,-1.062,-0.474,14.0
20.074,-1.058,-0.581,24.0
20.06,-1.052,-0.687,14.0
19.995,-1.045,-0.13,27.0
20.033,-1.041,-0.236,26.0
20.031,-1.035,-0.342,21.0
20.033,-1.029,-0.451,28.0
20.057,-1.025,-0.558,31.0
20.069,-1.019,-0.664,17.0
19.972,-1.011,-0.107,35.0
19.992,-1.006,-0.213,29.0
20.002,-1.0,-0.319,27.0
20.034,-0.996,-0.428,28.0
20.08,-0.993,-0.536,23.0
20.087,-0.987,-0.642,0.0
19.994,-0.978,-0.085,26.0
19.989,-0.972,-0.191,30.0
20.02,-0.968,-0.297,25.0
20.037,-0.962,-0.406,25.0
20.067,-0.958,-0.513,7.0
23.083,-1.095,-0.713,0.0
20.017,-0.946,-0.063,14.0
19.999,-0.938,-0.169,18.0
20.017,-0.933,-0.275,18.0
20.038,-0.928,-0.384,5.0
26.864,-1.236,-0.658,0.0
0.0,0.0,0.0,0.0
0.0,0.0,0.0,0.0
46.745,-2.113,-0.346,2.0
20.01,-0.898,-0.254,0.0
33.242,-1.482,-0.603,0.0
27.638,-1.223,-0.648,0.0
23.929,-1.052,-0.688,0.0
0.0,0.0,0.0,0.0
0.0,0.0,0.0,0.0
0.0,0.0,0.0,0.0
33.724,-1.444,-0.577,0.0
0.0,0.0,0.0,0.0
24.956,-1.053,-0.693,0.0
119.764,-1.267,1.422,151.0
119.756,-1.226,0.773,84.0
0.0,0.0,0.0,0.0
54.324,-0.517,-0.243,0.0
0.0,0.0,0.0,0.0
35.507,-0.312,-0.544,0.0
119.694,-1.015,1.476,20.0
114.348,-0.929,0.79,8.0
0.0,0.0,0.0,0.0
0.0,0.0,0.0,0.0
0.0,0.0,0.0,0.0
0.0,0.0,0.0,0.0
119.711,-0.763,1.526,15.0
119.7,-0.719,0.876,6.0
95.299,-0.538,0.18,1.0
0.0,0.0,0.0,0.0
0.0,0.0,0.0,0.0
0.0,0.0,0.0,0.0
119.761,-0.508,1.573,15.0
119.705,-0.464,0.921,6.0
0.0,0.0,0.0,0.0
0.0,0.0,0.0,0.0
45.23,-0.126,-0.394,1.0
0.0,0.0,0.0,0.0
114.067,-0.238,1.538,1.0
117.304,-0.203,0.943,7.0
98.57,-0.135,0.256,1.0
0.0,0.0,0.0,0.0
45.582,-0.031,-0.383,1.0
0.0,0.0,0.0,0.0
111.114,0.005,1.533,14.0
0.0,0.0,0.0,0.0
0.0,0.0,0.0,0.0
0.0,0.0,0.0,0.0
46.185,0.067,-0.374,0.0
38.129,0.069,-0.517,0.0
119.8,0.26,1.685,11.0
111.073,0.28,0.956,12.0
94.779,0.274,0.298,3.0
0.0,0.0,0.0,0.0
49.903,0.179,-0.393,0.0
0.0,0.0,0.0,0.0
111.103,0.478,1.588,27.0
110.977,0.518,0.98,20.0
90.766,0.456,0.305,1.0
0.0,0.0,0.0,0.0
48.325,0.277,-0.37,0.0
0.0,0.0,0.0,0.0
0.0,0.0,0.0,0.0
104.86,0.717,0.946,18.0
90.552,0.65,0.321,4.0
0.0,0.0,0.0,0.0
48.79,0.384,-0.365,0.0
37.65,0.31,-0.488,0.0
104.723,0.906,1.534,30.0
98.635,0.886,0.905,18.0
85.424,0.798,0.315,4.0
0.0,0.0,0.0,0.0
0.0,0.0,0.0,0.0
41.054,0.427,-0.527,0.0
98.563,1.064,1.456,27.0
98.512,1.098,0.915,19.0
85.209,0.98,0.324,11.0
0.0,0.0,0.0,0.0
0.0,0.0,0.0,0.0
38.211,0.478,-0.487,0.0
98.509,1.275,1.463,30.0
98.586,1.31,0.923,23.0
85.115,1.161,0.329,7.0
0.0,0.0,0.0,0.0
0.0,0.0,0.0,0.0
0.0,0.0,0.0,0.0
91.99,1.386,1.37,27.0
91.91,1.417,0.864,28.0
81.067,1.279,0.316,3.0
0.0,0.0,0.0,0.0
0.0,0.0,0.0,0.0
39.241,0.659,-0.498,0.0
87.409,1.505,1.303,35.0
91.882,1.613,0.864,28.0
84.403,1.51,0.329,7.0
0.0,0.0,0.0,0.0
0.0,0.0,0.0,0.0
40.176,0.76,-0.511,0.0
99.42,1.922,1.479,6.0
85.442,1.682,0.8,23.0
78.218,1.567,0.301,5.0
69.769,1.422,-0.122,0.0
48.725,1.01,-0.354,0.0
39.797,0.838,-0.509,0.0
85.242,1.832,1.262,32.0
85.235,1.861,0.791,30.0
72.15,1.601,0.272,6.0
67.866,1.527,-0.125,4.0
48.793,1.114,-0.359,1.0
38.554,0.894,-0.496,0.0
85.275,2.015,1.253,31.0
85.24,2.042,0.782,22.0
72.01,1.75,0.263,9.0
66.057,1.628,-0.13,2.0
0.0,0.0,0.0,0.0
38.391,0.971,-0.5,0.0
78.937,2.033,1.149,4.0
78.888,2.058,0.712,17.0
71.864,1.898,0.251,17.0
64.474,1.725,-0.137,5.0
0.0,0.0,0.0,0.0
0.0,0.0,0.0,0.0
78.872,2.197,1.134,30.0
78.862,2.223,0.697,23.0
71.702,2.044,0.236,11.0
62.833,1.812,-0.146,5.0
0.0,0.0,0.0,0.0
37.82,1.116,-0.507,0.0
78.98,2.368,1.118,19.0
78.976,2.393,0.68,11.0
71.481,2.189,0.219,11.0
61.4,1.9,-0.157,5.0
0.0,0.0,0.0,0.0
37.499,1.185,-0.512,0.0
72.424,2.321,1.007,33.0
72.339,2.341,0.604,31.0
71.466,2.336,0.2,9.0
59.894,1.976,-0.17,4.0
45.576,1.519,-0.382,0.0
37.225,1.253,-0.519,0.0
72.356,2.468,0.985,34.0
72.326,2.491,0.583,24.0
71.524,2.487,0.179,6.0
58.517,2.054,-0.184,4.0
46.849,1.658,-0.408,0.0
37.531,1.341,-0.535,0.0
72.42,2.621,0.962,23.0
72.341,2.642,0.559,15.0
65.67,2.42,0.141,11.0
57.271,2.128,-0.2,2.0
44.718,1.675,-0.405,1.0
35.783,1.352,-0.523,0.0
61.893,2.368,0.799,9.0
119.977,4.627,0.882,8.0
65.408,2.543,0.116,16.0
56.055,2.196,-0.217,2.0
44.749,1.767,-0.422,1.0
35.209,1.401,-0.528,0.0
60.985,2.456,0.764,6.0
66.088,2.683,0.459,25.0
65.246,2.669,0.09,10.0
54.851,2.26,-0.235,2.0
44.699,1.856,-0.441,1.0
0.0,0.0,0.0,0.0
66.065,2.794,0.799,30.0
66.028,2.813,0.43,26.0
64.997,2.789,0.061,9.0
53.618,2.317,-0.254,2.0
41.753,1.817,-0.431,0.0
34.78,1.524,-0.553,0.0
66.067,2.928,0.768,26.0
66.075,2.947,0.399,14.0
58.897,2.645,0.027,6.0
52.647,2.379,-0.275,14.0
43.715,1.989,-0.472,0.0
34.072,1.561,-0.558,0.0
120.026,5.557,1.335,16.0
66.251,3.086,0.366,3.0
58.794,2.757,-0.003,9.0
51.573,2.433,-0.296,1.0
40.258,1.911,-0.456,0.0
33.235,1.588,-0.562,0.0
120.031,5.793,1.271,19.0
119.988,5.827,0.599,4.0
58.691,2.867,-0.035,11.0
50.326,2.473,-0.317,14.0
40.424,1.998,-0.481,1.0
0.0,0.0,0.0,0.0
120.072,6.029,1.202,18.0
59.464,3.003,0.262,22.0
52.279,2.656,-0.062,24.0
49.647,2.536,-0.342,2.0
0.0,0.0,0.0,0.0
32.118,1.659,-0.581,0.0
59.376,3.096,0.558,37.0
59.314,3.109,0.225,21.0
51.884,2.735,-0.093,23.0
48.789,2.585,-0.366,1.0
0.0,0.0,0.0,0.0
31.55,1.69,-0.591,0.0
59.347,3.208,0.52,23.0
59.261,3.22,0.187,17.0
51.314,2.803,-0.126,24.0
47.73,2.621,-0.39,0.0
0.0,0.0,0.0,0.0
31.325,1.737,-0.607,0.0
59.415,3.324,0.481,17.0
59.266,3.333,0.146,10.0
51.098,2.887,-0.16,17.0
45.892,2.606,-0.406,2.0
35.583,2.03,-0.515,0.0
0.0,0.0,0.0,0.0
115.124,6.658,0.851,6.0
52.472,3.048,0.092,9.0
50.738,2.962,-0.195,9.0
45.74,2.682,-0.438,1.0
35.413,2.087,-0.538,0.0
29.437,1.742,-0.613,0.0
113.326,6.762,0.754,5.0
52.011,3.117,0.053,19.0
45.844,2.76,-0.21,19.0
41.516,2.51,-0.428,0.0
0.0,0.0,0.0,0.0
28.684,1.75,-0.619,0.0
111.16,6.834,0.655,16.0
51.759,3.196,0.013,19.0
45.479,2.819,-0.244,19.0
40.186,2.502,-0.446,0.0
33.65,2.104,-0.563,0.0
28.095,1.764,-0.628,0.0
52.356,3.312,0.267,15.0
51.523,3.272,-0.027,22.0
44.938,2.866,-0.277,13.0
39.292,2.515,-0.467,0.0
31.93,2.053,-0.56,0.0
27.608,1.782,-0.64,0.0
52.176,3.391,0.223,15.0
51.355,3.351,-0.069,14.0
43.972,2.88,-0.307,7.0
38.197,2.512,-0.486,1.0
31.93,2.108,-0.587,0.0
26.827,1.778,-0.644,0.0
52.08,3.475,0.178,13.0
46.07,3.086,-0.101,17.0
43.259,2.908,-0.339,9.0
37.263,2.514,-0.506,1.0
30.708,2.079,-0.591,0.0
26.314,1.789,-0.655,0.0
51.975,3.557,0.132,17.0
45.735,3.141,-0.141,20.0
42.621,2.937,-0.373,7.0
35.753,2.473,-0.518,0.0
30.195,2.096,-0.608,0.0
25.672,1.788,-0.662,0.0
51.867,3.636,0.084,13.0
45.236,3.182,-0.181,19.0
41.899,2.958,-0.405,3.0
34.601,2.451,-0.534,0.0
29.158,2.072,-0.615,0.0
25.232,1.799,-0.675,0.0
51.765,3.715,0.036,6.0
0.0,0.0,0.0,0.0
41.352,2.986,-0.439,4.0
33.483,2.426,-0.548,0.0
28.324,2.059,-0.624,0.0
24.651,1.798,-0.683,0.0
45.957,3.371,-0.011,20.0
44.48,3.273,-0.263,8.0
40.736,3.007,-0.471,1.0
32.576,2.411,-0.565,0.0
27.717,2.058,-0.638,0.0
23.844,1.776,-0.684,0.0
45.565,3.413,-0.056,20.0
41.38,3.109,-0.285,16.0
40.226,3.031,-0.505,0.0
31.442,2.377,-0.576,0.0
26.674,2.022,-0.64,0.0
23.461,1.784,-0.696,0.0
45.275,3.462,-0.101,15.0
40.87,3.134,-0.323,9.0
