X,Y,Z,Reflectivity
97.089,7.514,0.41,7.0
45.403,3.525,-0.067,19.0
40.846,3.181,-0.29,12.0
40.112,3.134,-0.511,2.0
98.474,7.744,1.46,8.0
45.926,3.622,0.422,35.0
45.837,3.625,0.163,28.0
45.25,3.59,-0.097,20.0
40.721,3.241,-0.317,15.0
38.659,3.086,-0.519,1.0
45.841,3.682,0.648,44.0
45.804,3.69,0.389,40.0
45.738,3.695,0.131,22.0
45.087,3.654,-0.129,28.0
40.493,3.29,-0.344,15.0
35.48,2.892,-0.501,0.0
45.777,3.754,0.614,43.0
45.754,3.762,0.356,38.0
45.666,3.765,0.097,20.0
44.883,3.711,-0.161,25.0
40.253,3.338,-0.372,11.0
34.771,2.891,-0.517,0.0
45.776,3.828,0.58,38.0
45.747,3.835,0.322,28.0
45.624,3.835,0.063,19.0
44.463,3.748,-0.193,19.0
40.001,3.381,-0.399,7.0
33.961,2.878,-0.531,0.0
45.795,3.903,0.545,30.0
45.764,3.911,0.286,17.0
45.558,3.903,0.027,19.0
43.722,3.755,-0.225,19.0
39.89,3.435,-0.43,6.0
33.362,2.88,-0.548,0.0
45.895,3.984,0.509,11.0
45.849,3.99,0.249,16.0
45.492,3.969,-0.009,19.0
0.0,0.0,0.0,0.0
39.768,3.487,-0.462,7.0
32.429,2.851,-0.56,0.0
93.1,8.227,0.956,11.0
92.957,8.234,0.428,8.0
45.459,4.036,-0.047,19.0
40.977,3.646,-0.279,16.0
39.652,3.537,-0.494,6.0
31.78,2.842,-0.576,0.0
92.281,8.293,0.869,10.0
45.674,4.113,0.171,10.0
45.305,4.09,-0.086,19.0
40.489,3.663,-0.31,16.0
39.526,3.584,-0.527,2.0
30.984,2.816,-0.589,0.0
91.569,8.365,0.781,12.0
91.417,8.369,0.261,10.0
45.104,4.137,-0.126,19.0
40.065,3.683,-0.343,15.0
35.737,3.292,-0.508,1.0
30.278,2.796,-0.602,0.0
90.88,8.433,0.693,11.0
89.331,8.306,0.175,5.0
44.412,4.138,-0.164,20.0
39.665,3.703,-0.376,13.0
35.178,3.291,-0.533,2.0
29.118,2.73,-0.606,0.0
90.167,8.493,0.604,10.0
88.541,8.356,0.091,10.0
43.513,4.114,-0.202,18.0
39.401,3.733,-0.41,9.0
34.45,3.271,-0.555,1.0
28.493,2.711,-0.621,0.0
89.495,8.553,0.514,11.0
73.28,7.016,0.004,4.0
42.42,4.069,-0.238,18.0
39.335,3.78,-0.448,8.0
34.37,3.309,-0.586,0.0
27.623,2.665,-0.628,0.0
88.855,8.61,0.423,13.0
45.678,4.434,-0.041,7.0
0.0,0.0,0.0,0.0
39.275,3.826,-0.486,9.0
31.441,3.069,-0.568,0.0
27.055,2.646,-0.642,0.0
88.271,8.667,0.332,8.0
45.638,4.488,-0.087,17.0
40.184,3.959,-0.305,16.0
39.217,3.87,-0.525,4.0
30.899,3.055,-0.589,0.0
26.437,2.618,-0.654,0.0
0.0,0.0,0.0,0.0
0.0,0.0,0.0,0.0
39.692,3.96,-0.342,18.0
39.159,3.913,-0.564,1.0
30.169,3.02,-0.607,0.0
25.675,2.575,-0.662,0.0
86.975,8.754,0.149,10.0
45.41,4.577,-0.18,4.0
39.321,3.97,-0.38,14.0
33.607,3.398,-0.519,0.0
28.984,2.935,-0.613,0.0
25.138,2.55,-0.675,0.0
86.465,8.804,0.057,7.0
42.909,4.375,-0.215,18.0
39.116,3.994,-0.419,7.0
33.332,3.409,-0.55,1.0
27.945,2.862,-0.621,0.0
24.544,2.518,-0.685,0.0
69.968,7.203,-0.027,4.0
40.802,4.206,-0.248,16.0
39.065,4.033,-0.46,8.0
32.866,3.398,-0.578,0.0
27.266,2.823,-0.635,0.0
23.71,2.459,-0.688,0.0
52.398,5.451,-0.078,3.0
40.128,4.18,-0.288,16.0
39.02,4.071,-0.503,9.0
30.891,3.227,-0.577,1.0
26.442,2.766,-0.645,0.0
23.109,2.421,-0.696,0.0
51.648,5.428,-0.133,5.0
39.632,4.17,-0.329,24.0
38.974,4.106,-0.545,3.0
29.926,3.157,-0.593,1.0
25.855,2.731,-0.66,0.0
22.717,2.403,-0.709,0.0
45.585,4.837,-0.169,8.0
39.345,4.179,-0.371,15.0
38.998,4.148,-0.59,0.0
29.024,3.091,-0.607,0.0
25.168,2.684,-0.671,0.0
22.127,2.363,-0.716,0.0
42.373,4.537,-0.205,18.0
38.978,4.178,-0.411,11.0
32.452,3.482,-0.528,0.0
27.918,3.0,-0.616,0.0
24.492,2.635,-0.68,0.0
21.478,2.314,-0.72,0.0
40.723,4.398,-0.244,16.0
38.894,4.205,-0.455,8.0
32.011,3.464,-0.557,1.0
27.16,2.943,-0.631,0.0
23.814,2.583,-0.689,0.0
20.886,2.268,-0.724,0.0
40.113,4.367,-0.287,17.0
38.838,4.233,-0.499,9.0
31.241,3.408,-0.58,1.0
26.381,2.881,-0.643,0.0
23.215,2.538,-0.699,0.0
20.374,2.23,-0.73,0.0
39.602,4.344,-0.329,26.0
38.802,4.261,-0.544,4.0
29.87,3.283,-0.59,1.0
25.718,2.83,-0.657,0.0
22.553,2.484,-0.706,0.0
19.954,2.201,-0.739,0.0
39.223,4.334,-0.372,15.0
38.864,4.298,-0.591,0.0
28.883,3.198,-0.605,0.0
24.993,2.77,-0.669,0.0
21.923,2.432,-0.712,0.0
19.589,2.175,-0.748,0.0
38.851,4.322,-0.415,11.0
32.983,3.672,-0.541,0.0
27.925,3.112,-0.617,0.0
24.259,2.706,-0.678,0.0
21.391,2.388,-0.72,0.0
19.041,2.128,-0.75,0.0
38.779,4.341,-0.461,12.0
31.488,3.528,-0.554,0.0
26.955,3.023,-0.629,0.0
23.527,2.641,-0.686,0.0
20.758,2.332,-0.724,0.0
18.602,2.092,-0.756,0.0
38.733,4.362,-0.506,7.0
30.828,3.474,-0.579,1.0
26.39,2.976,-0.647,0.0
23.022,2.599,-0.699,0.0
20.292,2.293,-0.732,0.0
18.21,2.059,-0.762,0.0
38.697,4.382,-0.552,2.0
29.534,3.346,-0.591,0.0
25.482,2.889,-0.656,0.0
22.467,2.55,-0.709,0.0
19.868,2.257,-0.741,0.0
17.842,2.028,-0.768,0.0
33.435,3.805,-0.518,0.0
28.516,3.247,-0.605,0.0
24.943,2.842,-0.672,0.0
21.763,2.482,-0.713,0.0
19.358,2.209,-0.746,0.0
17.531,2.002,-0.776,0.0
32.266,3.689,-0.539,0.0
27.627,3.16,-0.62,0.0
24.094,2.758,-0.679,0.0
21.251,2.434,-0.722,0.0
19.009,2.179,-0.755,0.0
17.152,1.968,-0.78,0.0
31.069,3.567,-0.557,0.0
26.818,3.081,-0.634,0.0
23.44,2.694,-0.689,0.0
20.6,2.369,-0.726,0.0
18.482,2.127,-0.757,0.0
16.91,1.948,-0.79,0.0
30.395,3.503,-0.582,1.0
26.021,3.0,-0.647,0.0
22.831,2.634,-0.699,0.0
20.136,2.324,-0.734,0.0
18.11,2.092,-0.764,0.0
16.511,1.908,-0.792,0.0
28.857,3.337,-0.588,0.0
25.258,2.922,-0.66,0.0
22.162,2.565,-0.706,0.0
19.646,2.275,-0.741,0.0
17.741,2.056,-0.771,0.0
16.201,1.878,-0.797,0.0
28.041,3.252,-0.606,1.0
24.478,2.84,-0.669,0.0
21.527,2.499,-0.712,0.0
19.234,2.234,-0.749,0.0
17.301,2.01,-0.773,0.0
15.912,1.85,-0.802,0.0
27.273,3.171,-0.623,1.0
23.757,2.763,-0.679,0.0
21.054,2.45,-0.722,0.0
18.729,2.18,-0.752,0.0
17.018,1.982,-0.781,0.0
15.552,1.812,-0.803,0.0
26.456,3.083,-0.637,1.0
23.18,2.702,-0.691,0.0
20.42,2.381,-0.726,0.0
18.305,2.135,-0.758,0.0
16.734,1.953,-0.789,0.0
15.335,1.791,-0.811,0.0
25.689,2.999,-0.65,0.0
22.641,2.644,-0.702,0.0
19.989,2.335,-0.735,0.0
17.906,2.092,-0.763,0.0
16.356,1.912,-0.791,0.0
15.067,1.762,-0.815,0.0
24.991,2.921,-0.662,0.0
21.908,2.561,-0.706,0.0
19.546,2.286,-0.742,0.0
17.601,2.059,-0.771,0.0
16.143,1.889,-0.8,0.0
14.814,1.734,-0.82,0.0
24.284,2.841,-0.673,0.0
21.273,2.49,-0.712,0.0
19.066,2.232,-0.747,0.0
17.206,2.015,-0.775,0.0
15.871,1.859,-0.806,0.0
14.534,1.703,-0.822,0.0
23.452,2.746,-0.678,0.0
20.842,2.441,-0.722,0.0
18.604,2.179,-0.751,0.0
16.876,1.977,-0.78,0.0
15.486,1.815,-0.805,0.0
14.318,1.678,-0.827,0.0
22.946,2.687,-0.691,0.0
20.299,2.377,-0.727,0.0
18.296,2.143,-0.761,0.0
16.573,1.941,-0.786,0.0
15.219,1.783,-0.809,0.0
14.027,1.644,-0.826,0.0
22.344,2.616,-0.699,0.0
19.834,2.322,-0.734,0.0
17.865,2.092,-0.764,0.0
16.338,1.913,-0.794,0.0
14.922,1.748,-0.811,0.0
13.878,1.626,-0.834,0.0
21.746,2.544,-0.706,0.0
19.414,2.272,-0.742,0.0
17.534,2.052,-0.771,0.0
16.0,1.872,-0.797,0.0
14.724,1.723,-0.818,0.0
13.692,1.603,-0.839,0.0
21.263,2.485,-0.715,0.0
19.005,2.221,-0.748,0.0
17.202,2.011,-0.776,0.0
15.732,1.839,-0.802,0.0
14.502,1.695,-0.822,0.0
13.489,1.577,-0.842,0.0
20.754,2.423,-0.722,0.0
18.583,2.169,-0.753,0.0
16.873,1.969,-0.78,0.0
15.413,1.799,-0.803,0.0
14.259,1.664,-0.825,0.0
13.29,1.551,-0.845,0.0
20.217,2.356,-0.726,0.0
18.22,2.123,-0.759,0.0
16.537,1.927,-0.784,0.0
15.199,1.771,-0.809,0.0
14.025,1.634,-0.827,0.0
13.086,1.525,-0.847,0.0
19.845,2.308,-0.735,0.0
17.874,2.078,-0.765,0.0
16.266,1.891,-0.789,0.0
14.975,1.741,-0.814,0.0
13.867,1.612,-0.833,0.0
12.906,1.5,-0.85,0.0
19.394,2.249,-0.74,0.0
17.524,2.032,-0.769,0.0
15.979,1.853,-0.793,0.0
14.716,1.706,-0.816,0.0
13.716,1.59,-0.84,0.0
12.684,1.47,-0.849,0.0
18.967,2.194,-0.744,0.0
17.163,1.984,-0.772,0.0
15.778,1.824,-0.8,0.0
14.461,1.671,-0.818,0.0
13.53,1.564,-0.843,0.0
12.547,1.45,-0.854,0.0
18.607,2.145,-0.75,0.0
16.955,1.954,-0.781,0.0
15.483,1.784,-0.802,0.0
14.315,1.649,-0.825,0.0
13.337,1.536,-0.845,0.0
12.471,1.436,-0.862,0.0
18.206,2.091,-0.753,0.0
16.575,1.903,-0.781,0.0
15.282,1.754,-0.807,0.0
14.108,1.619,-0.828,0.0
13.13,1.506,-0.846,0.0
12.299,1.411,-0.863,0.0
17.961,2.055,-0.762,0.0
16.395,1.875,-0.789,0.0
15.057,1.721,-0.811,0.0
13.905,1.589,-0.83,0.0
12.979,1.483,-0.849,0.0
11.988,1.369,-0.853,0.0
17.601,2.005,-0.764,0.0
16.169,1.841,-0.794,0.0
14.8,1.684,-0.812,0.0
13.73,1.562,-0.833,0.0
12.825,1.458,-0.852,0.0
11.857,1.348,-0.856,0.0
17.338,1.965,-0.77,0.0
15.898,1.801,-0.797,0.0
14.642,1.658,-0.818,0.0
13.575,1.536,-0.837,0.0
12.687,1.435,-0.856,0.0
11.679,1.321,-0.855,0.0
17.042,1.922,-0.773,0.0
15.665,1.765,-0.801,0.0
14.399,1.622,-0.818,0.0
13.422,1.511,-0.841,0.0
12.506,1.407,-0.855,0.0
11.626,1.308,-0.862,0.0
16.811,1.885,-0.779,0.0
15.383,1.724,-0.801,0.0
14.23,1.594,-0.822,0.0
13.219,1.48,-0.841,0.0
12.326,1.379,-0.855,0.0
11.464,1.282,-0.861,0.0
16.607,1.851,-0.785,0.0
15.264,1.7,-0.809,0.0
14.006,1.559,-0.822,0.0
13.117,1.459,-0.846,0.0
12.296,1.367,-0.864,0.0
11.391,1.266,-0.866,0.0
16.388,1.815,-0.789,0.0
14.96,1.656,-0.806,0.0
13.916,1.539,-0.829,0.0
12.982,1.435,-0.849,0.0
12.064,1.332,-0.858,0.0
11.264,1.243,-0.866,0.0
16.098,1.771,-0.79,0.0
14.855,1.632,-0.814,0.0
13.806,1.516,-0.835,0.0
12.86,1.411,-0.853,0.0
11.851,1.3,-0.853,0.0
11.148,1.222,-0.867,0.0
15.927,1.739,-0.795,0.0
14.654,1.599,-0.815,0.0
13.66,1.489,-0.837,0.0
12.715,1.385,-0.854,0.0
11.643,1.268,-0.848,0.0
11.004,1.197,-0.865,0.0
15.729,1.705,-0.798,0.0
14.479,1.568,-0.817,0.0
13.491,1.46,-0.838,0.0
12.498,1.351,-0.849,0.0
11.61,1.254,-0.855,0.0
10.959,1.183,-0.87,0.0
15.515,1.668,-0.799,0.0
14.366,1.543,-0.822,0.0
13.33,1.431,-0.839,0.0
12.397,1.33,-0.852,0.0
11.549,1.238,-0.86,0.0
10.851,1.162,-0.87,0.0
15.372,1.639,-0.804,0.0
14.221,1.515,-0.824,0.0
13.158,1.4,-0.838,0.0
12.332,1.311,-0.857,0.0
11.44,1.215,-0.86,0.0
10.767,1.143,-0.871,0.0
15.263,1.613,-0.809,0.0
14.08,1.487,-0.827,0.0
13.107,1.383,-0.844,0.0
12.212,1.287,-0.857,0.0
11.333,1.193,-0.86,0.0
10.696,1.125,-0.873,0.0
15.049,1.576,-0.808,0.0
13.955,1.46,-0.829,0.0
12.939,1.352,-0.842,0.0
12.012,1.254,-0.852,0.0
11.284,1.177,-0.864,0.0
10.645,1.109,-0.876,0.0
14.914,1.547,-0.811,0.0
13.817,1.432,-0.83,0.0
12.982,1.344,-0.854,0.0
11.886,1.229,-0.85,0.0
11.223,1.159,-0.867,0.0
10.589,1.092,-0.879,0.0
14.786,1.519,-0.813,0.0
13.722,1.407,-0.833,0.0
12.748,1.306,-0.846,0.0
11.808,1.208,-0.852,0.0
11.124,1.137,-0.866,0.0
10.511,1.073,-0.879,0.0
14.657,1.49,-0.815,0.0
13.684,1.389,-0.839,0.0
12.615,1.279,-0.845,0.0
11.782,1.193,-0.857,0.0
11.022,1.115,-0.865,0.0
10.439,1.055,-0.879,0.0
14.536,1.461,-0.817,0.0
13.598,1.365,-0.841,0.0
12.45,1.248,-0.841,0.0
11.707,1.172,-0.859,0.0
10.988,1.099,-0.868,0.0
10.36,1.035,-0.878,0.0
14.43,1.434,-0.819,0.0
13.415,1.332,-0.837,0.0
12.439,1.233,-0.847,0.0
11.666,1.155,-0.862,0.0
10.899,1.078,-0.867,0.0
10.346,1.022,-0.882,0.0
14.35,1.41,-0.822,0.0
13.378,1.312,-0.842,0.0
12.392,1.214,-0.85,0.0
11.536,1.129,-0.858,0.0
10.842,1.059,-0.868,0.0
10.305,1.005,-0.883,0.0
14.234,1.382,-0.821,0.0
13.304,1.289,-0.843,0.0
12.313,1.191,-0.85,0.0
11.395,1.101,-0.852,0.0
10.818,1.044,-0.871,0.0
10.254,0.988,-0.884,0.0
14.132,1.354,-0.822,0.0
13.219,1.265,-0.843,0.0
12.284,1.173,-0.853,0.0
11.382,1.086,-0.856,0.0
10.756,1.024,-0.87,0.0
10.188,0.969,-0.882,0.0
14.183,1.342,-0.83,0.0
13.174,1.244,-0.846,0.0
12.238,1.154,-0.855,0.0
11.367,1.07,-0.859,0.0
10.718,1.007,-0.871,0.0
10.222,0.959,-0.889,0.0
14.128,1.319,-0.832,0.0
13.057,1.217,-0.843,0.0
12.165,1.132,-0.854,0.0
11.312,1.05,-0.859,0.0
10.691,0.991,-0.872,0.0
10.154,0.94,-0.886,0.0
13.942,1.283,-0.826,0.0
12.964,1.191,-0.841,0.0
12.171,1.116,-0.858,0.0
11.289,1.034,-0.861,0.0
10.659,0.974,-0.873,0.0
10.119,0.923,-0.886,0.0
13.925,1.263,-0.828,0.0
12.998,1.177,-0.846,0.0
12.144,1.098,-0.859,0.0
11.23,1.013,-0.859,0.0
10.614,0.956,-0.872,0.0
10.084,0.907,-0.885,0.0
13.827,1.236,-0.826,0.0
12.945,1.155,-0.846,0.0
12.013,1.07,-0.853,0.0
11.191,0.995,-0.859,0.0
10.63,0.943,-0.876,0.0
10.102,0.895,-0.889,0.0
13.818,1.217,-0.828,0.0
12.907,1.134,-0.846,0.0
11.978,1.051,-0.852,0.0
11.168,0.978,-0.859,0.0
10.598,0.926,-0.875,0.0
10.066,0.878,-0.888,0.0
13.831,1.199,-0.831,0.0
12.887,1.115,-0.847,0.0
11.956,1.032,-0.853,0.0
11.195,0.964,-0.863,0.0
10.584,0.91,-0.875,0.0
10.079,0.865,-0.89,0.0
13.775,1.175,-0.83,0.0
12.919,1.099,-0.85,0.0
11.865,1.007,-0.848,0.0
11.183,0.947,-0.863,0.0
10.595,0.896,-0.877,0.0
10.069,0.85,-0.89,0.0
13.76,1.154,-0.83,0.0
12.952,1.084,-0.854,0.0
11.884,0.992,-0.85,0.0
11.127,0.927,-0.859,0.0
10.569,0.878,-0.875,0.0
10.077,0.836,-0.892,0.0
13.815,1.139,-0.834,0.0
12.976,1.067,-0.856,0.0
11.911,0.977,-0.852,0.0
11.152,0.913,-0.861,0.0
10.525,0.859,-0.872,0.0
10.019,0.816,-0.886,0.0
13.72,1.111,-0.828,0.0
12.923,1.044,-0.852,0.0
11.866,0.956,-0.849,0.0
11.139,0.895,-0.86,0.0
10.562,0.847,-0.875,0.0
10.049,0.804,-0.889,0.0
13.656,1.086,-0.824,0.0
12.828,1.017,-0.845,0.0
11.876,0.939,-0.849,0.0
11.147,0.879,-0.86,0.0
10.569,0.832,-0.875,0.0
10.06,0.79,-0.889,0.0
13.781,1.075,-0.83,0.0
12.82,0.997,-0.843,0.0
11.888,0.922,-0.848,0.0
11.193,0.866,-0.862,0.0
10.618,0.82,-0.878,0.0
10.095,0.777,-0.891,0.0
13.731,1.051,-0.825,0.0
12.957,0.989,-0.851,0.0
11.933,0.908,-0.85,0.0
11.163,0.847,-0.859,0.0
10.567,0.8,-0.872,0.0
10.092,0.762,-0.889,0.0
13.855,1.039,-0.83,0.0
12.882,0.963,-0.844,0.0
11.915,0.889,-0.847,0.0
11.206,0.833,-0.86,0.0
10.618,0.787,-0.874,0.0
10.114,0.748,-0.889,0.0
13.873,1.019,-0.829,0.0
12.91,0.946,-0.843,0.0
11.98,0.875,-0.848,0.0
11.255,0.819,-0.861,0.0
10.645,0.773,-0.873,0.0
10.141,0.734,-0.889,0.0
13.85,0.996,-0.824,0.0
13.005,0.932,-0.846,0.0
12.053,0.862,-0.85,0.0
11.255,0.802,-0.858,0.0
10.647,0.757,-0.871,0.0
10.167,0.72,-0.888,0.0
13.955,0.982,-0.826,0.0
13.023,0.914,-0.843,0.0
12.106,0.847,-0.85,0.0
11.322,0.789,-0.859,0.0
10.696,0.743,-0.871,0.0
10.165,0.704,-0.884,0.0
14.071,0.968,-0.828,0.0
13.133,0.901,-0.845,0.0
12.169,0.832,-0.851,0.0
11.379,0.776,-0.86,0.0
10.762,0.731,-0.873,0.0
10.219,0.692,-0.885,0.0
14.1,0.948,-0.824,0.0
13.219,0.886,-0.846,0.0
12.235,0.818,-0.85,0.0
11.412,0.76,-0.857,0.0
10.783,0.716,-0.87,0.0
10.273,0.68,-0.886,0.0
14.221,0.934,-0.826,0.0
13.228,0.866,-0.841,0.0
12.304,0.803,-0.85,0.0
11.488,0.747,-0.858,0.0
10.863,0.704,-0.871,0.0
10.304,0.665,-0.884,0.0
14.275,0.916,-0.822,0.0
13.311,0.851,-0.84,0.0
12.336,0.785,-0.846,0.0
11.569,0.734,-0.858,0.0
10.893,0.689,-0.868,0.0
10.335,0.651,-0.881,0.0
14.369,0.899,-0.82,0.0
13.384,0.834,-0.837,0.0
12.378,0.768,-0.843,0.0
11.597,0.717,-0.854,0.0
10.945,0.674,-0.867,0.0
10.402,0.639,-0.881,0.0
14.464,0.882,-0.818,0.0
13.555,0.823,-0.841,0.0
12.375,0.749,-0.835,0.0
11.675,0.704,-0.853,0.0
11.035,0.662,-0.867,0.0
10.45,0.625,-0.879,0.0
14.619,0.868,-0.818,0.0
13.674,0.809,-0.84,0.0
12.619,0.743,-0.844,0.0
11.752,0.689,-0.852,0.0
11.157,0.652,-0.87,0.0
10.525,0.612,-0.878,0.0
14.721,0.851,-0.814,0.0
13.683,0.787,-0.831,0.0
12.781,0.732,-0.846,0.0
11.825,0.675,-0.849,0.0
11.166,0.635,-0.863,0.0
10.607,0.6,-0.878,0.0
14.855,0.835,-0.811,0.0
13.895,0.778,-0.835,0.0
12.935,0.721,-0.848,0.0
11.925,0.662,-0.848,0.0
11.231,0.62,-0.86,0.0
10.656,0.586,-0.875,0.0
15.039,0.821,-0.811,0.0
13.976,0.76,-0.83,0.0
12.99,0.703,-0.842,0.0
12.084,0.651,-0.85,0.0
11.348,0.609,-0.861,0.0
10.718,0.573,-0.871,0.0
15.228,0.808,-0.809,0.0
14.195,0.75,-0.832,0.0
13.024,0.684,-0.834,0.0
12.225,0.64,-0.851,0.0
11.475,0.598,-0.861,0.0
10.846,0.562,-0.873,0.0
15.316,0.788,-0.802,0.0
14.282,0.732,-0.825,0.0
13.321,0.679,-0.842,0.0
12.339,0.626,-0.848,0.0
11.595,0.586,-0.86,0.0
10.986,0.552,-0.875,0.0
15.564,0.777,-0.802,0.0
14.478,0.719,-0.824,0.0
13.448,0.664,-0.838,0.0
12.497,0.614,-0.848,0.0
11.661,0.57,-0.855,0.0
11.062,0.538,-0.871,0.0
15.934,0.77,-0.806,0.0
14.628,0.703,-0.819,0.0
13.633,0.652,-0.838,0.0
12.668,0.603,-0.848,0.0
11.771,0.557,-0.852,0.0
11.157,0.525,-0.868,0.0
15.798,0.739,-0.785,0.0
14.816,0.689,-0.816,0.0
13.741,0.635,-0.831,0.0
12.89,0.593,-0.851,0.0
11.933,0.546,-0.852,0.0
11.268,0.513,-0.866,0.0
16.367,0.74,-0.797,0.0
14.989,0.674,-0.811,0.0
14.062,0.628,-0.837,0.0
13.046,0.58,-0.848,0.0
12.099,0.535,-0.852,0.0
11.327,0.498,-0.859,0.0
16.543,0.722,-0.789,0.0
15.285,0.663,-0.811,0.0
14.272,0.616,-0.835,0.0
13.208,0.567,-0.845,0.0
12.265,0.523,-0.851,0.0
11.452,0.486,-0.857,0.0
16.904,0.712,-0.789,0.0
15.491,0.649,-0.806,0.0
14.357,0.597,-0.824,0.0
13.418,0.555,-0.844,0.0
12.436,0.511,-0.849,0.0
11.627,0.476,-0.857,0.0
17.118,0.695,-0.78,0.0
15.797,0.637,-0.805,0.0
14.529,0.583,-0.818,0.0
13.634,0.543,-0.843,0.0
12.694,0.503,-0.853,0.0
11.768,0.463,-0.854,0.0
17.432,0.681,-0.775,0.0
15.994,0.621,-0.797,0.0
14.83,0.572,-0.818,0.0
13.745,0.527,-0.834,0.0
12.983,0.495,-0.857,0.0
11.921,0.451,-0.851,0.0
17.764,0.667,-0.769,0.0
16.312,0.609,-0.793,0.0
15.023,0.557,-0.811,0.0
14.116,0.52,-0.839,0.0
13.133,0.48,-0.851,0.0
12.128,0.441,-0.851,0.0
18.069,0.652,-0.76,0.0
16.633,0.596,-0.789,0.0
15.394,0.548,-0.812,0.0
14.235,0.503,-0.829,0.0
13.352,0.469,-0.849,0.0
12.344,0.431,-0.851,0.0
18.413,0.637,-0.752,0.0
17.039,0.585,-0.787,0.0
15.595,0.532,-0.804,0.0
14.484,0.491,-0.825,0.0
13.542,0.456,-0.844,0.0
12.547,0.419,-0.849,0.0
19.163,0.635,-0.758,0.0
17.375,0.572,-0.78,0.0
15.902,0.519,-0.799,0.0
14.762,0.479,-0.822,0.0
13.759,0.443,-0.839,0.0
12.823,0.41,-0.851,0.0
19.494,0.618,-0.746,0.0
17.717,0.557,-0.772,0.0
16.349,0.51,-0.8,0.0
15.031,0.466,-0.817,0.0
13.972,0.43,-0.834,0.0
13.187,0.402,-0.857,0.0
20.067,0.608,-0.741,0.0
18.16,0.546,-0.767,0.0
16.602,0.495,-0.79,0.0
15.348,0.454,-0.813,0.0
14.266,0.419,-0.832,0.0
13.371,0.389,-0.851,0.0
20.432,0.59,-0.726,0.0
18.608,0.533,-0.76,0.0
17.143,0.487,-0.791,0.0
15.722,0.443,-0.811,0.0
14.517,0.406,-0.826,0.0
13.589,0.377,-0.846,0.0
21.233,0.584,-0.725,0.0
18.971,0.517,-0.748,0.0
17.488,0.473,-0.782,0.0
15.975,0.428,-0.801,0.0
14.788,0.393,-0.82,0.0
13.82,0.364,-0.84,0.0
21.818,0.57,-0.713,0.0
19.689,0.51,-0.748,0.0
17.938,0.46,-0.776,0.0
16.396,0.417,-0.798,0.0
15.094,0.38,-0.815,0.0
14.086,0.352,-0.835,0.0
22.593,0.56,-0.705,0.0
20.164,0.495,-0.736,0.0
18.227,0.443,-0.761,0.0
16.843,0.406,-0.794,0.0
15.426,0.368,-0.809,0.0
14.369,0.34,-0.83,0.0
23.416,0.549,-0.695,0.0
20.821,0.484,-0.728,0.0
18.76,0.432,-0.755,0.0
17.118,0.39,-0.781,0.0
15.836,0.357,-0.806,0.0
14.711,0.328,-0.827,0.0
24.217,0.536,-0.681,0.0
21.623,0.474,-0.722,0.0
19.483,0.423,-0.753,0.0
17.748,0.381,-0.781,0.0
16.226,0.345,-0.8,0.0
15.038,0.316,-0.821,0.0
25.022,0.521,-0.664,0.0
22.535,0.465,-0.717,0.0
19.95,0.407,-0.739,0.0
17.995,0.363,-0.764,0.0
16.68,0.333,-0.796,0.0
15.387,0.304,-0.815,0.0
26.247,0.514,-0.654,0.0
22.878,0.443,-0.691,0.0
20.616,0.395,-0.731,0.0
18.598,0.352,-0.759,0.0
17.24,0.323,-0.794,0.0
15.848,0.294,-0.813,0.0
27.415,0.503,-0.638,0.0
24.068,0.436,-0.686,0.0
21.456,0.384,-0.725,0.0
19.274,0.341,-0.754,0.0
17.615,0.308,-0.782,2.0
16.162,0.279,-0.802,0.0
28.61,0.49,-0.618,0.0
25.428,0.43,-0.682,0.0
22.275,0.372,-0.715,0.0
19.88,0.328,-0.744,0.0
18.004,0.294,-0.768,0.0
16.663,0.268,-0.798,0.0
30.047,0.479,-0.598,0.0
26.183,0.412,-0.658,0.0
23.099,0.359,-0.701,0.0
20.307,0.311,-0.725,0.0
18.497,0.28,-0.757,0.0
17.269,0.258,-0.797,0.0
31.695,0.468,-0.576,0.0
27.471,0.401,-0.642,0.0
0.0,0.0,0.0,0.0
21.287,0.302,-0.723,0.0
19.228,0.269,-0.753,0.0
17.617,0.243,-0.783,0.0
33.6,0.459,-0.551,0.0
29.018,0.39,-0.627,0.0
0.0,0.0,0.0,0.0
22.312,0.291,-0.718,0.0
19.899,0.256,-0.744,0.0
18.146,0.23,-0.773,0.0
0.0,0.0,0.0,0.0
30.394,0.375,-0.603,0.0
26.478,0.322,-0.663,0.0
23.243,0.278,-0.706,0.0
20.616,0.243,-0.733,0.0
18.67,0.216,-0.761,0.0
0.0,0.0,0.0,0.0
31.953,0.36,-0.575,0.0
27.609,0.306,-0.641,0.0
24.233,0.264,-0.691,0.0
21.557,0.231,-0.727,0.0
19.259,0.203,-0.75,0.0
41.079,0.428,-0.45,0.0
0.0,0.0,0.0,0.0
29.117,0.293,-0.622,0.0
25.001,0.247,-0.667,0.0
22.502,0.218,-0.717,0.0
20.036,0.191,-0.743,0.0
0.0,0.0,0.0,0.0
36.447,0.336,-0.521,0.0
30.712,0.278,-0.599,0.0
26.5,0.235,-0.657,0.0
23.277,0.203,-0.698,0.0
20.941,0.179,-0.737,0.0
48.524,0.408,-0.35,1.0
0.0,0.0,0.0,0.0
32.62,0.263,-0.574,0.0
28.226,0.223,-0.646,0.0
24.532,0.19,-0.689,0.0
21.729,0.165,-0.723,0.0
0.0,0.0,0.0,0.0
42.874,0.313,-0.451,1.0
0.0,0.0,0.0,0.0
0.0,0.0,0.0,0.0
25.633,0.175,-0.671,0.0
22.852,0.152,-0.717,0.0
0.0,0.0,0.0,0.0
46.018,0.294,-0.395,1.0
37.799,0.235,-0.52,0.0
31.244,0.189,-0.595,0.0
0.0,0.0,0.0,0.0
23.854,0.137,-0.701,0.0
0.0,0.0,0.0,0.0
0.0,0.0,0.0,0.0
42.879,0.229,-0.506,0.0
34.032,0.177,-0.581,0.0
28.877,0.145,-0.642,0.0
24.8,0.121,-0.68,0.0
0.0,0.0,0.0,0.0
0.0,0.0,0.0,0.0
42.897,0.192,-0.421,1.0
0.0,0.0,0.0,0.0
30.257,0.127,-0.613,0.0
26.24,0.107,-0.668,0.0
91.198,0.361,0.229,1.0
0.0,0.0,0.0,0.0
49.888,0.184,-0.391,0.0
0.0,0.0,0.0,0.0
31.913,0.109,-0.584,0.0
27.259,0.089,-0.639,0.0
94.615,0.301,0.422,4.0
0.0,0.0,0.0,0.0
52.561,0.153,-0.308,0.0
42.783,0.119,-0.476,0.0
34.17,0.091,-0.557,0.0
29.473,0.074,-0.632,0.0
110.672,0.269,0.716,6.0
92.98,0.214,0.121,1.0
0.0,0.0,0.0,0.0
45.173,0.093,-0.412,1.0
36.23,0.07,-0.517,0.0
30.805,0.055,-0.599,0.0
111.124,0.19,0.944,10.0
0.0,0.0,0.0,0.0
0.0,0.0,0.0,0.0
52.187,0.07,-0.369,0.0
40.292,0.05,-0.494,0.0
33.359,0.037,-0.581,0.0
111.207,0.113,1.171,19.0
104.1,0.095,0.558,6.0
0.0,0.0,0.0,0.0
0.0,0.0,0.0,0.0
45.063,0.026,-0.459,2.0
0.0,0.0,0.0,0.0
111.098,0.041,1.397,14.0
111.045,0.03,0.823,13.0
95.305,0.016,0.215,1.0
0.0,0.0,0.0,0.0
45.755,-0.001,-0.372,0.0
37.463,-0.005,-0.497,0.0
117.384,-0.027,1.719,15.0
117.314,-0.039,1.114,15.0
98.427,-0.042,0.427,1.0
0.0,0.0,0.0,0.0
52.61,-0.032,-0.319,0.0
0.0,0.0,0.0,0.0
117.344,-0.096,1.963,25.0
117.459,-0.106,1.358,15.0
110.926,-0.11,0.711,13.0
0.0,0.0,0.0,0.0
0.0,0.0,0.0,0.0
45.467,-0.057,-0.415,1.0
119.83,-0.162,2.253,10.0
119.828,-0.173,1.636,16.0
114.426,-0.175,0.974,7.0
0.0,0.0,0.0,0.0
0.0,0.0,0.0,0.0
0.0,0.0,0.0,0.0
0.0,0.0,0.0,0.0
119.824,-0.232,1.887,74.0
119.71,-0.241,1.269,17.0
110.818,-0.232,0.594,8.0
0.0,0.0,0.0,0.0
0.0,0.0,0.0,0.0
119.812,-0.279,2.756,19.0
112.504,-0.27,2.007,2.0
119.697,-0.295,1.519,17.0
114.435,-0.29,0.852,23.0
0.0,0.0,0.0,0.0
0.0,0.0,0.0,0.0
119.791,-0.331,3.007,36.0
119.842,-0.338,2.389,85.0
119.801,-0.345,1.771,8.0
119.687,-0.352,1.143,16.0
102.974,-0.309,0.454,1.0
0.0,0.0,0.0,0.0
194.965,-0.615,5.304,19.0
194.094,-0.623,4.28,23.0
0.0,0.0,0.0,0.0
119.672,-0.397,1.395,18.0
111.222,-0.375,0.724,6.0
0.0,0.0,0.0,0.0
205.667,-0.723,6.033,12.0
119.805,-0.426,2.897,17.0
193.987,-0.7,3.693,18.0
119.753,-0.438,1.652,3.0
119.734,-0.443,1.037,17.0
104.162,-0.39,0.367,1.0
206.613,-0.792,6.501,22.0
119.807,-0.464,3.152,30.0
119.842,-0.468,2.534,16.0
119.819,-0.473,1.906,7.0
119.707,-0.477,1.288,15.0
111.05,-0.447,0.624,5.0
206.703,-0.849,6.937,7.0
119.77,-0.496,3.403,2.0
119.816,-0.5,2.787,36.0
119.812,-0.504,2.158,47.0
119.698,-0.507,1.54,6.0
119.678,-0.511,0.925,11.0
190.59,-0.83,6.803,23.0
206.569,-0.904,6.306,15.0
119.741,-0.527,3.04,16.0
194.155,-0.86,3.909,23.0
119.738,-0.533,1.794,2.0
119.71,-0.535,1.179,15.0
190.553,-0.869,7.204,40.0
206.9,-0.946,6.753,13.0
207.346,-0.952,5.699,10.0
119.808,-0.552,2.662,18.0
193.693,-0.896,3.306,17.0
119.691,-0.555,1.428,6.0
189.828,-0.897,7.575,150.0
190.641,-0.902,6.622,16.0
206.328,-0.979,6.105,8.0
119.77,-0.569,2.916,35.0
119.809,-0.57,2.3,59.0
119.776,-0.571,1.684,9.0
95.363,-0.462,4.007,21.0
190.529,-0.925,7.023,41.0
206.851,-1.005,6.558,8.0
119.796,-0.582,3.168,24.0
119.795,-0.582,2.552,27.0
119.794,-0.582,1.934,12.0
95.551,-0.472,4.216,16.0
189.884,-0.938,7.4,75.0
190.538,-0.94,6.441,5.0
207.806,-1.024,5.932,6.0
119.825,-0.589,2.801,71.0
119.824,-0.589,2.185,64.0
80.927,-0.404,3.74,13.0
189.807,-0.946,7.793,150.0
190.607,-0.947,6.842,29.0
206.497,-1.024,6.326,9.0
119.814,-0.593,3.054,28.0
119.81,-0.591,2.438,46.0
80.895,-0.405,3.908,7.0
95.379,-0.476,4.116,24.0
190.573,-0.948,7.243,34.0
206.874,-1.025,6.774,8.0
119.828,-0.591,3.305,6.0
119.797,-0.588,2.688,67.0
81.3,-0.405,4.099,9.0
95.816,-0.475,4.337,8.0
189.834,-0.937,7.609,150.0
190.612,-0.936,6.637,18.0
206.576,-1.009,6.129,7.0
119.803,-0.581,2.935,34.0
77.656,-0.382,4.077,14.0
80.911,-0.396,3.829,13.0
95.354,-0.463,4.02,26.0
190.526,-0.92,7.028,44.0
206.859,-0.991,6.56,6.0
119.816,-0.57,3.181,19.0
78.337,-0.378,4.274,10.0
81.131,-0.388,4.005,4.0
95.538,-0.454,4.223,14.0
189.861,-0.894,7.396,115.0
0.0,0.0,0.0,0.0
206.246,-0.954,5.906,4.0
60.59,-0.284,3.431,7.0
77.633,-0.361,3.995,20.0
96.166,-0.443,4.45,9.0
95.537,-0.435,3.917,7.0
190.537,-0.858,6.829,33.0
206.755,-0.921,6.344,19.0
60.605,-0.274,3.558,12.0
77.838,-0.348,4.166,9.0
80.782,-0.356,3.905,6.0
95.571,-0.417,4.115,12.0
190.586,-0.82,7.218,31.0
206.789,-0.878,6.765,16.0
60.338,-0.26,3.665,8.0
78.558,-0.334,4.365,10.0
77.651,-0.325,3.912,17.0
103.238,-0.426,4.655,8.0
117.374,-0.477,4.685,16.0
190.665,-0.763,6.625,18.0
60.175,-0.244,3.777,13.0
60.685,-0.242,3.494,11.0
77.716,-0.305,4.072,10.0
80.813,-0.312,3.808,10.0
95.603,-0.362,4.008,16.0
190.561,-0.71,7.002,35.0
60.227,-0.227,3.902,18.0
60.64,-0.225,3.613,14.0
78.411,-0.285,4.264,8.0
103.851,-0.37,5.099,7.0
103.186,-0.359,4.531,6.0
117.364,-0.4,4.545,27.0
48.149,-0.167,3.215,35.0
60.29,-0.204,3.711,24.0
60.684,-0.201,3.42,19.0
77.872,-0.251,3.977,8.0
81.092,-0.254,3.721,17.0
95.371,-0.291,3.881,13.0
48.064,-0.149,3.305,16.0
60.201,-0.182,3.826,24.0
60.645,-0.178,3.538,19.0
60.299,-0.172,3.199,9.0
80.952,-0.223,3.874,10.0
95.371,-0.254,4.068,15.0
48.523,-0.132,3.432,18.0
48.202,-0.127,3.158,25.0
60.474,-0.153,3.646,24.0
60.36,-0.147,3.319,27.0
81.189,-0.19,4.043,9.0
80.736,-0.181,3.601,8.0
45.908,-0.105,3.336,32.0
47.935,-0.105,3.233,17.0
60.543,-0.127,3.768,12.0
60.56,-0.121,3.448,15.0
77.694,-0.147,4.019,16.0
80.865,-0.145,3.761,9.0
45.913,-0.084,3.426,20.0
48.738,-0.084,3.382,23.0
48.338,-0.078,3.101,11.0
60.631,-0.091,3.568,6.0
60.262,-0.085,3.232,19.0
80.553,-0.105,3.9,19.0
42.04,-0.056,3.217,28.0
48.428,-0.059,3.452,6.0
60.507,-0.068,3.997,15.0
60.359,-0.061,3.665,5.0
60.249,-0.054,3.344,31.0
80.556,-0.062,4.052,16.0
42.073,-0.034,3.298,37.0
45.86,-0.032,3.355,27.0
49.186,-0.029,3.34,6.0
60.246,-0.028,3.77,6.0
60.411,-0.02,3.465,11.0
77.947,-0.018,4.064,27.0
41.829,-0.011,3.357,37.0
42.012,-0.005,3.151,14.0
48.703,-0.001,3.397,10.0
60.264,0.006,3.882,30.0
60.572,0.014,3.585,3.0
77.896,0.027,4.203,14.0
41.5,0.013,3.407,45.0
45.666,0.021,3.509,19.0
48.66,0.028,3.483,18.0
60.584,0.043,4.013,8.0
60.567,0.051,3.694,2.0
73.89,0.072,4.12,14.0
41.508,0.039,3.483,49.0
41.657,0.045,3.276,37.0
48.836,0.059,3.583,16.0
50.409,0.068,3.429,4.0
67.95,0.101,4.266,4.0
73.877,0.12,4.25,3.0
41.476,0.066,3.554,44.0
41.669,0.072,3.351,42.0
45.734,0.086,3.436,13.0
60.854,0.123,4.247,4.0
60.37,0.13,3.895,7.0
67.596,0.155,4.006,4.0
41.531,0.095,3.632,38.0
41.513,0.1,3.411,48.0
48.356,0.124,3.718,11.0
45.777,0.124,3.273,12.0
60.396,0.173,4.001,23.0
67.22,0.202,4.099,20.0
41.407,0.124,3.692,45.0
41.585,0.131,3.487,41.0
41.784,0.138,3.284,39.0
45.817,0.157,3.354,31.0
60.645,0.218,4.119,6.0
60.235,0.225,3.775,11.0
41.409,0.155,3.762,44.0
41.569,0.162,3.556,40.0
41.74,0.169,3.35,37.0
41.958,0.176,3.142,13.0
60.827,0.265,4.234,3.0
60.328,0.272,3.881,13.0
41.769,0.189,3.866,29.0
41.539,0.194,3.624,44.0
41.724,0.202,3.418,42.0
41.899,0.209,3.206,22.0
45.827,0.236,3.265,32.0
66.728,0.354,4.401,10.0
41.594,0.221,3.917,44.0
41.589,0.228,3.696,43.0
41.496,0.234,3.467,49.0
48.03,0.279,3.753,6.0
51.459,0.307,3.749,2.0
47.992,0.294,3.243,23.0
41.472,0.255,3.973,42.0
41.425,0.262,3.748,37.0
41.474,0.269,3.532,48.0
44.762,0.298,3.57,4.0
48.285,0.33,3.594,5.0
47.86,0.334,3.309,32.0
41.564,0.291,4.048,29.0
41.638,0.299,3.832,37.0
41.393,0.304,3.589,43.0
41.678,0.313,3.388,44.0
47.575,0.366,3.615,7.0
45.006,0.354,3.18,9.0
41.586,0.328,4.114,31.0
42.115,0.34,3.941,17.0
41.396,0.341,3.653,39.0
41.5,0.349,3.437,43.0
41.859,0.36,3.244,40.0
45.001,0.395,3.248,31.0
41.362,0.364,4.155,41.0
47.13,0.423,4.481,15.0
41.688,0.382,3.741,35.0
41.571,0.388,3.505,39.0
41.481,0.394,3.276,34.0
47.648,0.462,3.51,6.0
41.282,0.402,4.208,45.0
41.671,0.413,4.024,19.0
41.572,0.42,3.791,35.0
41.521,0.427,3.561,38.0
41.641,0.436,3.349,40.0
41.336,0.441,3.105,33.0
41.304,0.442,4.271,47.0
41.56,0.453,4.074,42.0
41.502,0.46,3.845,16.0
41.534,0.467,3.621,16.0
41.389,0.474,3.387,44.0
41.285,0.48,3.158,38.0
41.634,0.486,4.363,26.0
41.669,0.495,4.142,44.0
41.332,0.499,3.887,30.0
41.416,0.507,3.668,31.0
41.208,0.513,3.429,48.0
40.934,0.517,3.187,45.0
41.384,0.525,4.394,27.0
41.516,0.535,4.184,42.0
41.142,0.538,3.925,40.0
41.068,0.544,3.693,39.0
40.939,0.55,3.461,48.0
40.847,0.557,3.235,39.0
40.73,0.559,4.379,44.0
41.324,0.575,4.219,43.0
41.231,0.581,3.987,39.0
40.899,0.585,3.731,47.0
40.953,0.593,3.516,39.0
40.956,0.601,3.297,42.0
40.685,0.601,4.428,41.0
41.248,0.618,4.266,35.0
41.04,0.623,4.023,47.0
40.983,0.629,3.792,38.0
40.763,0.634,3.552,46.0
40.856,0.643,3.34,32.0
40.642,0.644,4.474,41.0
40.778,0.654,4.268,43.0
41.013,0.666,4.07,44.0
41.235,0.678,3.866,41.0
40.797,0.678,3.605,43.0
40.922,0.689,3.395,35.0
40.544,0.687,4.513,42.0
40.906,0.701,4.331,35.0
41.067,0.712,4.126,38.0
41.278,0.723,3.919,41.0
40.844,0.724,3.657,39.0
40.947,0.734,3.446,42.0
40.567,0.732,4.564,40.0
40.681,0.743,4.355,37.0
41.004,0.756,4.167,37.0
41.147,0.767,3.955,37.0
40.913,0.771,3.711,40.0
40.796,0.778,3.48,38.0
40.499,0.777,4.603,40.0
40.731,0.789,4.408,37.0
40.83,0.8,4.196,40.0
41.144,0.814,4.0,41.0
40.76,0.815,3.742,40.0
40.701,0.822,3.517,29.0
40.393,0.821,4.636,50.0
40.601,0.834,4.438,33.0
40.763,0.845,4.233,46.0
41.33,0.865,4.063,24.0
40.933,0.865,3.802,40.0
40.634,0.867,3.553,32.0
40.364,0.867,4.675,48.0
40.545,0.879,4.474,37.0
40.777,0.892,4.277,37.0
40.959,0.904,4.069,31.0
40.839,0.91,3.835,31.0
40.649,0.914,3.596,39.0
40.535,0.918,4.737,41.0
40.526,0.926,4.514,43.0
40.719,0.939,4.312,43.0
40.861,0.95,4.1,40.0
40.85,0.959,3.876,28.0
40.925,0.969,3.661,20.0
40.321,0.961,4.751,29.0
40.447,0.972,4.544,41.0
40.617,0.984,4.34,39.0
40.885,0.999,4.141,40.0
40.646,1.002,3.895,35.0
40.787,1.014,3.686,38.0
40.25,1.008,4.78,39.0
40.356,1.018,4.571,35.0
40.689,1.035,4.385,38.0
40.809,1.046,4.17,45.0
40.584,1.049,3.925,37.0
40.742,1.061,3.718,23.0
40.279,1.057,4.82,36.0
40.328,1.066,4.603,36.0
40.658,1.083,4.417,45.0
40.977,1.1,4.223,41.0
40.667,1.1,3.968,33.0
40.794,1.112,3.757,11.0
40.209,1.104,4.845,46.0
40.46,1.119,4.652,39.0
40.731,1.134,4.459,36.0
41.045,1.152,4.264,39.0
40.672,1.149,4.001,39.0
40.717,1.159,3.783,29.0
40.28,1.155,4.887,34.0
40.499,1.169,4.689,34.0
40.672,1.183,4.485,31.0
40.918,1.199,4.282,37.0
41.034,1.21,4.069,40.0
41.014,1.218,3.841,44.0
40.387,1.208,4.93,31.0
40.57,1.222,4.728,45.0
40.993,1.243,4.551,16.0
40.747,1.244,4.294,36.0
41.216,1.267,4.117,20.0
41.01,1.268,3.871,26.0
40.845,1.273,5.015,46.0
40.516,1.271,4.75,47.0
41.826,1.32,4.672,34.0
40.786,1.295,4.326,37.0
40.673,1.3,4.09,42.0
41.17,1.324,3.913,28.0
40.94,1.327,5.055,46.0
40.571,1.323,4.784,46.0
41.374,1.357,4.649,25.0
40.742,1.345,4.348,43.0
40.725,1.353,4.121,37.0
40.647,1.358,3.889,38.0
41.236,1.388,5.117,43.0
40.87,1.384,4.844,27.0
41.545,1.415,4.694,40.0
40.772,1.397,4.376,16.0
40.781,1.406,4.151,38.0
40.463,1.403,3.895,40.0
41.442,1.448,5.167,31.0
41.106,1.445,4.896,14.0
41.507,1.467,4.713,16.0
40.699,1.447,4.391,40.0
40.895,1.461,4.185,33.0
40.491,1.455,3.92,39.0
41.582,1.506,5.207,34.0
40.967,1.491,4.901,38.0
41.453,1.517,4.728,16.0
40.86,1.503,4.429,36.0
40.612,1.502,4.176,32.0
40.501,1.506,3.941,38.0
41.473,1.554,5.213,25.0
40.955,1.542,4.919,40.0
42.647,1.614,4.884,16.0
40.907,1.556,4.453,26.0
40.541,1.55,4.187,38.0
40.556,1.558,3.964,27.0
40.866,1.583,5.155,19.0
40.928,1.593,4.934,28.0
42.591,1.666,4.896,32.0
40.643,1.597,4.441,35.0
40.554,1.601,4.205,38.0
40.481,1.607,3.973,30.0
40.967,1.638,5.184,26.0
44.484,1.787,5.379,5.0
45.334,1.829,5.228,3.0
40.608,1.646,4.452,40.0
40.506,1.65,4.215,32.0
40.466,1.656,3.986,28.0
44.546,1.837,5.653,7.0
44.486,1.843,5.395,4.0
45.342,1.887,5.244,23.0
40.651,1.699,4.47,43.0
40.501,1.7,4.227,39.0
41.356,1.745,4.086,17.0
44.691,1.899,5.685,4.0
41.601,1.776,5.058,11.0
45.305,1.942,5.253,14.0
40.674,1.751,4.484,40.0
40.636,1.757,4.253,37.0
41.466,1.8,4.108,16.0
41.519,1.816,5.292,6.0
41.665,1.83,5.076,36.0
0.0,0.0,0.0,0.0
40.675,1.801,4.494,31.0
40.935,1.821,4.293,36.0
40.949,1.829,4.066,33.0
51.13,2.302,6.528,9.0
41.78,1.888,5.098,35.0
41.824,1.897,4.868,22.0
40.786,1.857,4.514,24.0
41.105,1.879,4.318,24.0
40.94,1.879,4.072,37.0
41.488,1.918,5.304,12.0
41.839,1.942,5.112,38.0
41.79,1.947,4.87,39.0
40.839,1.91,4.526,32.0
40.884,1.92,4.301,37.0
40.925,1.929,4.076,37.0
41.531,1.972,5.314,11.0
41.551,1.98,5.082,40.0
41.773,1.998,4.873,41.0
45.392,2.178,5.035,20.0
40.859,1.968,4.302,39.0
41.062,1.985,4.093,36.0
44.852,2.185,5.743,4.0
41.607,2.034,5.091,29.0
41.761,2.048,4.874,33.0
45.77,2.253,5.079,20.0
40.737,2.012,4.291,41.0
41.077,2.036,4.096,38.0
41.542,2.075,5.32,9.0
41.946,2.102,5.134,27.0
41.757,2.099,4.874,38.0
40.767,2.056,4.524,47.0
40.782,2.064,4.295,39.0
40.801,2.072,4.068,34.0
41.496,2.123,5.314,26.0
41.852,2.147,5.121,30.0
41.806,2.152,4.878,40.0
40.725,2.103,4.518,14.0
40.724,2.109,4.288,39.0
40.921,2.126,4.078,31.0
41.443,2.17,5.304,20.0
41.629,2.186,5.091,35.0
41.733,2.198,4.867,42.0
41.16,2.174,4.563,17.0
40.718,2.158,4.283,41.0
45.157,2.4,4.496,21.0
50.906,2.726,6.51,8.0
41.584,2.233,5.081,29.0
41.757,2.249,4.865,36.0
40.949,2.211,4.534,31.0
40.69,2.204,4.275,41.0
40.905,2.222,4.066,26.0
44.706,2.446,5.71,5.0
41.918,2.3,5.115,32.0
41.695,2.294,4.85,42.0
41.049,2.265,4.538,16.0
40.729,2.253,4.272,43.0
45.976,2.55,4.562,8.0
44.716,2.499,5.703,7.0
41.815,2.343,5.094,16.0
41.726,2.344,4.845,32.0
40.888,2.303,4.511,2.0
40.777,2.302,4.268,37.0
45.985,2.603,4.553,15.0
44.7,2.549,5.69,7.0
41.576,2.377,5.055,35.0
41.762,2.393,4.839,31.0
40.854,2.347,4.497,3.0
40.889,2.355,4.269,36.0
45.497,2.627,4.492,19.0
44.727,2.601,5.681,13.0
41.54,2.421,5.038,35.0
41.755,2.439,4.826,43.0
63.077,3.694,6.924,7.0
40.884,2.4,4.255,22.0
44.757,2.634,4.405,25.0
44.762,2.652,5.67,12.0
41.436,2.46,5.012,46.0
41.896,2.494,4.828,38.0
63.251,3.773,6.921,8.0
40.839,2.441,4.237,26.0
44.692,2.678,4.382,39.0
44.823,2.704,5.662,23.0
41.467,2.507,5.0,44.0
41.604,2.521,4.778,41.0
46.657,2.833,5.088,8.0
40.812,2.484,4.218,8.0
44.771,2.731,4.372,25.0
44.853,2.754,5.647,27.0
41.703,2.566,5.011,29.0
41.637,2.567,4.764,38.0
52.263,3.229,5.676,11.0
52.294,3.237,5.382,39.0
45.376,2.815,4.411,19.0
44.877,2.803,5.629,6.0
41.804,2.616,5.004,40.0
41.647,2.611,4.746,33.0
52.231,3.281,5.648,16.0
52.271,3.29,5.354,19.0
52.301,3.298,5.06,8.0
41.739,2.65,5.215,30.0
41.599,2.645,4.958,40.0
52.178,3.324,5.92,6.0
52.24,3.334,5.622,15.0
52.276,3.342,5.328,27.0
52.313,3.351,5.033,8.0
41.784,2.695,5.198,30.0
41.592,2.687,4.935,36.0
41.766,2.703,4.715,16.0
52.305,3.391,5.6,7.0
42.257,2.744,4.283,15.0
45.576,2.965,4.359,11.0
41.846,2.741,5.181,36.0
41.517,2.723,4.901,42.0
41.762,2.743,4.69,32.0
46.592,3.066,4.961,10.0
42.237,2.783,4.256,24.0
45.514,3.004,4.326,13.0
41.8,2.778,5.149,19.0
41.544,2.765,4.878,28.0
41.694,2.778,4.656,19.0
46.55,3.107,4.927,10.0
42.043,2.81,4.209,33.0
41.985,2.81,3.963,21.0
41.529,2.798,5.089,23.0
41.542,2.803,4.851,42.0
41.865,2.828,4.647,7.0
46.483,3.145,4.888,13.0
41.946,2.842,4.171,34.0
42.041,2.852,3.94,30.0
41.473,2.832,5.053,42.0
41.55,2.841,4.823,37.0
53.22,3.643,5.87,11.0
46.446,3.183,4.852,12.0
41.994,2.882,4.146,30.0
42.092,2.893,3.915,27.0
41.492,2.869,5.025,30.0
41.568,2.878,4.794,39.0
42.069,2.916,4.609,25.0
46.445,3.223,4.817,8.0
41.531,2.886,4.069,27.0
41.785,2.907,3.855,16.0
41.496,2.905,4.993,33.0
41.582,2.914,4.763,42.0
42.025,2.948,4.572,16.0
46.464,3.263,4.783,7.0
41.377,2.909,4.021,22.0
41.443,2.918,3.79,28.0
41.541,2.942,4.965,20.0
41.701,2.957,4.743,39.0
53.084,3.768,5.731,10.0
52.996,3.766,5.411,4.0
41.31,2.938,3.98,47.0
41.493,2.955,3.76,30.0
46.044,3.298,5.464,10.0
41.619,2.984,4.698,41.0
46.06,3.306,4.933,4.0
41.872,3.008,4.239,12.0
41.481,2.983,3.961,20.0
41.406,2.98,3.716,29.0
46.083,3.336,5.428,7.0
41.609,3.014,4.66,42.0
46.052,3.339,4.891,14.0
46.044,3.342,4.62,10.0
41.28,2.999,3.905,34.0
41.295,3.003,3.669,40.0
41.713,3.05,4.874,34.0
46.058,3.37,5.115,3.0
46.008,3.369,4.844,17.0
41.17,3.017,4.093,28.0
41.345,3.032,3.873,38.0
41.49,3.046,3.648,35.0
41.707,3.079,4.834,27.0
45.948,3.394,5.059,16.0
46.022,3.402,4.801,18.0
41.222,3.049,4.058,35.0
41.278,3.056,3.826,38.0
41.256,3.057,3.587,39.0
41.758,3.11,4.798,25.0
45.817,3.415,4.999,20.0
46.021,3.432,4.755,13.0
41.27,3.08,4.022,36.0
41.33,3.087,3.789,23.0
41.276,3.085,3.547,39.0
41.655,3.129,4.744,38.0
56.587,4.253,6.116,0.0
41.227,3.1,4.218,12.0
41.157,3.097,3.969,39.0
41.58,3.13,3.77,16.0
41.329,3.114,3.509,39.0
41.886,3.172,4.726,35.0
58.393,4.424,6.25,4.0
41.249,3.126,4.176,28.0
41.145,3.12,3.924,32.0
41.372,3.139,3.707,17.0
41.421,3.144,3.473,23.0
41.903,3.197,4.683,25.0
41.183,3.142,4.364,2.0
52.692,4.022,5.278,6.0
41.118,3.14,3.877,36.0
41.222,3.15,3.649,44.0
41.481,3.171,3.433,27.0
45.25,3.476,5.007,11.0
41.187,3.164,4.318,10.0
41.112,3.159,4.073,30.0
41.15,3.164,3.834,8.0
41.29,3.175,3.609,42.0
41.528,3.195,3.391,37.0
45.258,3.498,4.956,16.0
41.202,3.186,4.273,15.0
41.101,3.178,4.025,24.0
41.199,3.187,3.792,24.0
41.3,3.196,3.562,40.0
41.648,3.224,3.353,24.0
45.254,3.519,4.903,16.0
41.172,3.202,4.222,35.0
41.08,3.195,3.974,37.0
41.224,3.207,3.746,34.0
41.344,3.217,3.518,38.0
41.715,3.247,3.309,35.0
45.248,3.537,4.849,17.0
41.164,3.218,4.172,43.0
41.064,3.211,3.923,41.0
41.344,3.233,3.707,38.0
41.49,3.245,3.48,30.0
41.727,3.264,3.259,36.0
45.195,3.551,4.787,20.0
41.217,3.238,4.126,35.0
41.298,3.244,3.895,24.0
41.434,3.255,3.664,36.0
41.551,3.265,3.434,42.0
41.675,3.275,3.204,24.0
41.205,3.251,4.313,24.0
41.257,3.255,4.078,21.0
41.297,3.258,3.843,31.0
41.283,3.257,3.599,40.0
41.526,3.276,3.38,43.0
41.67,3.288,3.151,30.0
41.197,3.263,4.26,48.0
41.198,3.262,4.02,23.0
41.243,3.266,3.785,35.0
41.249,3.266,3.543,42.0
41.58,3.292,3.332,37.0
41.653,3.298,3.097,37.0
41.194,3.273,4.206,39.0
41.224,3.275,3.969,16.0
41.25,3.277,3.733,39.0
41.276,3.278,3.492,39.0
41.604,3.304,3.279,30.0
41.719,3.313,3.048,37.0
41.213,3.284,4.154,34.0
41.702,3.322,3.961,17.0
41.215,3.283,3.675,36.0
41.515,3.306,3.458,21.0
41.574,3.31,3.223,34.0
41.727,3.322,2.993,42.0
41.21,3.291,4.098,32.0
41.704,3.33,3.905,25.0
41.396,3.304,3.636,33.0
41.647,3.323,3.413,17.0
41.872,3.34,3.19,37.0
41.843,3.337,2.946,29.0
41.163,3.294,4.037,11.0
41.328,3.306,3.813,38.0
41.443,3.313,3.584,31.0
45.593,3.644,3.674,5.0
41.824,3.342,3.129,40.0
41.835,3.342,2.888,28.0
0.0,0.0,0.0,0.0
41.306,3.308,3.755,37.0
41.338,3.309,3.518,36.0
41.539,3.323,3.29,26.0
41.75,3.339,3.066,43.0
41.852,3.346,2.832,38.0
41.706,3.344,3.975,18.0
41.361,3.314,3.702,24.0
41.556,3.328,3.479,21.0
41.589,3.329,3.236,28.0
41.745,3.34,3.007,44.0
45.812,3.664,3.036,5.0
41.817,3.353,3.926,21.0
41.33,3.312,3.64,35.0
41.803,3.348,3.44,16.0
41.913,3.355,3.202,33.0
41.832,3.347,2.955,29.0
45.79,3.662,2.97,27.0
41.444,3.323,3.832,28.0
41.453,3.321,3.592,33.0
45.571,3.648,3.685,3.0
41.837,3.348,3.137,39.0
45.724,3.656,3.164,3.0
45.791,3.66,2.905,32.0
41.317,3.31,3.761,37.0
41.326,3.308,3.522,37.0
41.552,3.324,3.3,23.0
41.732,3.336,3.069,42.0
41.849,3.343,2.836,37.0
45.794,3.656,2.839,33.0
41.328,3.306,3.702,30.0
41.503,3.317,3.476,16.0
41.542,3.318,3.239,29.0
41.717,3.329,3.007,43.0
45.872,3.658,3.041,5.0
45.812,3.651,2.773,31.0
41.414,3.307,3.649,37.0
41.641,3.322,3.427,19.0
41.842,3.335,3.201,35.0
41.805,3.33,2.952,21.0
45.866,3.65,2.974,21.0
45.851,3.646,2.708,14.0
41.381,3.296,3.584,35.0
41.621,3.312,3.363,23.0
41.738,3.318,3.131,33.0
41.889,3.327,2.895,32.0
45.831,3.638,2.903,16.0
45.879,3.638,2.642,16.0
41.278,3.278,3.513,42.0
41.617,3.301,3.301,31.0
41.688,3.304,3.065,38.0
41.93,3.32,2.836,15.0
45.824,3.625,2.835,16.0
45.895,3.628,2.575,13.0
41.54,3.287,3.473,39.0
41.637,3.291,3.24,37.0
41.764,3.298,3.007,43.0
45.924,3.623,3.037,12.0
45.86,3.614,2.768,13.0
45.916,3.615,2.507,12.0
41.534,3.274,3.41,48.0
41.65,3.279,3.178,25.0
41.853,3.291,2.951,32.0
45.895,3.605,2.966,16.0
45.908,3.602,2.702,15.0
45.939,3.601,2.439,14.0
41.591,3.263,3.351,42.0
41.629,3.262,3.113,30.0
41.893,3.278,2.89,27.0
45.881,3.586,2.895,15.0
45.949,3.588,2.634,24.0
45.966,3.585,2.37,16.0
41.731,3.257,3.299,38.0
41.656,3.247,3.051,44.0
45.913,3.574,3.098,8.0
45.907,3.569,2.827,18.0
45.986,3.571,2.567,18.0
74.589,5.785,3.733,8.0
41.718,3.237,3.233,33.0
41.737,3.234,2.993,49.0
45.921,3.553,3.028,16.0
45.942,3.55,2.76,19.0
71.938,5.552,3.906,2.0
71.603,5.52,3.475,14.0
41.626,3.209,3.162,27.0
41.862,3.223,2.938,24.0
45.931,3.531,2.958,36.0
46.008,3.532,2.692,4.0
71.904,5.512,3.793,10.0
71.702,5.489,3.369,23.0
41.686,3.192,3.102,38.0
42.162,3.223,2.894,17.0
45.967,3.508,2.889,23.0
79.553,6.062,4.533,25.0
91.369,6.954,4.679,16.0
90.653,6.889,4.12,12.0
41.739,3.171,3.041,34.0
45.942,3.484,3.081,27.0
81.347,6.16,4.986,16.0
79.384,6.002,4.4,17.0
91.289,6.892,4.534,13.0
71.4,5.382,3.135,20.0
41.845,3.153,2.984,33.0
45.967,3.457,3.012,21.0
74.038,5.559,4.425,13.0
74.163,5.56,3.997,9.0
71.45,5.348,3.439,25.0
90.552,6.767,3.837,11.0
45.943,3.431,3.205,7.0
81.791,6.097,5.234,17.0
81.331,6.052,4.734,11.0
81.07,6.022,4.243,13.0
90.265,6.694,4.205,15.0
90.613,6.709,3.699,16.0
45.983,3.401,3.137,10.0
81.275,6.0,5.075,18.0
79.292,5.843,4.494,15.0
72.342,5.321,3.676,9.0
71.348,5.238,3.214,16.0
90.538,6.637,3.558,10.0
41.866,3.065,2.792,27.0
80.929,5.913,4.93,12.0
80.352,5.86,4.43,13.0
90.326,6.575,4.45,14.0
90.46,6.572,3.937,14.0
102.094,7.404,3.855,29.0
41.93,3.037,2.731,41.0
41.689,3.013,2.475,4.0
80.846,5.831,4.333,14.0
71.744,5.163,3.424,20.0
71.196,5.114,2.989,13.0
47.169,3.381,1.709,14.0
41.963,3.003,2.668,37.0
41.647,2.974,2.408,16.0
80.886,5.765,4.211,17.0
71.626,5.094,3.309,28.0
90.409,6.416,3.657,11.0
47.194,3.343,1.638,45.0
41.81,2.956,2.595,24.0
52.488,3.702,2.955,5.0
90.751,6.388,4.586,11.0
52.325,3.674,2.337,22.0
52.282,3.663,2.035,21.0
47.233,3.302,1.567,55.0
41.637,2.905,2.521,42.0
52.342,3.644,2.867,19.0
52.302,3.633,2.564,18.0
52.26,3.621,2.256,26.0
52.244,3.612,1.955,12.0
47.279,3.261,1.498,51.0
41.668,2.868,2.459,44.0
52.272,3.588,2.784,23.0
52.245,3.577,2.482,25.0
52.225,3.568,2.176,44.0
48.399,3.298,1.738,9.0
47.337,3.218,1.428,37.0
41.731,2.83,2.4,36.0
52.255,3.535,2.704,24.0
52.225,3.523,2.403,42.0
52.223,3.514,2.097,45.0
48.395,3.249,1.665,10.0
47.424,3.176,1.36,17.0
52.252,3.489,2.927,15.0
52.246,3.479,2.626,37.0
52.237,3.469,2.325,42.0
52.248,3.461,2.02,40.0
48.427,3.2,1.595,11.0
47.53,3.132,1.292,15.0
52.247,3.432,2.849,43.0
52.251,3.423,2.549,41.0
52.284,3.416,2.25,31.0
52.355,3.41,1.947,9.0
48.513,3.151,1.525,10.0
47.656,3.087,1.225,15.0
52.256,3.374,2.773,31.0
52.325,3.368,2.475,28.0
110.994,7.126,4.613,17.0
50.14,3.209,1.791,7.0
48.606,3.102,1.458,10.0
47.754,3.039,1.159,14.0
52.309,3.317,2.699,35.0
94.377,5.966,4.327,5.0
111.061,7.001,4.455,11.0
50.16,3.152,1.719,5.0
48.815,3.058,1.393,10.0
47.879,2.99,1.092,12.0
90.076,5.605,4.516,12.0
111.038,6.886,4.929,45.0
111.029,6.863,4.292,55.0
50.55,3.114,1.659,6.0
49.023,3.01,1.327,14.0
48.001,2.938,1.025,10.0
115.378,7.035,5.618,8.0
115.446,7.014,4.959,26.0
115.488,6.994,4.298,34.0
50.71,3.06,1.591,17.0
49.104,2.953,1.26,16.0
48.169,2.887,0.96,8.0
115.417,6.888,5.454,18.0
115.448,6.867,4.794,33.0
115.426,6.84,4.131,36.0
50.725,2.995,1.52,24.0
49.161,2.892,1.191,12.0
48.326,2.834,0.894,8.0
53.123,3.1,2.435,1.0
118.733,6.903,4.762,14.0
118.908,6.887,4.087,18.0
50.677,2.924,1.446,24.0
49.22,2.83,1.123,5.0
48.49,2.778,0.829,7.0
52.466,2.99,2.332,8.0
119.689,6.797,4.634,29.0
119.729,6.773,3.95,27.0
50.651,2.854,1.376,24.0
49.609,2.785,1.064,3.0
48.689,2.722,0.766,9.0
119.677,6.656,5.154,33.0
119.682,6.628,4.469,25.0
59.456,3.279,1.88,23.0
50.632,2.781,1.306,13.0
50.172,2.745,1.008,11.0
48.899,2.664,0.703,6.0
59.44,3.22,2.479,24.0
59.42,3.206,2.138,28.0
59.387,3.19,1.797,31.0
50.717,2.713,1.24,8.0
50.174,2.672,0.94,19.0
49.229,2.611,0.642,7.0
59.409,3.132,2.398,42.0
59.406,3.117,2.058,33.0
59.42,3.104,1.719,31.0
59.443,3.092,1.375,7.0
50.262,2.602,0.875,11.0
49.624,2.558,0.581,3.0
59.422,3.043,2.32,28.0
59.458,3.031,1.981,27.0
124.767,6.33,3.447,29.0
124.757,6.3,2.723,8.0
50.523,2.54,0.814,17.0
120.084,6.009,1.253,8.0
59.531,2.959,2.248,6.0
125.27,6.197,4.016,3.0
120.139,5.913,3.166,15.0
120.129,5.885,2.469,17.0
50.701,2.471,0.753,10.0
120.039,5.822,1.1,11.0
0.0,0.0,0.0,0.0
61.051,2.925,1.88,4.0
120.103,5.724,3.014,19.0
127.654,6.051,2.463,2.0
50.945,2.403,0.693,5.0
119.996,5.631,0.95,10.0
0.0,0.0,0.0,0.0
61.905,2.868,1.83,7.0
61.164,2.818,1.46,15.0
66.117,3.029,1.195,21.0
66.101,3.012,0.818,23.0
66.086,2.995,0.442,16.0
66.136,2.974,2.252,16.0
63.197,2.826,1.792,8.0
62.438,2.775,1.415,7.0
61.518,2.718,1.038,7.0
61.062,2.683,0.683,8.0
66.04,2.885,0.363,20.0
65.999,2.859,2.168,29.0
0.0,0.0,0.0,0.0
63.813,2.731,1.371,8.0
63.407,2.697,0.995,7.0
63.221,2.673,0.633,6.0
65.954,2.771,0.285,16.0
66.09,2.753,2.094,26.0
66.177,2.74,1.721,20.0
120.08,4.938,2.44,14.0
120.092,4.908,1.747,21.0
66.151,2.686,0.587,23.0
65.742,2.651,0.209,15.0
194.872,7.787,5.954,22.0
120.094,4.767,2.987,9.0
193.753,7.637,3.718,22.0
120.012,4.697,1.609,13.0
119.988,4.663,0.927,10.0
65.371,2.523,0.134,17.0
195.483,7.472,5.753,8.0
120.094,4.556,2.852,9.0
120.068,4.522,2.17,20.0
72.455,2.709,0.891,17.0
72.206,2.68,0.479,14.0
65.12,2.4,0.063,7.0
72.438,2.641,2.053,28.0
72.398,2.619,1.64,30.0
72.365,2.597,1.23,29.0
72.342,2.577,0.812,29.0
71.94,2.542,0.4,17.0
64.879,2.275,-0.006,3.0
72.387,2.511,1.974,34.0
72.394,2.49,1.564,38.0
72.377,2.468,1.154,37.0
72.346,2.447,0.736,35.0
71.744,2.406,0.324,12.0
60.411,2.008,-0.068,3.0
72.481,2.382,1.902,32.0
72.45,2.36,1.491,32.0
72.457,2.339,1.08,31.0
72.423,2.317,0.663,33.0
71.49,2.266,0.25,14.0
61.481,1.932,-0.132,6.0
74.517,2.313,1.881,7.0
74.292,2.284,1.455,3.0
78.968,2.404,1.099,5.0
78.858,2.377,0.644,15.0
71.076,2.122,0.179,10.0
62.847,1.859,-0.196,2.0
76.636,2.236,1.86,9.0
76.526,2.211,1.425,6.0
76.659,2.191,0.994,7.0
78.804,2.229,0.568,16.0
65.459,1.831,0.102,5.0
57.135,1.582,-0.233,2.0
78.873,2.153,1.839,35.0
78.896,2.129,1.394,34.0
78.907,2.106,0.949,35.0
78.79,2.079,0.495,12.0
65.975,1.721,0.042,5.0
55.495,1.431,-0.277,0.0
119.992,3.048,2.689,20.0
85.311,2.14,1.43,24.0
85.283,2.113,0.949,28.0
78.765,1.927,0.424,8.0
67.267,1.625,-0.017,6.0
0.0,0.0,0.0,0.0
85.24,2.0,1.835,35.0
85.24,1.972,1.354,38.0
85.22,1.946,0.874,35.0
72.012,1.622,0.325,5.0
68.994,1.532,-0.077,0.0
48.771,1.067,-0.329,0.0
85.299,1.833,1.763,34.0
85.325,1.807,1.283,33.0
85.335,1.78,0.802,29.0
78.028,1.603,0.286,7.0
69.789,1.412,-0.136,0.0
0.0,0.0,0.0,0.0
87.517,1.709,1.738,9.0
87.54,1.683,1.246,11.0
91.873,1.736,0.79,20.0
73.873,1.373,0.212,4.0
0.0,0.0,0.0,0.0
45.952,0.825,-0.384,0.0
91.855,1.614,1.753,40.0
91.892,1.586,1.237,42.0
91.817,1.554,0.72,23.0
74.527,1.237,0.157,3.0
0.0,0.0,0.0,0.0
0.0,0.0,0.0,0.0
99.328,1.546,1.821,15.0
98.978,1.509,1.258,6.0
92.125,1.372,0.653,15.0
76.659,1.118,0.106,1.0
53.428,0.762,-0.225,0.0
43.966,0.613,-0.432,1.0
98.548,1.336,1.736,30.0
98.543,1.303,1.183,32.0
85.479,1.103,0.547,6.0
78.882,0.992,0.054,4.0
0.0,0.0,0.0,0.0
42.223,0.503,-0.444,2.0
98.564,1.138,1.67,29.0
98.548,1.105,1.118,28.0
85.555,0.931,0.49,4.0
0.0,0.0,0.0,0.0
54.62,0.557,-0.304,0.0
41.068,0.405,-0.459,0.0
104.737,0.996,1.708,8.0
104.774,0.961,1.121,4.0
91.465,0.809,0.466,6.0
0.0,0.0,0.0,0.0
48.596,0.396,-0.301,0.0
0.0,0.0,0.0,0.0
101.486,0.757,1.593,1.0
104.933,0.746,1.059,17.0
91.929,0.622,0.414,2.0
0.0,0.0,0.0,0.0
48.645,0.296,-0.329,0.0
0.0,0.0,0.0,0.0
111.103,0.596,1.679,34.0
111.003,0.559,1.058,20.0
94.715,0.444,0.373,1.0
0.0,0.0,0.0,0.0
49.867,0.198,-0.366,0.0
0.0,0.0,0.0,0.0
119.815,0.394,1.747,15.0
111.082,0.327,0.999,16.0
92.943,0.242,0.317,2.0
0.0,0.0,0.0,0.0
45.63,0.086,-0.358,1.0
0.0,0.0,0.0,0.0
111.125,0.135,1.565,18.0
110.97,0.095,0.943,8.0
0.0,0.0,0.0,0.0
0.0,0.0,0.0,0.0
45.141,-0.008,-0.376,1.0
37.498,-0.02,-0.521,0.0
117.413,-0.105,1.598,11.0
111.181,-0.14,0.893,13.0
0.0,0.0,0.0,0.0
0.0,0.0,0.0,0.0
45.048,-0.104,-0.395,1.0
35.636,-0.094,-0.511,0.0
119.723,-0.359,1.578,17.0
114.344,-0.382,0.871,4.0
0.0,0.0,0.0,0.0
0.0,0.0,0.0,0.0
0.0,0.0,0.0,0.0
36.033,-0.172,-0.531,0.0
119.728,-0.614,1.531,14.0
114.199,-0.624,0.826,6.0
0.0,0.0,0.0,0.0
0.0,0.0,0.0,0.0
0.0,0.0,0.0,0.0
35.426,-0.244,-0.535,0.0
119.711,-0.863,1.489,18.0
114.344,-0.866,0.787,11.0
0.0,0.0,0.0,0.0
0.0,0.0,0.0,0.0
0.0,0.0,0.0,0.0
34.876,-0.314,-0.538,0.0
119.744,-1.12,1.451,150.0
119.754,-1.164,0.787,93.0
0.0,0.0,0.0,0.0
0.0,0.0,0.0,0.0
0.0,0.0,0.0,0.0
0.0,0.0,0.0,0.0
139.413,-1.599,1.651,5.0
139.255,-1.647,0.877,3.0
0.0,0.0,0.0,0.0
0.0,0.0,0.0,0.0
0.0,0.0,0.0,0.0
34.699,-0.461,-0.554,0.0
139.406,-1.898,1.617,4.0
138.895,-1.939,0.842,12.0
0.0,0.0,0.0,0.0
0.0,0.0,0.0,0.0
0.0,0.0,0.0,0.0
34.235,-0.528,-0.554,0.0
139.152,-2.189,1.586,6.0
139.069,-2.238,0.816,9.0
0.0,0.0,0.0,0.0
