X,Y,Z,Reflectivity
48.448,-0.611,3.311,28.0
48.458,-0.605,3.027,16.0
60.54,-0.747,3.428,29.0
81.55,-0.996,4.134,16.0
112.1,-1.353,5.029,8.0
190.421,-2.273,7.431,24.0
48.312,-0.566,3.214,37.0
61.181,-0.708,3.712,8.0
60.588,-0.693,3.32,33.0
81.259,-0.919,3.972,24.0
95.558,-1.069,4.113,12.0
190.522,-2.108,7.093,41.0
48.566,-0.527,3.143,40.0
60.682,-0.65,3.571,26.0
60.485,-0.64,3.206,7.0
85.937,-0.899,4.045,13.0
189.784,-1.962,7.823,143.0
190.59,-1.948,6.748,19.0
60.189,-0.602,3.784,7.0
60.6,-0.599,3.455,29.0
86.326,-0.843,4.418,9.0
80.712,-0.779,3.651,21.0
190.11,-1.812,7.489,30.0
214.75,-2.021,7.208,7.0
62.67,-0.577,3.824,6.0
60.723,-0.552,3.349,10.0
86.017,-0.771,4.241,9.0
104.216,-0.922,4.519,5.0
190.484,-1.665,7.148,44.0
214.476,-1.85,6.797,6.0
60.726,-0.511,3.59,2.0
77.934,-0.647,4.151,11.0
86.011,-0.705,4.077,7.0
189.767,-1.534,7.868,36.0
190.609,-1.52,6.788,17.0
205.513,-1.617,6.12,11.0
60.73,-0.466,3.474,13.0
81.486,-0.617,4.184,10.0
80.732,-0.603,3.673,11.0
190.592,-1.402,7.539,16.0
215.465,-1.563,7.263,6.0
119.811,-0.857,3.339,5.0
60.755,-0.423,3.357,18.0
81.075,-0.555,4.006,5.0
95.305,-0.643,4.15,16.0
190.506,-1.268,7.163,44.0
215.488,-1.413,6.846,6.0
119.76,-0.773,3.104,20.0
77.698,-0.488,4.142,15.0
80.902,-0.499,3.837,19.0
103.02,-0.626,4.285,8.0
190.556,-1.141,6.793,19.0
0.0,0.0,0.0,0.0
119.809,-0.695,2.87,149.0
81.38,-0.457,4.177,9.0
95.713,-0.53,4.352,12.0
189.938,-1.034,7.523,67.0
206.803,-1.107,6.961,11.0
119.82,-0.631,3.333,10.0
119.836,-0.62,2.632,7.0
80.716,-0.404,3.98,5.0
95.584,-0.47,4.155,13.0
190.57,-0.921,7.167,32.0
206.693,-0.982,6.543,19.0
119.792,-0.559,3.093,62.0
119.851,-0.55,2.393,17.0
81.06,-0.359,3.835,8.0
95.64,-0.416,3.966,13.0
190.673,-0.814,6.789,18.0
0.0,0.0,0.0,0.0
119.803,-0.492,2.851,7.0
0.0,0.0,0.0,0.0
81.079,-0.314,3.672,7.0
117.351,-0.446,4.628,29.0
117.49,-0.438,3.945,3.0
119.777,-0.438,3.308,21.0
119.832,-0.429,2.608,150.0
119.725,-0.42,1.904,4.0
95.382,-0.321,4.124,15.0
117.409,-0.387,4.388,29.0
0.0,0.0,0.0,0.0
119.827,-0.378,3.064,24.0
119.821,-0.37,2.361,39.0
119.796,-0.362,1.661,18.0
117.351,-0.339,4.831,21.0
117.419,-0.331,4.147,36.0
70.178,-0.193,2.067,6.0
193.911,-0.523,4.559,16.0
119.87,-0.316,2.117,12.0
119.685,-0.308,1.413,19.0
117.382,-0.287,4.589,26.0
117.425,-0.28,3.904,28.0
119.814,-0.279,3.282,25.0
114.755,-0.26,2.459,2.0
119.829,-0.265,1.867,23.0
119.735,-0.258,1.165,9.0
117.393,-0.239,4.346,26.0
70.119,-0.139,2.184,13.0
119.786,-0.231,3.031,8.0
112.513,-0.211,2.176,5.0
119.725,-0.219,1.616,5.0
111.098,-0.197,0.849,12.0
117.438,-0.196,4.102,23.0
70.136,-0.114,2.038,9.0
115.288,-0.181,2.676,2.0
117.339,-0.179,2.024,22.0
117.393,-0.173,1.336,19.0
110.023,-0.157,0.608,2.0
117.442,-0.157,3.851,26.0
117.483,-0.152,3.165,26.0
112.618,-0.14,2.374,2.0
117.347,-0.141,1.773,14.0
117.347,-0.136,1.085,12.0
0.0,0.0,0.0,0.0
70.136,-0.073,2.152,18.0
117.442,-0.117,2.914,18.0
117.357,-0.113,2.226,21.0
117.339,-0.109,1.527,12.0
111.008,-0.099,0.793,12.0
0.0,0.0,0.0,0.0
117.427,-0.091,3.353,25.0
114.119,-0.085,2.588,6.0
117.29,-0.083,1.972,24.0
117.327,-0.08,1.274,13.0
0.0,0.0,0.0,0.0
0.0,0.0,0.0,0.0
117.405,-0.065,3.1,27.0
117.338,-0.062,2.412,12.0
117.315,-0.059,1.723,12.0
111.176,-0.053,0.971,8.0
95.427,-0.043,0.274,1.0
0.0,0.0,0.0,0.0
117.392,-0.043,2.849,6.0
117.309,-0.041,2.159,26.0
117.283,-0.038,1.473,13.0
110.666,-0.034,0.729,10.0
0.0,0.0,0.0,0.0
0.0,0.0,0.0,0.0
117.357,-0.026,2.594,3.0
117.275,-0.024,1.906,16.0
111.19,-0.021,1.155,9.0
96.019,-0.016,0.425,1.0
0.0,0.0,0.0,0.0
45.82,-0.006,-0.333,0.0
117.319,-0.013,2.343,26.0
117.297,-0.012,1.657,15.0
110.987,-0.01,0.917,10.0
0.0,0.0,0.0,0.0
0.0,0.0,0.0,0.0
45.154,-0.002,-0.425,2.0
117.321,-0.005,2.092,27.0
111.111,-0.004,1.33,12.0
110.444,-0.003,0.676,5.0
0.0,0.0,0.0,0.0
0.0,0.0,0.0,0.0
0.0,0.0,0.0,0.0
117.285,0.0,1.838,15.0
111.145,0.0,1.09,8.0
95.61,0.0,0.377,6.0
0.0,0.0,0.0,0.0
45.624,0.0,-0.358,1.0
0.0,0.0,0.0,0.0
111.111,-0.001,1.501,13.0
110.776,-0.001,0.846,12.0
0.0,0.0,0.0,0.0
54.926,-0.001,-0.228,0.0
44.698,-0.001,-0.448,0.0
34.949,-0.001,-0.554,0.0
111.132,-0.005,1.26,13.0
103.283,-0.006,0.567,2.0
0.0,0.0,0.0,0.0
49.864,-0.004,-0.315,0.0
0.0,0.0,0.0,0.0
0.0,0.0,0.0,0.0
111.169,-0.014,1.024,6.0
95.585,-0.013,0.32,2.0
0.0,0.0,0.0,0.0
45.363,-0.007,-0.384,3.0
0.0,0.0,0.0,0.0
29.701,-0.006,-0.599,0.0
110.628,-0.027,0.78,10.0
0.0,0.0,0.0,0.0
55.026,-0.015,-0.256,0.0
41.701,-0.012,-0.442,1.0
33.696,-0.011,-0.554,0.0
0.0,0.0,0.0,0.0
97.262,-0.038,0.477,1.0
0.0,0.0,0.0,0.0
0.0,0.0,0.0,0.0
37.281,-0.017,-0.475,0.0
30.673,-0.015,-0.571,0.0
26.566,-0.014,-0.65,0.0
95.32,-0.056,0.264,1.0
0.0,0.0,0.0,0.0
44.972,-0.029,-0.401,1.0
0.0,0.0,0.0,0.0
29.715,-0.021,-0.616,0.0
24.914,-0.018,-0.663,0.0
0.0,0.0,0.0,0.0
52.16,-0.044,-0.271,0.0
0.0,0.0,0.0,0.0
32.328,-0.029,-0.55,0.0
27.508,-0.026,-0.629,0.0
23.471,-0.023,-0.674,0.0
0.0,0.0,0.0,0.0
45.482,-0.05,-0.332,1.0
0.0,0.0,0.0,0.0
30.804,-0.036,-0.588,0.0
26.292,-0.032,-0.656,0.0
22.644,-0.029,-0.698,0.0
52.233,-0.071,-0.185,0.0
45.534,-0.064,-0.428,0.0
34.959,-0.051,-0.533,0.0
28.534,-0.043,-0.605,0.0
24.541,-0.038,-0.664,0.0
21.545,-0.034,-0.709,0.0
0.0,0.0,0.0,0.0
39.976,-0.07,-0.46,0.0
32.197,-0.058,-0.559,0.0
26.821,-0.05,-0.625,0.0
23.56,-0.045,-0.687,0.0
20.762,-0.041,-0.727,0.0
45.477,-0.094,-0.353,1.0
36.87,-0.079,-0.501,0.0
0.0,0.0,0.0,0.0
25.81,-0.058,-0.656,0.0
22.287,-0.051,-0.697,0.0
19.848,-0.047,-0.737,0.0
0.0,0.0,0.0,0.0
0.0,0.0,0.0,0.0
0.0,0.0,0.0,0.0
24.387,-0.065,-0.67,0.0
21.54,-0.059,-0.718,0.0
19.126,-0.053,-0.75,0.0
39.682,-0.116,-0.472,0.0
0.0,0.0,0.0,0.0
27.07,-0.083,-0.638,0.0
23.278,-0.073,-0.688,0.0
20.48,-0.065,-0.725,0.0
18.404,-0.06,-0.759,0.0
35.783,-0.122,-0.499,0.0
29.395,-0.102,-0.582,0.0
25.577,-0.091,-0.656,0.0
22.044,-0.08,-0.697,1.0
19.695,-0.073,-0.738,0.0
17.676,-0.066,-0.766,0.0
0.0,0.0,0.0,0.0
27.957,-0.112,-0.611,0.0
24.304,-0.099,-0.674,0.0
21.383,-0.089,-0.72,0.0
18.98,-0.08,-0.75,0.0
17.277,-0.074,-0.784,0.0
0.0,0.0,0.0,0.0
26.321,-0.12,-0.629,0.0
23.075,-0.107,-0.686,0.0
20.235,-0.095,-0.722,0.0
18.31,-0.088,-0.76,0.0
16.684,-0.081,-0.79,0.0
29.43,-0.149,-0.59,0.0
25.365,-0.131,-0.657,0.0
22.127,-0.116,-0.702,0.0
19.575,-0.104,-0.738,0.0
17.734,-0.096,-0.772,0.0
16.175,-0.089,-0.799,0.0
27.499,-0.156,-0.606,0.0
24.157,-0.14,-0.674,0.0
21.111,-0.124,-0.712,0.0
18.902,-0.113,-0.75,0.0
17.139,-0.104,-0.78,0.0
15.674,-0.096,-0.805,0.0
0.0,0.0,0.0,0.0
23.032,-0.148,-0.688,0.0
20.245,-0.132,-0.722,0.0
18.294,-0.121,-0.762,0.0
16.591,-0.111,-0.788,0.0
15.132,-0.103,-0.807,0.0
24.929,-0.175,-0.647,0.0
22.003,-0.157,-0.7,0.0
19.583,-0.141,-0.737,0.0
17.595,-0.129,-0.767,0.0
16.123,-0.12,-0.797,0.0
14.773,-0.111,-0.817,0.0
24.002,-0.186,-0.669,0.0
21.249,-0.167,-0.717,0.0
18.928,-0.15,-0.749,0.0
17.074,-0.137,-0.777,0.0
15.561,-0.127,-0.799,0.0
14.379,-0.119,-0.823,0.0
23.038,-0.195,-0.687,0.0
20.227,-0.174,-0.721,0.0
18.293,-0.159,-0.759,0.0
16.607,-0.146,-0.787,0.0
15.199,-0.136,-0.81,0.0
13.98,-0.126,-0.827,0.0
21.964,-0.204,-0.696,0.0
19.65,-0.184,-0.737,0.0
17.603,-0.167,-0.763,0.0
16.04,-0.154,-0.791,0.0
14.813,-0.144,-0.817,0.0
13.622,-0.134,-0.831,0.0
21.089,-0.213,-0.708,0.0
18.991,-0.194,-0.748,0.0
17.045,-0.176,-0.771,0.0
15.753,-0.165,-0.806,0.0
14.348,-0.152,-0.818,0.0
13.389,-0.143,-0.842,0.0
20.426,-0.223,-0.723,0.0
18.329,-0.203,-0.756,0.0
16.648,-0.186,-0.784,0.0
15.226,-0.172,-0.807,0.0
14.076,-0.161,-0.828,0.0
13.038,-0.151,-0.844,0.0
19.632,-0.232,-0.731,0.0
17.697,-0.211,-0.762,0.0
16.169,-0.195,-0.79,0.0
14.729,-0.18,-0.807,0.0
13.727,-0.169,-0.833,0.0
12.661,-0.158,-0.842,0.0
13.253,-0.405,-0.841,0.0
12.238,-0.376,-0.847,0.0
11.385,-0.352,-0.854,0.0
10.766,-0.336,-0.871,0.0
10.211,-0.321,-0.885,0.0
9.692,-0.306,-0.896,0.0
12.909,-0.411,-0.835,0.0
12.013,-0.385,-0.846,0.0
11.264,-0.363,-0.858,0.0
10.611,-0.344,-0.871,0.0
10.099,-0.33,-0.888,0.0
9.612,-0.316,-0.901,0.0
12.731,-0.422,-0.838,0.0
11.841,-0.395,-0.848,0.0
11.136,-0.374,-0.862,0.0
10.515,-0.355,-0.876,0.0
9.977,-0.339,-0.889,0.0
9.527,-0.326,-0.904,0.0
12.539,-0.432,-0.84,0.0
11.678,-0.405,-0.85,0.0
11.01,-0.384,-0.865,0.0
10.381,-0.365,-0.876,0.0
9.898,-0.35,-0.893,0.0
9.42,-0.335,-0.904,0.0
12.388,-0.443,-0.844,0.0
11.52,-0.415,-0.851,0.0
10.918,-0.396,-0.869,0.0
10.334,-0.377,-0.884,0.0
9.776,-0.359,-0.893,0.0
9.33,-0.344,-0.906,0.0
12.256,-0.455,-0.848,0.0
11.427,-0.427,-0.856,0.0
10.796,-0.406,-0.871,0.0
10.228,-0.387,-0.885,0.0
9.722,-0.37,-0.898,0.0
9.232,-0.353,-0.906,0.0
12.088,-0.465,-0.849,0.0
11.263,-0.436,-0.855,0.0
10.665,-0.415,-0.871,0.0
10.16,-0.398,-0.89,0.0
9.653,-0.381,-0.901,0.0
9.197,-0.365,-0.912,0.0
11.895,-0.474,-0.847,0.0
11.156,-0.447,-0.858,0.0
10.581,-0.427,-0.875,0.0
10.079,-0.409,-0.892,0.0
9.542,-0.389,-0.9,0.0
9.085,-0.373,-0.909,0.0
11.791,-0.486,-0.85,0.0
11.074,-0.459,-0.862,0.0
10.507,-0.438,-0.879,0.0
9.932,-0.417,-0.889,0.0
9.479,-0.4,-0.903,0.0
9.074,-0.385,-0.917,0.0
11.659,-0.497,-0.851,0.0
10.984,-0.471,-0.865,0.0
10.41,-0.449,-0.88,0.0
9.872,-0.428,-0.892,0.0
9.384,-0.409,-0.902,0.0
8.991,-0.394,-0.916,0.0
11.538,-0.508,-0.852,0.0
10.92,-0.483,-0.869,0.0
10.329,-0.46,-0.882,0.0
9.815,-0.439,-0.895,0.0
9.356,-0.421,-0.907,0.0
8.929,-0.404,-0.917,0.0
11.439,-0.519,-0.854,0.0
10.817,-0.494,-0.87,0.0
10.27,-0.471,-0.885,0.0
9.721,-0.448,-0.894,0.0
9.283,-0.431,-0.907,0.0
8.816,-0.411,-0.913,0.0
11.347,-0.531,-0.856,0.0
10.732,-0.505,-0.871,0.0
10.185,-0.482,-0.885,0.0
9.693,-0.461,-0.899,0.0
9.235,-0.442,-0.91,0.0
8.822,-0.424,-0.92,0.0
11.279,-0.544,-0.859,0.0
10.628,-0.515,-0.871,0.0
10.114,-0.493,-0.886,0.0
9.609,-0.47,-0.898,0.0
9.168,-0.451,-0.91,0.0
8.756,-0.433,-0.919,0.0
11.193,-0.555,-0.861,0.0
10.583,-0.528,-0.874,0.0
10.064,-0.504,-0.889,0.0
9.596,-0.483,-0.903,0.0
9.096,-0.461,-0.909,0.0
8.699,-0.443,-0.919,0.0
11.11,-0.567,-0.861,0.0
10.529,-0.54,-0.876,0.0
10.014,-0.516,-0.891,0.0
9.514,-0.493,-0.902,0.0
9.053,-0.471,-0.91,0.0
8.64,-0.452,-0.918,0.0
11.052,-0.58,-0.863,0.0
10.464,-0.551,-0.877,0.0
9.942,-0.526,-0.89,0.0
9.481,-0.504,-0.904,0.0
9.03,-0.483,-0.913,0.0
8.648,-0.465,-0.924,0.0
11.012,-0.593,-0.866,0.0
10.408,-0.563,-0.878,0.0
9.923,-0.539,-0.894,0.0
9.41,-0.514,-0.902,0.0
8.97,-0.492,-0.911,0.0
8.572,-0.473,-0.92,0.0
10.923,-0.604,-0.865,0.0
10.383,-0.576,-0.881,0.0
9.828,-0.548,-0.89,0.0
9.368,-0.525,-0.903,0.0
8.999,-0.507,-0.919,0.0
8.533,-0.483,-0.92,0.0
10.918,-0.619,-0.87,0.0
10.338,-0.588,-0.882,0.0
9.772,-0.559,-0.889,0.0
9.34,-0.536,-0.904,0.0
8.946,-0.516,-0.917,0.0
8.493,-0.492,-0.919,0.0
10.907,-0.633,-0.873,0.0
10.292,-0.6,-0.882,0.0
9.785,-0.573,-0.894,0.0
9.311,-0.548,-0.905,0.0
8.93,-0.528,-0.919,0.0
8.531,-0.507,-0.927,0.0
10.876,-0.646,-0.875,0.0
10.265,-0.613,-0.884,0.0
9.757,-0.585,-0.895,0.0
9.317,-0.561,-0.909,0.0
8.968,-0.543,-0.926,0.0
8.507,-0.517,-0.927,0.0
10.816,-0.658,-0.874,0.0
10.24,-0.625,-0.885,0.0
9.738,-0.597,-0.897,0.0
9.259,-0.57,-0.906,0.0
8.84,-0.547,-0.915,0.0
8.477,-0.527,-0.926,0.0
10.808,-0.672,-0.876,0.0
10.218,-0.638,-0.886,0.0
9.7,-0.609,-0.896,0.0
9.221,-0.581,-0.905,0.0
8.869,-0.561,-0.921,0.0
8.46,-0.538,-0.926,0.0
10.782,-0.686,-0.877,0.0
10.195,-0.651,-0.886,0.0
9.666,-0.62,-0.895,0.0
9.218,-0.593,-0.907,0.0
8.898,-0.575,-0.926,0.0
8.416,-0.546,-0.923,0.0
10.745,-0.698,-0.876,0.0
10.181,-0.664,-0.887,0.0
9.676,-0.633,-0.898,0.0
9.212,-0.605,-0.908,0.0
8.876,-0.586,-0.925,0.0
8.465,-0.561,-0.93,0.0
10.742,-0.712,-0.877,0.0
10.174,-0.677,-0.888,0.0
9.638,-0.644,-0.896,0.0
9.221,-0.618,-0.91,0.0
8.834,-0.595,-0.922,0.0
8.371,-0.566,-0.921,0.0
10.776,-0.729,-0.881,0.0
10.16,-0.69,-0.888,0.0
9.647,-0.657,-0.897,0.0
9.21,-0.63,-0.91,0.0
8.816,-0.606,-0.92,0.0
8.373,-0.577,-0.922,0.0
10.73,-0.74,-0.878,0.0
10.158,-0.703,-0.888,0.0
9.632,-0.669,-0.896,0.0
9.218,-0.643,-0.911,0.0
8.841,-0.619,-0.923,0.0
8.381,-0.589,-0.923,0.0
10.725,-0.754,-0.878,0.0
10.171,-0.717,-0.89,0.0
9.669,-0.684,-0.9,0.0
9.236,-0.656,-0.913,0.0
8.843,-0.631,-0.924,0.0
8.424,-0.603,-0.927,0.0
10.706,-0.766,-0.876,0.0
10.165,-0.73,-0.889,0.0
9.672,-0.697,-0.9,0.0
9.125,-0.66,-0.901,0.0
8.864,-0.644,-0.925,0.0
8.395,-0.612,-0.924,0.0
10.73,-0.782,-0.877,0.0
10.177,-0.744,-0.889,0.0
9.714,-0.713,-0.903,0.0
9.203,-0.678,-0.908,0.0
8.858,-0.655,-0.924,0.0
8.414,-0.624,-0.925,0.0
10.744,-0.796,-0.877,0.0
10.192,-0.758,-0.889,0.0
9.724,-0.726,-0.903,0.0
9.22,-0.691,-0.909,0.0
8.839,-0.664,-0.921,0.0
8.487,-0.64,-0.932,0.0
10.769,-0.812,-0.878,0.0
10.206,-0.772,-0.889,0.0
9.727,-0.738,-0.902,0.0
9.216,-0.702,-0.907,0.0
8.799,-0.672,-0.915,0.0
8.378,-0.642,-0.918,0.0
10.815,-0.829,-0.88,0.0
10.226,-0.786,-0.889,0.0
9.72,-0.749,-0.899,0.0
9.275,-0.718,-0.911,0.0
8.83,-0.685,-0.916,0.0
8.485,-0.661,-0.928,0.0
10.84,-0.844,-0.879,0.0
10.229,-0.799,-0.887,0.0
9.748,-0.763,-0.899,0.0
9.269,-0.728,-0.908,0.0
8.851,-0.698,-0.916,0.0
8.467,-0.67,-0.924,0.0
10.879,-0.86,-0.88,0.0
10.256,-0.813,-0.886,0.0
9.753,-0.775,-0.897,0.0
9.313,-0.743,-0.909,0.0
8.939,-0.715,-0.923,0.0
8.522,-0.684,-0.927,0.0
10.907,-0.875,-0.878,0.0
10.298,-0.828,-0.886,0.0
9.779,-0.789,-0.896,0.0
9.308,-0.753,-0.906,0.0
8.902,-0.723,-0.916,0.0
8.494,-0.692,-0.921,0.0
10.944,-0.89,-0.877,0.0
10.352,-0.845,-0.887,0.0
9.823,-0.804,-0.897,0.0
9.325,-0.765,-0.904,0.0
8.948,-0.737,-0.917,0.0
8.536,-0.705,-0.922,0.0
10.987,-0.906,-0.877,0.0
10.387,-0.859,-0.886,0.0
9.852,-0.817,-0.895,0.0
9.414,-0.783,-0.909,0.0
8.972,-0.749,-0.916,0.0
8.538,-0.715,-0.919,0.0
11.048,-0.924,-0.877,0.0
10.443,-0.875,-0.886,0.0
9.911,-0.833,-0.896,0.0
9.422,-0.794,-0.905,0.0
8.979,-0.759,-0.912,0.0
8.602,-0.729,-0.922,0.0
11.094,-0.939,-0.875,0.0
10.494,-0.891,-0.886,0.0
9.96,-0.848,-0.896,0.0
9.503,-0.811,-0.908,0.0
9.053,-0.775,-0.915,0.0
8.607,-0.739,-0.918,0.0
11.156,-0.957,-0.874,0.0
10.545,-0.906,-0.885,0.0
10.002,-0.862,-0.894,0.0
9.516,-0.822,-0.904,0.0
9.126,-0.791,-0.918,0.0
8.664,-0.753,-0.919,0.0
11.21,-0.973,-0.873,0.0
10.627,-0.924,-0.886,0.0
10.053,-0.876,-0.893,0.0
9.585,-0.838,-0.906,0.0
9.147,-0.802,-0.915,0.0
8.778,-0.772,-0.926,0.0
11.295,-0.991,-0.873,0.0
10.703,-0.942,-0.886,0.0
10.124,-0.893,-0.893,0.0
9.648,-0.853,-0.906,0.0
9.22,-0.817,-0.916,0.0
8.778,-0.78,-0.921,0.0
11.378,-1.01,-0.872,0.0
10.79,-0.96,-0.886,0.0
10.222,-0.911,-0.896,0.0
9.674,-0.864,-0.902,0.0
9.252,-0.829,-0.914,0.0
8.828,-0.793,-0.92,0.0
11.449,-1.027,-0.87,0.0
10.858,-0.976,-0.885,0.0
10.251,-0.923,-0.891,0.0
9.745,-0.88,-0.902,0.0
9.299,-0.842,-0.912,0.0
8.93,-0.81,-0.925,0.0
11.537,-1.045,-0.869,0.0
10.935,-0.993,-0.883,0.0
10.336,-0.94,-0.892,0.0
9.813,-0.895,-0.901,0.0
9.327,-0.853,-0.908,0.0
8.938,-0.819,-0.919,0.0
14.101,-1.42,-0.832,0.0
13.125,-1.323,-0.844,0.0
12.365,-1.247,-0.862,0.0
11.602,-1.171,-0.872,0.0
11.048,-1.117,-0.89,0.0
10.434,-1.055,-0.896,0.0
14.339,-1.448,-0.829,0.0
13.264,-1.34,-0.838,0.0
12.492,-1.263,-0.856,0.0
11.725,-1.186,-0.867,0.0
11.173,-1.131,-0.886,0.0
10.58,-1.072,-0.896,0.0
14.697,-1.487,-0.832,0.0
13.531,-1.37,-0.838,0.0
12.691,-1.285,-0.854,0.0
11.873,-1.203,-0.864,0.0
11.299,-1.146,-0.883,0.0
10.695,-1.086,-0.893,0.0
14.871,-1.507,-0.824,0.0
13.8,-1.399,-0.838,0.0
12.944,-1.313,-0.855,0.0
12.123,-1.23,-0.867,0.0
11.451,-1.163,-0.88,0.0
10.87,-1.105,-0.894,0.0
15.075,-1.529,-0.816,0.0
14.025,-1.423,-0.834,0.0
13.074,-1.327,-0.848,0.0
12.3,-1.249,-0.864,0.0
11.55,-1.174,-0.873,0.0
11.042,-1.123,-0.894,0.0
15.104,-1.533,-0.799,0.0
14.326,-1.455,-0.834,0.0
13.169,-1.338,-0.837,0.0
12.474,-1.268,-0.861,0.0
11.771,-1.197,-0.875,0.0
11.127,-1.132,-0.887,0.0
15.106,-1.534,-0.78,0.0
14.666,-1.49,-0.836,0.0
13.469,-1.368,-0.839,0.0
12.541,-1.275,-0.85,0.0
11.883,-1.208,-0.868,0.0
11.295,-1.149,-0.886,0.0
15.078,-1.531,-0.759,0.0
14.829,-1.506,-0.826,0.0
13.761,-1.398,-0.84,0.0
12.842,-1.305,-0.853,0.0
12.102,-1.23,-0.869,0.0
11.398,-1.159,-0.879,0.0
15.104,-1.533,-0.741,0.0
15.044,-1.527,-0.818,0.0
13.908,-1.412,-0.83,0.0
13.049,-1.325,-0.85,0.0
12.279,-1.247,-0.865,0.0
11.588,-1.177,-0.879,0.0
15.191,-1.54,-0.726,1.0
15.148,-1.536,-0.804,0.0
14.189,-1.438,-0.829,0.0
13.203,-1.338,-0.843,0.0
12.449,-1.262,-0.861,0.0
11.748,-1.191,-0.875,0.0
15.272,-1.546,-0.709,1.0
15.303,-1.549,-0.792,0.0
14.623,-1.48,-0.835,0.0
13.526,-1.369,-0.845,0.0
12.614,-1.277,-0.855,0.0
11.849,-1.199,-0.867,0.0
15.365,-1.552,-0.693,2.0
15.364,-1.552,-0.775,0.0
14.981,-1.513,-0.835,0.0
13.753,-1.389,-0.841,0.0
12.912,-1.304,-0.858,0.0
12.054,-1.217,-0.866,0.0
15.482,-1.561,-0.678,2.0
15.462,-1.558,-0.759,0.0
15.26,-1.537,-0.83,0.0
13.941,-1.404,-0.834,0.0
13.103,-1.319,-0.853,0.0
12.302,-1.239,-0.867,0.0
15.511,-1.559,-0.741,1.0
15.45,-1.552,-0.82,0.0
14.331,-1.439,-0.838,0.0
13.207,-1.326,-0.842,0.0
12.477,-1.252,-0.862,0.0
16.009,-1.604,-0.658,2.0
15.603,-1.563,-0.724,1.0
15.609,-1.563,-0.807,0.0
14.463,-1.447,-0.826,0.0
13.503,-1.35,-0.843,0.0
12.689,-1.269,-0.86,0.0
16.33,-1.63,-0.65,5.0
15.721,-1.569,-0.709,1.0
15.826,-1.578,-0.797,0.0
14.766,-1.472,-0.824,0.0
13.809,-1.376,-0.843,0.0
12.931,-1.287,-0.859,0.0
16.656,-1.656,-0.64,2.0
15.872,-1.577,-0.694,1.0
15.994,-1.588,-0.784,1.0
15.214,-1.509,-0.828,0.0
13.989,-1.387,-0.836,0.0
13.103,-1.299,-0.852,0.0
17.242,-1.706,-0.639,2.0
16.082,-1.59,-0.681,1.0
16.052,-1.586,-0.765,0.0
15.481,-1.528,-0.821,1.0
14.316,-1.413,-0.836,0.0
13.252,-1.307,-0.844,0.0
17.711,-1.744,-0.633,3.0
16.293,-1.603,-0.668,1.0
16.23,-1.595,-0.752,0.0
15.654,-1.537,-0.81,1.0
14.556,-1.428,-0.83,0.0
13.585,-1.332,-0.847,0.0
18.244,-1.786,-0.627,3.0
16.579,-1.622,-0.658,1.0
16.412,-1.604,-0.738,0.0
16.047,-1.567,-0.808,1.0
14.875,-1.451,-0.828,0.0
13.826,-1.347,-0.843,0.0
18.641,-1.814,-0.616,8.0
16.95,-1.648,-0.649,1.0
16.693,-1.621,-0.728,1.0
16.241,-1.575,-0.796,0.0
15.346,-1.487,-0.833,1.0
14.043,-1.359,-0.837,0.0
19.117,-1.848,-0.605,9.0
17.362,-1.677,-0.641,2.0
16.933,-1.633,-0.715,0.0
16.802,-1.619,-0.8,0.0
15.365,-1.479,-0.813,4.0
14.359,-1.38,-0.836,0.0
19.336,-1.856,-0.586,10.0
17.765,-1.703,-0.632,2.0
17.289,-1.655,-0.707,1.0
17.295,-1.654,-0.8,0.0
15.679,-1.497,-0.808,0.0
14.607,-1.393,-0.83,0.0
19.986,-1.904,-0.578,14.0
18.298,-1.741,-0.626,2.0
17.582,-1.67,-0.695,1.0
17.518,-1.662,-0.787,0.0
16.021,-1.518,-0.804,0.0
14.909,-1.411,-0.827,0.0
20.315,-1.92,-0.56,17.0
18.718,-1.766,-0.615,3.0
17.938,-1.69,-0.684,1.0
17.83,-1.677,-0.776,0.0
16.573,-1.557,-0.81,0.0
15.134,-1.419,-0.819,0.0
21.131,-1.98,-0.555,19.0
19.343,-1.809,-0.61,2.0
18.303,-1.709,-0.674,1.0
18.204,-1.697,-0.768,0.0
16.717,-1.556,-0.794,0.0
15.541,-1.444,-0.821,0.0
21.783,-2.022,-0.543,21.0
19.953,-1.849,-0.603,2.0
18.784,-1.737,-0.667,1.0
18.667,-1.724,-0.763,0.0
17.191,-1.585,-0.794,0.0
15.788,-1.453,-0.813,0.0
22.516,-2.07,-0.531,21.0
20.562,-1.887,-0.594,2.0
19.333,-1.771,-0.66,1.0
19.252,-1.76,-0.761,0.0
17.469,-1.594,-0.783,0.0
16.153,-1.471,-0.81,0.0
22.866,-2.08,-0.509,19.0
21.284,-1.932,-0.586,2.0
19.882,-1.802,-0.653,1.0
19.737,-1.785,-0.755,0.0
17.814,-1.608,-0.776,0.0
16.607,-1.496,-0.811,0.0
23.547,-2.119,-0.494,21.0
21.894,-1.966,-0.575,2.0
20.394,-1.828,-0.643,1.0
20.251,-1.811,-0.748,0.0
18.104,-1.616,-0.764,0.0
16.806,-1.497,-0.799,0.0
24.884,-2.214,-0.489,25.0
22.896,-2.032,-0.571,5.0
21.148,-1.873,-0.639,1.0
20.862,-1.844,-0.743,0.0
18.7,-1.649,-0.765,0.0
17.3,-1.522,-0.8,0.0
26.181,-2.301,-0.481,26.0
23.6,-2.069,-0.558,5.0
21.931,-1.919,-0.635,2.0
21.36,-1.864,-0.734,0.0
18.939,-1.649,-0.751,0.0
17.436,-1.515,-0.784,0.0
27.769,-2.41,-0.475,26.0
24.345,-2.108,-0.545,4.0
22.721,-1.962,-0.629,1.0
22.708,-1.956,-0.751,0.0
19.602,-1.685,-0.752,0.0
17.751,-1.522,-0.775,0.0
28.88,-2.473,-0.458,22.0
25.338,-2.164,-0.536,2.0
23.567,-2.008,-0.623,1.0
23.71,-2.015,-0.755,0.0
19.945,-1.691,-0.741,0.0
18.152,-1.535,-0.77,0.0
29.376,-2.481,-0.429,8.0
26.15,-2.202,-0.52,2.0
24.429,-2.052,-0.615,1.0
22.812,-1.911,-0.698,0.0
20.576,-1.719,-0.738,0.0
18.572,-1.547,-0.765,0.0
29.97,-2.494,-0.401,19.0
27.172,-2.255,-0.507,1.0
25.573,-2.116,-0.613,1.0
23.552,-1.943,-0.692,0.0
20.959,-1.725,-0.727,0.0
19.039,-1.562,-0.761,0.0
35.192,-2.884,-0.428,10.0
28.197,-2.304,-0.493,1.0
26.824,-2.185,-0.611,1.0
0.0,0.0,0.0,0.0
21.743,-1.761,-0.728,0.0
0.0,0.0,0.0,0.0
35.529,-2.866,-0.39,7.0
29.341,-2.359,-0.478,1.0
28.486,-2.283,-0.615,1.0
0.0,0.0,0.0,0.0
22.142,-1.764,-0.715,1.0
0.0,0.0,0.0,0.0
35.573,-2.822,-0.349,8.0
30.568,-2.416,-0.462,1.0
29.918,-2.357,-0.611,1.0
0.0,0.0,0.0,0.0
22.964,-1.798,-0.715,0.0
20.374,-1.59,-0.743,0.0
37.128,-2.894,-0.321,13.0
32.111,-2.494,-0.448,2.0
31.914,-2.47,-0.615,0.0
26.549,-2.048,-0.655,0.0
23.367,-1.796,-0.701,0.0
20.985,-1.608,-0.741,0.0
39.935,-3.056,-0.3,16.0
34.007,-2.593,-0.436,2.0
0.0,0.0,0.0,0.0
0.0,0.0,0.0,0.0
24.211,-1.826,-0.699,0.0
21.42,-1.61,-0.732,0.0
40.647,-3.051,-0.26,1.0
36.304,-2.714,-0.425,1.0
0.0,0.0,0.0,0.0
28.346,-2.104,-0.636,0.0
24.453,-1.808,-0.679,0.0
21.81,-1.607,-0.722,0.0
45.098,-3.318,-0.24,22.0
39.636,-2.905,-0.422,1.0
35.115,-2.564,-0.56,0.0
30.388,-2.21,-0.649,0.0
25.456,-1.844,-0.679,0.0
22.467,-1.621,-0.719,0.0
0.0,0.0,0.0,0.0
43.206,-3.1,-0.413,1.0
38.309,-2.738,-0.57,0.0
30.108,-2.143,-0.611,3.0
26.345,-1.868,-0.675,0.0
22.816,-1.611,-0.707,1.0
48.679,-3.431,-0.156,0.0
47.808,-3.356,-0.407,0.0
0.0,0.0,0.0,0.0
30.453,-2.119,-0.587,0.0
27.233,-1.888,-0.67,0.0
23.129,-1.596,-0.692,0.0
20.013,-1.379,-0.043,14.0
20.019,-1.373,-0.15,15.0
20.025,-1.368,-0.257,16.0
20.051,-1.364,-0.366,11.0
20.083,-1.36,-0.474,12.0
20.108,-1.356,-0.582,10.0
20.014,-1.347,-0.024,11.0
20.008,-1.34,-0.13,27.0
20.029,-1.335,-0.237,26.0
20.061,-1.332,-0.347,26.0
20.06,-1.325,-0.454,30.0
20.104,-1.322,-0.562,30.0
19.996,-1.312,-0.004,15.0
19.999,-1.306,-0.111,32.0
20.01,-1.301,-0.218,31.0
20.046,-1.297,-0.327,27.0
20.069,-1.292,-0.435,30.0
20.094,-1.288,-0.543,27.0
138.668,-4.663,1.625,2.0
138.594,-4.609,0.871,9.0
0.0,0.0,0.0,0.0
0.0,0.0,0.0,0.0
0.0,0.0,0.0,0.0
35.29,-1.122,-0.548,0.0
0.0,0.0,0.0,0.0
138.606,-4.322,0.927,11.0
0.0,0.0,0.0,0.0
0.0,0.0,0.0,0.0
44.506,-1.339,-0.432,1.0
0.0,0.0,0.0,0.0
138.477,-4.082,1.729,9.0
138.409,-4.031,0.975,19.0
0.0,0.0,0.0,0.0
59.491,-1.688,-0.234,0.0
44.61,-1.25,-0.418,1.0
0.0,0.0,0.0,0.0
0.0,0.0,0.0,0.0
138.823,-3.756,1.023,16.0
0.0,0.0,0.0,0.0
0.0,0.0,0.0,0.0
44.45,-1.153,-0.403,0.0
37.651,-0.963,-0.547,0.0
0.0,0.0,0.0,0.0
138.857,-3.466,1.063,18.0
0.0,0.0,0.0,0.0
0.0,0.0,0.0,0.0
45.456,-1.084,-0.4,0.0
0.0,0.0,0.0,0.0
138.921,-3.225,1.858,2.0
138.949,-3.176,1.099,17.0
0.0,0.0,0.0,0.0
0.0,0.0,0.0,0.0
44.994,-0.978,-0.385,0.0
37.667,-0.804,-0.528,0.0
0.0,0.0,0.0,0.0
138.941,-2.879,1.129,23.0
0.0,0.0,0.0,0.0
0.0,0.0,0.0,0.0
46.261,-0.908,-0.387,1.0
37.113,-0.714,-0.514,0.0
139.014,-2.635,1.915,4.0
139.045,-2.585,1.155,24.0
0.0,0.0,0.0,0.0
0.0,0.0,0.0,0.0
47.195,-0.825,-0.387,0.0
0.0,0.0,0.0,0.0
139.013,-2.34,1.936,4.0
138.997,-2.288,1.174,11.0
0.0,0.0,0.0,0.0
0.0,0.0,0.0,0.0
46.868,-0.719,-0.379,0.0
0.0,0.0,0.0,0.0
138.942,-2.042,1.95,10.0
138.892,-1.991,1.188,23.0
0.0,0.0,0.0,0.0
0.0,0.0,0.0,0.0
47.15,-0.623,-0.377,0.0
0.0,0.0,0.0,0.0
139.17,-1.746,1.964,7.0
139.209,-1.695,1.2,23.0
0.0,0.0,0.0,0.0
0.0,0.0,0.0,0.0
0.0,0.0,0.0,0.0
0.0,0.0,0.0,0.0
119.777,-1.244,1.694,151.0
119.755,-1.2,1.036,80.0
0.0,0.0,0.0,0.0
0.0,0.0,0.0,0.0
0.0,0.0,0.0,0.0
0.0,0.0,0.0,0.0
119.72,-0.985,1.693,34.0
119.692,-0.939,1.034,17.0
0.0,0.0,0.0,0.0
0.0,0.0,0.0,0.0
0.0,0.0,0.0,0.0
0.0,0.0,0.0,0.0
119.782,-0.729,1.689,25.0
119.746,-0.684,1.029,15.0
95.184,-0.508,0.293,2.0
53.702,-0.268,-0.135,0.0
51.091,-0.236,-0.41,0.0
38.082,-0.162,-0.516,0.0
112.342,-0.439,1.576,7.0
114.442,-0.406,0.974,13.0
101.899,-0.325,0.305,1.0
0.0,0.0,0.0,0.0
45.421,-0.112,-0.369,1.0
0.0,0.0,0.0,0.0
117.408,-0.207,1.633,11.0
117.279,-0.163,0.984,10.0
95.51,-0.1,0.273,1.0
0.0,0.0,0.0,0.0
45.702,-0.015,-0.378,1.0
0.0,0.0,0.0,0.0
10.354,0.387,-0.878,0.0
9.884,0.368,-0.892,0.0
9.422,0.349,-0.902,0.0
9.023,0.332,-0.915,0.0
8.654,0.317,-0.925,0.0
8.291,0.302,-0.932,0.0
10.409,0.376,-0.875,0.0
9.971,0.358,-0.892,0.0
9.544,0.341,-0.906,0.0
9.077,0.322,-0.912,0.0
8.679,0.306,-0.92,0.0
8.321,0.292,-0.928,0.0
10.478,0.365,-0.871,0.0
10.052,0.348,-0.891,0.0
9.588,0.33,-0.902,0.0
9.122,0.312,-0.909,0.0
8.807,0.3,-0.926,0.0
8.381,0.283,-0.927,0.0
10.642,0.357,-0.876,0.0
10.096,0.337,-0.886,0.0
9.704,0.322,-0.904,0.0
9.215,0.303,-0.91,0.0
8.758,0.287,-0.913,0.0
8.425,0.274,-0.924,0.0
10.781,0.348,-0.877,0.0
10.195,0.327,-0.885,0.0
9.721,0.31,-0.896,0.0
9.269,0.294,-0.906,0.0
8.914,0.281,-0.92,0.0
8.516,0.266,-0.926,0.0
10.866,0.338,-0.873,0.0
10.292,0.318,-0.883,0.0
9.804,0.3,-0.894,0.0
9.362,0.285,-0.906,0.0
8.95,0.271,-0.915,0.0
8.567,0.257,-0.922,0.0
10.973,0.327,-0.871,0.0
10.365,0.307,-0.878,0.0
9.911,0.291,-0.894,0.0
9.48,0.277,-0.907,0.0
9.073,0.263,-0.918,0.0
8.686,0.25,-0.926,0.0
11.099,0.317,-0.869,0.0
10.452,0.296,-0.875,0.0
9.979,0.281,-0.889,0.0
9.572,0.267,-0.905,0.0
9.128,0.253,-0.913,0.0
8.743,0.241,-0.922,0.0
11.219,0.307,-0.866,1.0
10.58,0.287,-0.873,0.0
10.091,0.272,-0.888,0.0
9.658,0.258,-0.903,0.0
9.214,0.244,-0.911,0.0
8.845,0.233,-0.923,0.0
11.368,0.297,-0.864,1.0
10.746,0.279,-0.875,0.0
10.203,0.262,-0.885,0.0
9.749,0.249,-0.9,0.0
9.289,0.235,-0.908,0.0
8.903,0.223,-0.918,0.0
11.427,0.285,-0.855,0.0
10.894,0.269,-0.873,0.0
10.292,0.252,-0.881,0.0
9.841,0.239,-0.896,0.0
9.433,0.227,-0.91,0.0
8.989,0.215,-0.916,0.0
11.578,0.275,-0.852,0.0
11.043,0.26,-0.872,0.0
10.415,0.243,-0.878,0.0
9.96,0.231,-0.895,0.0
9.544,0.219,-0.909,0.0
9.119,0.207,-0.917,0.0
11.728,0.265,-0.848,0.0
11.184,0.251,-0.869,1.0
10.531,0.234,-0.875,0.0
10.047,0.221,-0.889,0.0
9.628,0.21,-0.904,0.0
9.183,0.198,-0.912,0.0
11.918,0.256,-0.847,0.0
11.313,0.241,-0.864,1.0
10.682,0.225,-0.873,0.0
10.171,0.212,-0.887,0.0
9.762,0.202,-0.904,0.0
9.364,0.192,-0.917,0.0
12.18,0.248,-0.849,0.0
11.427,0.23,-0.857,0.0
10.852,0.217,-0.872,0.0
10.292,0.203,-0.884,0.0
9.865,0.193,-0.9,0.0
9.382,0.182,-0.906,0.0
12.43,0.239,-0.849,0.0
11.576,0.221,-0.853,0.0
11.071,0.209,-0.874,0.0
10.415,0.194,-0.879,0.0
9.942,0.184,-0.893,0.0
9.505,0.174,-0.904,0.0
12.686,0.231,-0.849,0.0
11.757,0.211,-0.849,0.0
11.216,0.199,-0.87,0.0
10.542,0.185,-0.875,0.0
10.123,0.176,-0.894,0.0
9.679,0.166,-0.907,0.0
12.918,0.221,-0.845,0.0
11.995,0.203,-0.849,0.0
11.362,0.19,-0.864,0.0
10.71,0.177,-0.873,0.0
10.23,0.167,-0.888,0.0
9.777,0.158,-0.901,0.0
13.18,0.212,-0.843,0.0
12.248,0.195,-0.848,0.0
11.464,0.18,-0.855,0.0
10.914,0.169,-0.873,0.0
10.35,0.159,-0.883,0.0
9.915,0.15,-0.899,0.0
13.534,0.204,-0.845,0.0
12.504,0.186,-0.847,0.0
11.673,0.172,-0.853,0.0
11.164,0.162,-0.876,0.0
10.516,0.151,-0.881,0.0
10.043,0.142,-0.895,0.0
13.763,0.194,-0.838,0.0
12.758,0.177,-0.844,0.0
11.856,0.163,-0.847,0.0
11.279,0.153,-0.867,0.0
10.678,0.143,-0.878,0.0
10.19,0.134,-0.892,0.0
14.035,0.184,-0.832,0.0
13.124,0.17,-0.848,0.0
12.217,0.156,-0.854,0.0
11.41,0.144,-0.859,0.0
10.861,0.135,-0.875,0.0
10.33,0.126,-0.887,0.0
14.359,0.175,-0.828,0.0
13.382,0.161,-0.843,0.0
12.429,0.147,-0.848,0.0
11.602,0.135,-0.854,0.0
11.065,0.127,-0.873,0.0
10.453,0.118,-0.88,0.0
14.68,0.165,-0.823,0.0
13.741,0.152,-0.842,0.0
12.886,0.141,-0.858,0.0
11.848,0.127,-0.852,0.0
11.293,0.119,-0.872,0.0
10.663,0.111,-0.88,0.0
15.089,0.157,-0.82,0.0
13.948,0.142,-0.831,0.0
13.031,0.131,-0.845,0.0
12.163,0.12,-0.854,0.0
11.42,0.111,-0.862,0.0
10.816,0.103,-0.874,0.0
15.348,0.146,-0.808,0.0
14.375,0.135,-0.832,0.0
13.401,0.123,-0.846,0.0
12.439,0.112,-0.852,0.0
11.596,0.103,-0.856,0.0
11.068,0.097,-0.875,0.0
15.877,0.138,-0.808,0.0
14.615,0.125,-0.821,0.0
13.696,0.115,-0.841,0.0
12.785,0.105,-0.853,0.0
11.849,0.096,-0.853,0.0
11.273,0.089,-0.871,0.0
16.19,0.128,-0.796,0.0
15.078,0.117,-0.82,0.0
13.911,0.106,-0.83,0.0
13.12,0.098,-0.852,0.0
12.162,0.089,-0.854,0.0
11.436,0.082,-0.863,0.0
16.741,0.119,-0.793,0.0
15.501,0.108,-0.815,0.0
14.355,0.098,-0.83,0.0
13.387,0.089,-0.846,0.0
12.468,0.082,-0.853,0.0
11.634,0.074,-0.857,0.0
17.169,0.11,-0.782,0.0
15.839,0.099,-0.804,0.0
14.719,0.09,-0.825,0.0
13.699,0.082,-0.84,0.0
12.881,0.075,-0.858,0.0
11.884,0.068,-0.854,0.0
17.786,0.101,-0.778,0.0
16.322,0.091,-0.799,0.0
15.083,0.082,-0.817,0.0
14.104,0.074,-0.839,0.0
13.089,0.067,-0.847,0.0
12.254,0.061,-0.857,0.0
18.259,0.092,-0.765,0.0
16.835,0.082,-0.793,0.0
15.514,0.074,-0.812,0.0
14.378,0.066,-0.828,0.0
13.541,0.061,-0.851,0.0
12.614,0.055,-0.859,0.0
18.906,0.083,-0.756,0.0
17.304,0.074,-0.782,0.0
15.995,0.066,-0.806,0.0
14.752,0.059,-0.822,0.0
13.806,0.054,-0.841,0.0
12.923,0.048,-0.855,0.0
19.616,0.074,-0.747,0.0
17.929,0.065,-0.776,0.0
16.561,0.058,-0.803,0.0
15.167,0.052,-0.816,0.0
14.2,0.047,-0.838,0.0
13.295,0.042,-0.854,0.0
20.257,0.065,-0.732,0.0
18.51,0.057,-0.765,0.0
16.988,0.05,-0.791,0.0
15.536,0.044,-0.805,0.0
14.456,0.039,-0.825,0.0
13.616,0.036,-0.848,0.0
21.198,0.056,-0.725,0.0
19.125,0.048,-0.753,0.0
17.508,0.042,-0.781,0.0
16.123,0.037,-0.804,0.0
14.923,0.033,-0.822,0.0
13.986,0.029,-0.843,0.0
22.049,0.047,-0.711,0.0
19.971,0.04,-0.747,0.0
18.318,0.035,-0.78,0.0
16.582,0.03,-0.794,0.0
15.328,0.026,-0.814,0.0
14.305,0.023,-0.834,0.0
23.012,0.038,-0.696,0.0
20.705,0.032,-0.733,0.0
18.648,0.027,-0.757,0.0
17.258,0.023,-0.792,0.0
15.937,0.02,-0.814,0.0
14.667,0.017,-0.825,0.0
24.273,0.029,-0.686,0.0
21.607,0.024,-0.722,0.0
19.532,0.02,-0.754,0.0
17.77,0.017,-0.779,0.0
16.371,0.014,-0.803,0.0
15.179,0.012,-0.823,0.0
25.244,0.02,-0.662,0.0
22.484,0.016,-0.705,0.0
20.308,0.013,-0.742,0.0
18.432,0.01,-0.771,0.0
16.961,0.008,-0.797,0.0
15.564,0.006,-0.812,0.0
26.594,0.011,-0.643,0.0
23.668,0.008,-0.694,0.0
21.117,0.006,-0.728,0.0
19.096,0.004,-0.759,0.0
17.61,0.002,-0.791,0.0
16.164,0.001,-0.81,0.0
28.563,0.002,-0.631,0.0
24.819,0.0,-0.677,0.0
21.895,0.0,-0.71,0.0
19.788,-0.001,-0.746,0.0
17.989,-0.002,-0.771,0.0
16.79,-0.003,-0.807,0.0
30.217,-0.005,-0.606,0.0
26.297,-0.006,-0.663,0.0
23.045,-0.007,-0.7,0.0
20.667,-0.007,-0.736,0.0
18.874,-0.008,-0.77,0.0
17.281,-0.008,-0.794,0.0
0.0,0.0,0.0,0.0
0.0,0.0,0.0,0.0
24.433,-0.014,-0.691,0.0
21.602,-0.013,-0.725,0.0
19.548,-0.013,-0.756,0.0
17.757,-0.012,-0.779,1.0
34.971,-0.024,-0.556,0.0
29.681,-0.022,-0.624,0.0
25.934,-0.02,-0.679,0.0
22.473,-0.018,-0.706,0.0
20.364,-0.017,-0.745,0.0
18.53,-0.017,-0.774,0.0
37.599,-0.033,-0.518,0.0
0.0,0.0,0.0,0.0
26.761,-0.025,-0.644,0.0
23.809,-0.023,-0.698,0.0
21.263,-0.022,-0.733,0.0
19.256,-0.02,-0.763,0.0
0.0,0.0,0.0,0.0
34.429,-0.037,-0.578,0.0
28.544,-0.031,-0.626,0.0
24.706,-0.028,-0.672,0.0
22.212,-0.025,-0.719,0.0
19.997,-0.023,-0.75,0.0
45.404,-0.052,-0.434,0.0
0.0,0.0,0.0,0.0
30.487,-0.036,-0.605,0.0
26.361,-0.032,-0.661,0.0
23.54,-0.029,-0.712,0.0
20.826,-0.026,-0.737,0.0
45.382,3.713,4.516,10.0
42.273,3.465,3.967,26.0
41.278,3.39,3.641,33.0
41.289,3.398,3.405,40.0
41.39,3.413,3.179,42.0
41.639,3.441,2.964,36.0
41.308,3.434,4.104,38.0
41.351,3.444,3.874,22.0
41.339,3.449,3.639,22.0
41.322,3.455,3.4,35.0
41.459,3.473,3.177,31.0
41.674,3.498,2.959,34.0
41.331,3.49,4.098,29.0
41.373,3.5,3.868,23.0
41.311,3.5,3.628,38.0
41.452,3.518,3.402,35.0
41.441,3.524,3.167,34.0
41.709,3.554,2.952,29.0
41.313,3.541,4.087,29.0
41.409,3.555,3.861,27.0
41.471,3.567,3.632,36.0
41.681,3.591,3.41,17.0
41.417,3.574,3.154,40.0
41.756,3.61,2.944,17.0
41.286,3.591,4.072,34.0
41.632,3.626,3.87,20.0
41.307,3.604,3.605,20.0
44.415,3.881,3.62,7.0
41.521,3.634,3.15,37.0
41.56,3.645,2.917,43.0
41.306,3.643,4.061,39.0
41.421,3.658,3.837,30.0
41.308,3.654,3.592,30.0
41.614,3.687,3.378,36.0
41.485,3.681,3.133,40.0
41.596,3.697,2.906,40.0
41.319,3.694,4.048,39.0
41.343,3.701,3.815,34.0
41.291,3.702,3.575,16.0
41.573,3.733,3.359,27.0
41.484,3.731,3.117,44.0
41.587,3.746,2.889,39.0
41.323,3.743,4.032,44.0
41.257,3.742,3.79,28.0
41.519,3.771,3.578,16.0
41.443,3.77,3.331,37.0
41.515,3.782,3.102,43.0
44.856,4.092,3.097,5.0
48.447,4.444,4.706,7.0
41.411,3.804,3.786,20.0
41.503,3.817,3.557,31.0
41.479,3.82,3.316,37.0
41.571,3.834,3.087,43.0
44.646,4.124,3.062,34.0
41.742,3.876,4.034,25.0
41.229,3.833,3.749,33.0
41.757,3.887,3.559,28.0
41.504,3.868,3.297,38.0
41.872,3.908,3.089,27.0
44.531,4.162,3.032,18.0
41.765,3.924,4.015,35.0
41.395,3.894,3.743,16.0
41.767,3.933,3.539,34.0
41.484,3.911,3.274,40.0
41.925,3.958,3.07,16.0
44.032,4.163,2.974,22.0
41.712,3.964,3.987,17.0
42.041,3.999,3.779,13.0
41.788,3.98,3.517,42.0
41.539,3.961,3.255,39.0
44.343,4.233,3.222,3.0
43.335,4.142,2.902,32.0
41.744,4.011,3.966,29.0
42.084,4.047,3.757,31.0
41.882,4.032,3.5,34.0
41.517,4.001,3.228,36.0
41.953,4.048,3.023,19.0
43.267,4.18,2.871,17.0
41.81,4.059,3.946,13.0
0.0,0.0,0.0,0.0
42.061,4.091,3.488,32.0
41.824,4.073,3.225,23.0
44.438,4.332,3.174,3.0
43.244,4.22,2.842,18.0
44.28,4.342,4.15,5.0
0.0,0.0,0.0,0.0
41.984,4.125,3.454,30.0
42.283,4.158,3.232,17.0
42.187,4.153,2.984,10.0
42.86,4.224,2.788,9.0
41.713,4.13,3.881,11.0
43.785,4.339,3.822,4.0
42.064,4.172,3.431,22.0
42.343,4.204,3.207,21.0
42.718,4.245,2.991,11.0
42.82,4.26,2.755,3.0
43.894,4.387,4.051,14.0
43.824,4.383,3.794,27.0
42.026,4.206,3.397,16.0
42.489,4.256,3.187,20.0
42.931,4.304,2.975,20.0
73.459,7.372,4.672,8.0
44.105,4.446,4.037,27.0
44.018,4.44,3.777,4.0
44.231,4.465,3.542,10.0
43.511,4.396,3.23,20.0
43.141,4.362,2.956,31.0
73.57,7.446,4.622,15.0
43.951,4.468,3.989,37.0
44.054,4.481,3.745,25.0
44.199,4.499,3.504,17.0
43.352,4.416,3.184,19.0
43.592,4.444,2.952,19.0
59.457,6.066,3.687,8.0
43.878,4.495,3.947,33.0
44.123,4.523,3.715,30.0
49.251,5.052,3.864,4.0
42.897,4.403,3.115,17.0
0.0,0.0,0.0,0.0
0.0,0.0,0.0,0.0
43.905,4.532,3.912,16.0
44.202,4.565,3.684,18.0
44.206,4.568,3.43,16.0
42.831,4.429,3.074,37.0
44.671,4.623,2.95,5.0
58.328,6.04,3.519,10.0
43.913,4.565,3.874,33.0
44.19,4.596,3.644,22.0
44.238,4.604,3.394,30.0
42.876,4.464,3.039,28.0
44.666,4.654,2.91,19.0
87.567,9.13,5.204,18.0
44.17,4.623,3.856,26.0
43.891,4.596,3.579,45.0
44.247,4.635,3.354,27.0
44.837,4.699,3.137,3.0
42.662,4.474,2.74,15.0
87.272,9.159,5.105,15.0
44.303,4.666,3.826,19.0
43.924,4.628,3.541,41.0
44.273,4.667,3.314,15.0
42.931,4.527,2.963,15.0
58.298,6.151,3.689,16.0
86.987,9.183,5.007,17.0
44.205,4.683,3.776,27.0
43.934,4.656,3.499,34.0
44.372,4.704,3.279,18.0
42.872,4.547,2.917,18.0
58.366,6.193,3.637,11.0
84.156,8.934,4.763,27.0
44.252,4.714,3.736,25.0
43.92,4.68,3.455,37.0
44.397,4.732,3.237,26.0
42.879,4.571,2.876,17.0
42.669,4.551,2.617,12.0
84.134,8.977,4.679,47.0
44.299,4.743,3.695,19.0
44.017,4.713,3.418,30.0
43.785,4.69,3.148,20.0
42.941,4.6,2.836,34.0
42.732,4.58,2.577,17.0
84.127,9.021,4.591,53.0
43.985,4.731,3.623,30.0
44.352,4.771,3.398,18.0
43.057,4.633,3.051,29.0
42.9,4.617,2.789,31.0
42.643,4.59,2.528,27.0
84.153,9.062,4.506,29.0
44.167,4.771,3.592,37.0
44.377,4.793,3.353,26.0
43.046,4.651,3.005,30.0
42.691,4.613,2.73,37.0
42.719,4.617,2.487,26.0
84.248,9.109,4.421,15.0
44.207,4.793,3.548,19.0
44.425,4.817,3.309,27.0
43.341,4.7,2.979,18.0
42.51,4.611,2.672,37.0
42.706,4.633,2.439,10.0
84.15,9.131,4.325,13.0
44.208,4.81,3.499,21.0
44.581,4.851,3.272,19.0
42.989,4.678,2.907,17.0
42.489,4.623,2.625,36.0
42.729,4.65,2.394,7.0
84.059,9.15,4.228,14.0
44.277,4.832,3.455,15.0
0.0,0.0,0.0,0.0
0.0,0.0,0.0,0.0
42.681,4.658,2.589,17.0
84.069,9.176,4.617,12.0
84.045,9.174,4.133,15.0
75.695,-5.383,4.746,11.0
71.271,-5.077,4.094,20.0
67.891,-4.846,3.543,38.0
67.919,-4.858,3.181,64.0
67.912,-4.867,2.824,60.0
67.884,-4.874,2.468,41.0
75.56,-5.438,4.854,12.0
71.278,-5.139,4.204,21.0
71.383,-5.156,3.835,30.0
67.906,-4.913,3.284,60.0
67.922,-4.924,2.929,60.0
67.902,-4.931,2.572,51.0
78.484,-5.713,5.163,3.0
71.888,-5.242,4.351,16.0
71.455,-5.219,3.949,38.0
67.91,-4.968,3.39,64.0
67.919,-4.977,3.034,70.0
67.916,-4.985,2.678,54.0
75.642,-5.566,5.093,5.0
72.045,-5.309,4.472,35.0
71.403,-5.269,4.056,39.0
67.896,-5.018,3.493,44.0
67.916,-5.027,3.138,60.0
67.923,-5.035,2.782,53.0
71.673,-5.326,4.936,8.0
72.047,-5.36,4.582,45.0
71.204,-5.305,4.154,18.0
67.9,-5.066,3.597,8.0
67.928,-5.075,3.243,49.0
67.922,-5.082,2.886,59.0
71.168,-5.338,5.01,15.0
71.254,-5.35,4.641,36.0
72.523,-5.452,4.342,5.0
73.012,-5.496,3.98,8.0
67.935,-5.12,3.347,42.0
67.927,-5.126,2.989,32.0
74.627,-5.645,5.369,5.0
71.124,-5.386,4.743,35.0
72.032,-5.46,4.423,16.0
71.557,-5.431,4.01,27.0
71.484,-5.431,3.63,8.0
67.941,-5.168,3.094,6.0
67.99,-5.184,4.996,18.0
67.982,-5.188,4.636,27.0
67.974,-5.193,4.279,37.0
67.959,-5.197,3.913,44.0
67.951,-5.201,3.555,48.0
67.959,-5.207,3.199,68.0
67.98,-5.222,5.101,81.0
67.981,-5.226,4.742,76.0
67.969,-5.229,4.383,84.0
67.954,-5.233,4.017,85.0
67.934,-5.236,3.659,91.0
67.927,-5.24,3.301,83.0
68.004,-5.259,5.207,72.0
67.978,-5.261,4.847,72.0
67.975,-5.265,4.487,72.0
67.961,-5.267,4.121,73.0
67.947,-5.27,3.763,74.0
67.935,-5.273,3.405,69.0
68.003,-5.291,5.311,15.0
68.016,-5.295,4.953,20.0
67.99,-5.297,4.592,23.0
67.974,-5.299,4.226,27.0
67.975,-5.302,3.868,29.0
67.953,-5.304,3.51,26.0
76.472,-5.984,6.091,5.0
78.096,-6.113,5.807,10.0
70.625,-5.531,4.878,27.0
75.768,-5.937,4.826,3.0
71.399,-5.597,4.172,9.0
71.492,-5.608,3.801,11.0
73.462,-5.777,5.962,34.0
72.706,-5.719,5.516,8.0
70.554,-5.552,4.98,32.0
76.252,-6.003,4.973,8.0
71.498,-5.631,4.286,23.0
71.459,-5.63,3.907,12.0
73.469,-5.803,6.075,20.0
71.02,-5.611,5.497,6.0
70.646,-5.582,5.094,31.0
75.192,-5.943,5.017,9.0
71.715,-5.67,4.407,16.0
71.368,-5.644,4.009,15.0
73.373,-5.818,6.177,10.0
70.97,-5.628,5.599,8.0
70.707,-5.607,5.205,12.0
71.15,-5.643,4.854,19.0
75.769,-6.011,4.769,6.0
71.399,-5.665,4.117,29.0
70.587,-5.615,6.049,9.0
73.214,-5.824,5.886,26.0
70.61,-5.617,5.303,10.0
74.7,-5.943,5.207,10.0
75.706,-6.023,4.876,9.0
71.398,-5.681,4.222,20.0
70.822,-5.649,6.174,15.0
73.314,-5.848,6.002,20.0
72.719,-5.8,5.568,5.0
70.689,-5.637,5.031,20.0
70.827,-5.648,4.666,20.0
71.778,-5.724,4.35,14.0
70.976,-5.674,6.293,18.0
73.276,-5.857,6.108,12.0
70.954,-5.67,5.538,7.0
70.644,-5.644,5.132,16.0
71.056,-5.677,4.786,41.0
71.787,-5.734,4.457,11.0
73.341,-5.873,6.611,8.0
73.188,-5.859,6.208,3.0
73.243,-5.862,5.824,14.0
70.503,-5.64,5.226,17.0
71.221,-5.696,4.901,12.0
76.005,-6.078,4.829,8.0
70.857,-5.68,6.491,17.0
73.099,-5.858,6.307,7.0
73.413,-5.88,5.944,14.0
70.699,-5.66,5.342,8.0
74.668,-5.976,5.246,5.0
75.541,-6.044,4.907,11.0
79.446,-6.373,7.392,9.0
70.945,-5.688,6.223,19.0
73.305,-5.874,6.04,21.0
71.008,-5.687,5.466,8.0
70.686,-5.659,5.066,17.0
70.917,-5.674,4.707,27.0
71.915,-5.769,6.795,12.0
70.969,-5.69,6.327,7.0
73.258,-5.869,6.141,9.0
70.959,-5.682,5.562,8.0
70.593,-5.649,5.159,13.0
71.154,-5.691,4.822,38.0
71.856,-5.762,6.89,22.0
70.87,-5.679,6.416,8.0
73.233,-5.863,6.24,5.0
73.253,-5.861,5.843,20.0
70.515,-5.638,5.25,17.0
74.723,-5.97,5.166,8.0
0.0,0.0,0.0,0.0
70.86,-5.671,6.513,16.0
70.855,-5.667,6.133,9.0
73.311,-5.858,5.948,23.0
70.825,-5.655,5.369,7.0
70.659,-5.638,4.98,9.0
71.897,-5.751,7.091,32.0
70.896,-5.665,6.612,5.0
70.884,-5.659,6.233,20.0
73.282,-5.845,6.044,17.0
70.94,-5.653,5.473,7.0
70.681,-5.628,5.076,34.0
72.146,-5.76,7.213,26.0
71.668,-5.715,6.78,9.0
70.971,-5.654,6.335,10.0
73.318,-5.835,6.145,9.0
70.944,-5.64,5.567,8.0
70.728,-5.617,5.173,17.0
71.787,-5.716,7.273,12.0
71.879,-5.717,6.897,17.0
70.919,-5.634,6.424,16.0
70.583,-5.602,6.008,10.0
73.159,-5.799,5.837,19.0
78.464,-6.213,5.841,12.0
71.624,-5.687,7.351,11.0
71.636,-5.68,6.966,35.0
70.878,-5.612,6.513,20.0
70.613,-5.585,6.103,16.0
73.424,-5.801,5.952,26.0
72.699,-5.736,5.505,9.0
71.369,-5.646,7.416,12.0
71.723,-5.666,7.067,49.0
70.977,-5.6,6.612,10.0
70.741,-5.574,6.203,12.0
73.596,-5.792,6.059,19.0
72.752,-5.718,5.6,6.0
78.1,-6.154,8.213,4.0
72.003,-5.665,7.184,34.0
70.996,-5.577,6.702,14.0
71.027,-5.572,6.315,8.0
70.802,-5.546,5.916,20.0
74.669,-5.842,5.839,7.0
71.348,-5.596,7.592,16.0
71.814,-5.624,7.254,15.0
70.87,-5.541,6.776,11.0
70.816,-5.529,6.383,6.0
70.707,-5.512,5.993,16.0
68.018,-5.294,5.4,27.0
71.492,-5.58,7.693,24.0
71.593,-5.578,7.317,19.0
70.85,-5.511,6.859,10.0
70.767,-5.496,6.462,15.0
67.996,-5.272,5.843,34.0
67.997,-5.264,5.478,74.0
117.34,-0.155,1.13,15.0
99.121,-0.142,0.374,2.0
0.0,0.0,0.0,0.0
45.435,-0.075,-0.363,1.0
0.0,0.0,0.0,0.0
30.484,-0.057,-0.6,0.0
110.873,-0.225,0.839,17.0
0.0,0.0,0.0,0.0
0.0,0.0,0.0,0.0
41.801,-0.099,-0.419,0.0
0.0,0.0,0.0,0.0
28.458,-0.074,-0.618,0.0
110.676,-0.306,0.614,1.0
73.747,-0.213,-0.02,0.0
51.229,-0.154,-0.313,0.0
0.0,0.0,0.0,0.0
31.151,-0.101,-0.557,0.0
26.707,-0.09,-0.633,0.0
103.106,-0.364,0.367,1.0
0.0,0.0,0.0,0.0
45.178,-0.171,-0.366,1.0
0.0,0.0,0.0,0.0
0.0,0.0,0.0,0.0
25.522,-0.106,-0.656,0.0
0.0,0.0,0.0,0.0
0.0,0.0,0.0,0.0
0.0,0.0,0.0,0.0
0.0,0.0,0.0,0.0
0.0,0.0,0.0,0.0
24.317,-0.121,-0.673,0.0
53.577,-0.277,-0.02,0.0
0.0,0.0,0.0,0.0
0.0,0.0,0.0,0.0
0.0,0.0,0.0,0.0
26.634,-0.152,-0.634,0.0
23.171,-0.136,-0.687,0.0
0.0,0.0,0.0,0.0
0.0,0.0,0.0,0.0
35.863,-0.227,-0.502,0.0
29.498,-0.191,-0.588,0.0
25.425,-0.168,-0.655,0.0
22.152,-0.15,-0.7,0.0
49.64,-0.345,-0.213,0.0
0.0,0.0,0.0,0.0
34.678,-0.251,-0.552,0.0
0.0,0.0,0.0,0.0
24.495,-0.184,-0.678,0.0
21.188,-0.163,-0.71,0.0
0.0,0.0,0.0,0.0
0.0,0.0,0.0,0.0
0.0,0.0,0.0,0.0
26.591,-0.221,-0.631,0.0
23.316,-0.197,-0.689,0.0
20.544,-0.177,-0.727,0.0
0.0,0.0,0.0,0.0
35.668,-0.32,-0.494,0.0
29.905,-0.273,-0.589,0.0
25.608,-0.238,-0.656,0.0
22.332,-0.211,-0.702,0.0
19.734,-0.19,-0.736,0.0
0.0,0.0,0.0,0.0
0.0,0.0,0.0,0.0
28.088,-0.285,-0.605,0.0
24.455,-0.252,-0.672,0.0
21.503,-0.225,-0.717,0.0
19.131,-0.204,-0.749,0.0
0.0,0.0,0.0,0.0
31.202,-0.344,-0.549,0.0
0.0,0.0,0.0,0.0
23.286,-0.264,-0.683,0.0
20.648,-0.238,-0.726,0.0
18.475,-0.216,-0.757,0.0
36.119,-0.43,-0.491,0.0
29.897,-0.361,-0.58,0.0
25.983,-0.318,-0.656,0.0
22.233,-0.276,-0.692,0.0
19.835,-0.25,-0.733,0.0
17.924,-0.229,-0.767,0.0
34.563,-0.449,-0.532,0.0
28.646,-0.377,-0.607,0.0
24.485,-0.327,-0.661,0.0
21.511,-0.291,-0.709,0.0
19.299,-0.264,-0.748,0.0
17.266,-0.24,-0.77,0.0
0.0,0.0,0.0,0.0
27.362,-0.391,-0.629,0.0
23.452,-0.34,-0.675,0.0
20.742,-0.304,-0.72,0.0
18.548,-0.275,-0.751,0.0
16.842,-0.253,-0.78,0.0
30.668,-0.468,-0.58,0.0
26.074,-0.403,-0.645,0.0
22.547,-0.352,-0.688,0.0
19.996,-0.316,-0.729,0.0
18.108,-0.29,-0.765,0.0
16.475,-0.267,-0.792,0.0
28.87,-0.474,-0.596,0.0
24.889,-0.414,-0.658,0.0
21.738,-0.365,-0.701,0.0
19.345,-0.329,-0.738,0.0
17.683,-0.304,-0.778,0.0
15.964,-0.278,-0.795,0.0
0.0,0.0,0.0,0.0
23.83,-0.424,-0.67,0.0
21.216,-0.382,-0.72,0.0
18.245,-0.332,-0.727,0.0
17.073,-0.314,-0.78,0.0
15.654,-0.291,-0.806,0.0
26.455,-0.499,-0.635,0.0
22.975,-0.438,-0.684,0.0
20.302,-0.391,-0.723,0.0
18.112,-0.352,-0.752,21.0
16.667,-0.328,-0.788,0.0
15.267,-0.303,-0.811,0.0
25.434,-0.511,-0.651,0.0
18.155,-0.368,-0.57,1.0
18.152,-0.372,-0.675,7.0
18.082,-0.374,-0.779,4.0
18.144,-0.38,-0.888,1.0
18.152,-0.383,-0.994,0.0
18.149,-0.387,-0.494,0.0
18.11,-0.39,-0.598,154.0
18.137,-0.395,-0.704,58.0
18.092,-0.398,-0.808,3.0
18.149,-0.403,-0.916,26.0
18.153,-0.407,-1.022,1.0
18.165,-0.411,-0.522,52.0
18.095,-0.413,-0.625,161.0
18.119,-0.418,-0.731,67.0
18.038,-0.42,-0.834,12.0
18.142,-0.426,-0.944,22.0
18.145,-0.43,-1.05,1.0
18.159,-0.435,-0.55,152.0
18.15,-0.439,-0.655,151.0
18.105,-0.441,-0.758,16.0
18.139,-0.446,-0.867,29.0
18.127,-0.45,-0.971,11.0
18.136,-0.454,-1.077,0.0
18.113,-0.458,-0.576,157.0
18.135,-0.463,-0.682,38.0
18.045,-0.464,-0.783,3.0
18.133,-0.471,-0.893,7.0
18.143,-0.475,-0.999,0.0
13.674,-0.361,-0.832,0.0
18.174,-0.484,-0.605,48.0
21.885,-0.588,-0.855,11.0
17.404,-0.472,-0.78,0.0
21.898,-0.598,-1.111,0.0
14.452,-0.398,-0.817,0.0
13.48,-0.375,-0.84,0.0
21.821,-0.612,-0.758,19.0
21.88,-0.619,-0.886,21.0
21.89,-0.624,-1.013,1.0
15.329,-0.44,-0.8,0.0
14.253,-0.413,-0.826,0.0
13.25,-0.387,-0.845,0.0
21.874,-0.644,-0.791,2.0
18.197,-0.54,-0.763,1.0
16.432,-0.492,-0.784,0.0
15.156,-0.457,-0.812,0.0
14.005,-0.426,-0.831,0.0
12.964,-0.397,-0.845,0.0
19.593,-0.605,-0.735,0.0
17.701,-0.55,-0.766,0.0
16.161,-0.506,-0.793,0.0
14.784,-0.467,-0.812,0.0
13.693,-0.436,-0.831,0.0
12.758,-0.409,-0.849,0.0
19.197,-0.62,-0.746,0.0
17.355,-0.565,-0.774,0.0
15.85,-0.519,-0.799,0.0
14.567,-0.481,-0.819,0.0
13.509,-0.449,-0.838,0.0
12.511,-0.419,-0.849,0.0
18.599,-0.628,-0.746,0.0
16.913,-0.575,-0.776,0.0
15.507,-0.531,-0.801,0.0
14.259,-0.492,-0.821,0.0
13.319,-0.463,-0.843,0.0
12.306,-0.431,-0.85,0.0
18.3,-0.644,-0.758,0.0
16.593,-0.588,-0.782,0.0
15.212,-0.543,-0.805,0.0
14.015,-0.504,-0.824,0.0
13.166,-0.477,-0.85,0.0
12.086,-0.441,-0.85,0.0
17.772,-0.652,-0.757,0.0
16.294,-0.602,-0.788,0.0
14.935,-0.555,-0.808,0.0
13.82,-0.517,-0.829,0.0
12.909,-0.487,-0.849,0.0
11.904,-0.452,-0.852,0.0
17.535,-0.669,-0.768,0.0
16.001,-0.615,-0.793,0.0
14.668,-0.567,-0.811,0.0
13.625,-0.531,-0.833,0.0
12.557,-0.492,-0.841,0.0
11.749,-0.464,-0.854,0.0
17.155,-0.681,-0.771,0.0
15.756,-0.629,-0.799,0.0
14.469,-0.582,-0.817,0.0
13.451,-0.544,-0.838,0.0
12.437,-0.507,-0.847,0.0
11.593,-0.475,-0.856,0.0
17.08,-0.704,-0.787,0.0
15.453,-0.641,-0.8,0.0
14.357,-0.599,-0.826,0.0
13.257,-0.557,-0.84,0.0
12.273,-0.519,-0.849,0.0
11.453,-0.487,-0.858,0.0
16.632,-0.711,-0.784,0.0
15.179,-0.653,-0.802,0.0
14.089,-0.61,-0.826,0.0
13.113,-0.571,-0.845,0.0
12.143,-0.532,-0.852,0.0
11.322,-0.499,-0.86,0.0
16.35,-0.724,-0.787,0.0
15.101,-0.673,-0.814,0.0
13.948,-0.625,-0.832,0.0
13.031,-0.588,-0.853,0.0
11.971,-0.543,-0.852,0.0
11.189,-0.511,-0.861,0.0
16.239,-0.744,-0.798,0.0
14.831,-0.684,-0.814,0.0
13.724,-0.636,-0.832,0.0
12.758,-0.595,-0.848,0.0
11.822,-0.555,-0.853,0.0
11.1,-0.524,-0.865,0.0
20.091,-0.952,-1.007,0.0
14.605,-0.696,-0.815,0.0
13.463,-0.645,-0.829,0.0
12.559,-0.606,-0.846,0.0
11.69,-0.567,-0.855,0.0
11.002,-0.537,-0.868,0.0
20.065,-0.983,-1.024,0.0
14.429,-0.711,-0.819,0.0
13.432,-0.665,-0.839,0.0
12.407,-0.618,-0.847,0.0
11.596,-0.581,-0.858,0.0
10.923,-0.55,-0.871,0.0
15.448,-0.781,-0.802,0.0
14.344,-0.729,-0.826,0.0
13.292,-0.679,-0.842,0.0
12.283,-0.631,-0.849,0.0
11.465,-0.592,-0.858,0.0
10.859,-0.564,-0.875,0.0
15.276,-0.796,-0.805,0.0
14.121,-0.74,-0.825,0.0
13.188,-0.695,-0.846,0.0
12.17,-0.645,-0.851,0.0
11.379,-0.606,-0.861,0.0
10.771,-0.577,-0.877,0.0
15.079,-0.81,-0.807,0.0
13.961,-0.754,-0.826,0.0
13.037,-0.707,-0.846,0.0
12.074,-0.659,-0.854,0.0
11.286,-0.619,-0.863,0.0
10.691,-0.589,-0.878,0.0
14.927,-0.825,-0.81,0.0
13.87,-0.771,-0.831,0.0
12.915,-0.721,-0.848,0.0
11.942,-0.67,-0.853,0.0
11.207,-0.632,-0.865,0.0
10.616,-0.602,-0.88,0.0
14.736,-0.838,-0.81,0.0
13.702,-0.783,-0.831,0.0
12.873,-0.739,-0.854,0.0
11.858,-0.684,-0.855,0.0
11.144,-0.647,-0.867,0.0
10.54,-0.615,-0.881,0.0
14.589,-0.852,-0.811,0.0
13.61,-0.799,-0.834,0.0
12.55,-0.741,-0.841,0.0
11.756,-0.697,-0.855,0.0
11.064,-0.659,-0.868,0.0
10.471,-0.627,-0.882,0.0
14.564,-0.874,-0.819,0.0
13.52,-0.815,-0.837,0.0
12.494,-0.757,-0.844,0.0
11.69,-0.712,-0.858,0.0
11.033,-0.675,-0.872,0.0
10.41,-0.64,-0.883,0.0
14.396,-0.887,-0.818,0.0
13.389,-0.829,-0.836,0.0
12.436,-0.773,-0.847,0.0
11.619,-0.726,-0.859,0.0
10.967,-0.688,-0.873,0.0
10.368,-0.654,-0.885,0.0
14.317,-0.904,-0.821,0.0
13.277,-0.842,-0.836,0.0
12.352,-0.787,-0.848,0.0
11.562,-0.74,-0.861,0.0
10.924,-0.703,-0.875,0.0
10.325,-0.668,-0.886,0.0
14.247,-0.922,-0.824,0.0
13.247,-0.861,-0.841,0.0
12.291,-0.803,-0.85,0.0
11.514,-0.756,-0.863,0.0
10.869,-0.716,-0.876,0.0
10.292,-0.681,-0.888,0.0
14.165,-0.939,-0.825,0.0
13.203,-0.879,-0.844,0.0
12.213,-0.817,-0.85,0.0
11.451,-0.769,-0.863,0.0
10.851,-0.732,-0.879,0.0
10.263,-0.696,-0.89,0.0
14.117,-0.958,-0.828,0.0
13.045,-0.889,-0.839,0.0
12.146,-0.831,-0.85,0.0
11.398,-0.783,-0.863,0.0
10.814,-0.747,-0.88,0.0
10.218,-0.709,-0.89,0.0
14.014,-0.973,-0.827,0.0
13.066,-0.911,-0.845,0.0
12.137,-0.85,-0.853,0.0
11.318,-0.796,-0.861,0.0
10.789,-0.762,-0.882,0.0
10.199,-0.723,-0.891,0.0
13.865,-0.984,-0.823,0.0
13.032,-0.929,-0.847,0.0
12.084,-0.865,-0.853,0.0
11.343,-0.815,-0.866,0.0
10.77,-0.777,-0.883,0.0
10.181,-0.738,-0.893,0.0
13.893,-1.007,-0.828,0.0
13.017,-0.948,-0.849,0.0
12.067,-0.882,-0.855,0.0
11.313,-0.83,-0.867,0.0
10.726,-0.791,-0.882,0.0
10.137,-0.75,-0.891,0.0
13.844,-1.025,-0.829,0.0
12.913,-0.96,-0.845,0.0
12.037,-0.898,-0.856,0.0
11.296,-0.846,-0.868,0.0
10.69,-0.804,-0.882,0.0
10.156,-0.767,-0.895,0.0
13.793,-1.042,-0.828,0.0
12.894,-0.978,-0.846,0.0
12.019,-0.915,-0.857,0.0
11.274,-0.862,-0.868,0.0
10.682,-0.82,-0.883,0.0
10.124,-0.78,-0.894,0.0
13.777,-1.062,-0.829,0.0
12.873,-0.996,-0.847,0.0
12.026,-0.934,-0.859,0.0
11.269,-0.878,-0.869,0.0
10.676,-0.835,-0.884,0.0
10.121,-0.795,-0.895,0.0
13.787,-1.083,-0.831,0.0
12.84,-1.012,-0.846,0.0
12.031,-0.952,-0.86,0.0
11.274,-0.896,-0.871,0.0
10.695,-0.853,-0.886,0.0
10.12,-0.81,-0.895,0.0
13.694,-1.096,-0.827,0.0
12.827,-1.031,-0.846,0.0
12.035,-0.97,-0.861,0.0
