X,Y,Z,Reflectivity
45.876,-5.711,-0.045,7.0
36.89,-4.59,-0.234,14.0
0.0,0.0,0.0,0.0
23.037,-2.864,-0.395,20.0
20.466,-2.543,-0.46,20.0
18.438,-2.29,-0.513,18.0
103.798,-9.587,3.119,9.0
119.232,-10.975,2.933,25.0
126.395,-11.592,2.421,24.0
135.57,-12.391,1.843,22.0
111.224,-10.132,0.907,3.0
67.385,-6.117,0.182,3.0
104.369,-9.476,3.192,11.0
74.028,-6.696,1.86,11.0
126.408,-11.392,2.488,15.0
135.618,-12.178,1.915,46.0
111.097,-9.942,0.963,3.0
80.423,-7.171,0.259,6.0
104.419,-9.311,3.247,12.0
75.522,-6.709,1.936,12.0
135.692,-12.008,2.738,19.0
135.675,-11.961,1.983,130.0
112.309,-9.866,1.029,5.0
83.446,-7.303,0.309,5.0
72.013,-6.301,2.274,18.0
119.237,-10.394,3.114,23.0
119.243,-10.353,2.463,69.0
119.234,-10.313,1.798,75.0
114.702,-9.883,1.103,3.0
83.318,-7.152,0.347,9.0
71.757,-6.158,2.298,8.0
72.598,-6.205,1.927,9.0
119.311,-10.158,2.516,24.0
119.262,-10.114,1.85,24.0
114.434,-9.666,1.149,4.0
83.675,-7.041,0.383,9.0
72.006,-6.057,2.336,7.0
119.271,-9.991,3.216,11.0
119.335,-9.955,2.563,6.0
119.301,-9.912,1.899,43.0
119.104,-9.856,1.243,6.0
85.489,-7.045,0.424,6.0
71.885,-5.922,2.359,15.0
74.769,-6.133,2.044,10.0
119.338,-9.747,2.608,71.0
119.304,-9.704,1.941,58.0
119.215,-9.657,1.287,10.0
86.983,-7.016,0.462,8.0
72.411,-5.838,2.401,51.0
71.67,-5.753,1.983,5.0
72.567,-5.8,1.61,17.0
119.333,-9.496,1.98,35.0
67.9,-5.379,0.754,26.0
67.87,-5.354,0.382,59.0
67.929,-5.356,2.273,33.0
67.898,-5.329,1.899,64.0
67.884,-5.304,1.526,88.0
67.865,-5.279,1.146,98.0
67.875,-5.256,0.773,71.0
67.881,-5.234,0.401,38.0
67.929,-5.234,2.292,38.0
71.665,-5.496,2.024,10.0
72.701,-5.55,1.654,7.0
119.377,-9.072,2.047,150.0
119.229,-9.018,1.389,16.0
20.033,-1.508,0.123,0.0
71.803,-5.403,2.439,12.0
71.618,-5.363,2.039,37.0
119.404,-8.9,2.743,17.0
20.032,-1.486,0.347,2.0
20.024,-1.478,0.237,18.0
20.025,-1.471,0.127,21.0
67.874,-4.982,2.32,15.0
20.024,-1.462,0.574,5.0
20.01,-1.454,0.463,9.0
20.002,-1.446,0.351,10.0
20.022,-1.441,0.241,31.0
20.012,-1.433,0.13,16.0
20.034,-1.433,0.688,8.0
19.992,-1.423,0.576,10.0
20.0,-1.416,0.466,10.0
20.01,-1.409,0.354,9.0
20.049,-1.405,0.244,3.0
102.824,-7.172,0.685,14.0
20.006,-1.394,0.689,11.0
20.009,-1.387,0.579,8.0
20.044,-1.382,0.469,9.0
20.069,-1.376,0.357,0.0
20.0,-1.364,0.245,0.0
20.001,-1.357,0.135,15.0
20.017,-1.357,0.691,12.0
20.064,-1.352,0.582,10.0
20.019,-1.342,0.47,7.0
19.953,-1.33,0.356,13.0
19.971,-1.325,0.246,27.0
19.991,-1.319,0.136,24.0
19.98,-1.316,0.691,11.0
19.943,-1.307,0.579,17.0
19.919,-1.298,0.468,16.0
19.913,-1.29,0.356,18.0
19.968,-1.287,0.247,28.0
19.982,-1.28,0.136,23.0
8.267,0.136,-0.928,0.0
7.877,0.128,-0.929,0.0
7.605,0.122,-0.94,0.0
0.0,0.0,0.0,0.0
0.0,0.0,0.0,0.0
6.753,0.105,-0.95,0.0
8.278,0.127,-0.93,0.0
7.878,0.119,-0.929,0.0
7.585,0.113,-0.938,0.0
0.0,0.0,0.0,0.0
0.0,0.0,0.0,0.0
6.743,0.097,-0.949,0.0
8.258,0.117,-0.927,0.0
7.879,0.11,-0.929,0.0
7.625,0.105,-0.942,0.0
0.0,0.0,0.0,0.0
0.0,0.0,0.0,0.0
0.0,0.0,0.0,0.0
8.265,0.108,-0.928,0.0
7.895,0.101,-0.931,0.0
7.575,0.096,-0.936,0.0
0.0,0.0,0.0,0.0
0.0,0.0,0.0,0.0
0.0,0.0,0.0,0.0
8.236,0.098,-0.924,0.0
7.911,0.093,-0.932,0.0
7.597,0.087,-0.938,0.0
0.0,0.0,0.0,0.0
0.0,0.0,0.0,0.0
0.0,0.0,0.0,0.0
8.248,0.089,-0.924,0.0
7.91,0.083,-0.931,0.0
7.606,0.079,-0.938,0.0
0.0,0.0,0.0,0.0
0.0,0.0,0.0,0.0
0.0,0.0,0.0,0.0
8.286,0.08,-0.927,0.0
7.935,0.075,-0.932,0.0
7.613,0.07,-0.937,0.0
0.0,0.0,0.0,0.0
0.0,0.0,0.0,0.0
0.0,0.0,0.0,0.0
8.293,0.07,-0.926,0.0
7.973,0.066,-0.935,0.0
7.604,0.061,-0.934,0.0
0.0,0.0,0.0,0.0
0.0,0.0,0.0,0.0
0.0,0.0,0.0,0.0
8.316,0.061,-0.926,0.0
8.01,0.057,-0.936,0.0
7.621,0.053,-0.934,0.0
0.0,0.0,0.0,0.0
0.0,0.0,0.0,0.0
0.0,0.0,0.0,0.0
8.341,0.052,-0.926,0.0
7.988,0.048,-0.931,0.0
7.701,0.045,-0.941,0.0
0.0,0.0,0.0,0.0
0.0,0.0,0.0,0.0
0.0,0.0,0.0,0.0
8.364,0.042,-0.926,0.0
0.0,0.0,0.0,0.0
7.67,0.036,-0.934,0.0
0.0,0.0,0.0,0.0
0.0,0.0,0.0,0.0
0.0,0.0,0.0,0.0
8.35,0.033,-0.92,0.0
7.988,0.03,-0.925,0.0
7.675,0.027,-0.931,0.0
0.0,0.0,0.0,0.0
0.0,0.0,0.0,0.0
6.898,0.02,-0.954,0.0
8.378,0.024,-0.92,0.0
8.064,0.021,-0.93,0.0
7.796,0.019,-0.942,0.0
0.0,0.0,0.0,0.0
0.0,0.0,0.0,0.0
6.922,0.013,-0.953,0.0
8.458,0.015,-0.924,0.0
8.083,0.012,-0.928,0.0
0.0,0.0,0.0,0.0
0.0,0.0,0.0,0.0
0.0,0.0,0.0,0.0
0.0,0.0,0.0,0.0
8.444,0.005,-0.918,0.0
8.119,0.004,-0.928,0.0
0.0,0.0,0.0,0.0
0.0,0.0,0.0,0.0
0.0,0.0,0.0,0.0
6.975,-0.002,-0.953,0.0
8.47,-0.003,-0.916,0.0
8.157,-0.004,-0.927,0.0
7.876,-0.006,-0.939,0.0
0.0,0.0,0.0,0.0
0.0,0.0,0.0,0.0
7.041,-0.009,-0.957,0.0
33.57,2.275,-0.547,0.0
28.3,1.91,-0.617,0.0
24.58,1.653,-0.672,0.0
21.482,1.438,-0.708,0.0
19.42,1.295,-0.747,0.0
17.66,1.173,-0.777,0.0
33.51,2.209,-0.541,0.0
28.312,1.858,-0.613,0.0
24.49,1.601,-0.665,0.0
21.692,1.412,-0.711,0.0
19.606,1.271,-0.751,0.0
17.735,1.145,-0.777,0.0
33.816,2.165,-0.54,0.0
28.887,1.841,-0.62,0.0
25.037,1.589,-0.676,0.0
21.766,1.376,-0.71,0.0
19.581,1.232,-0.746,0.0
17.736,1.111,-0.774,0.0
33.627,2.09,-0.53,0.0
0.0,0.0,0.0,0.0
24.88,1.532,-0.666,0.0
22.009,1.349,-0.712,0.0
19.704,1.203,-0.746,0.0
17.858,1.085,-0.775,0.0
34.561,2.082,-0.536,0.0
29.288,1.756,-0.615,0.0
25.161,1.501,-0.667,0.0
22.182,1.317,-0.712,0.0
19.763,1.168,-0.743,0.0
17.948,1.056,-0.773,0.0
35.037,2.044,-0.533,0.0
28.583,1.659,-0.592,0.0
25.353,1.464,-0.664,0.0
22.374,1.286,-0.711,0.0
19.866,1.136,-0.74,0.0
18.037,1.027,-0.771,0.0
35.211,1.987,-0.524,0.0
29.315,1.645,-0.597,0.0
25.673,1.434,-0.664,0.0
22.46,1.248,-0.706,0.0
20.099,1.111,-0.742,0.0
18.258,1.004,-0.774,0.0
35.59,1.941,-0.517,0.0
29.855,1.619,-0.597,0.0
25.784,1.391,-0.657,0.0
22.517,1.208,-0.699,0.0
20.248,1.08,-0.739,0.0
18.199,0.966,-0.764,0.0
35.665,1.876,-0.504,0.0
30.08,1.573,-0.589,0.0
25.986,1.351,-0.651,0.0
22.685,1.173,-0.694,0.0
20.395,1.049,-0.736,0.0
18.352,0.938,-0.762,0.0
37.074,1.878,-0.507,0.0
0.0,0.0,0.0,0.0
26.652,1.335,-0.655,0.0
23.171,1.153,-0.698,0.0
20.58,1.018,-0.732,0.0
18.576,0.914,-0.762,0.0
37.574,1.831,-0.495,0.0
31.341,1.518,-0.583,0.0
26.821,1.291,-0.645,0.0
23.335,1.116,-0.691,0.0
20.868,0.992,-0.732,0.0
18.707,0.884,-0.758,0.0
38.171,1.786,-0.482,0.0
31.491,1.464,-0.569,0.0
26.834,1.24,-0.631,0.0
23.556,1.081,-0.684,0.0
21.17,0.965,-0.73,0.0
18.992,0.861,-0.759,0.0
38.334,1.72,-0.463,0.0
32.208,1.436,-0.564,0.0
27.472,1.216,-0.63,0.0
23.845,1.049,-0.679,0.0
21.356,0.933,-0.724,0.0
19.094,0.829,-0.751,0.0
40.134,1.724,-0.46,0.0
33.055,1.41,-0.559,0.0
28.085,1.189,-0.627,0.0
0.0,0.0,0.0,0.0
21.544,0.9,-0.717,0.0
19.427,0.805,-0.752,0.0
40.732,1.671,-0.441,0.0
33.563,1.367,-0.545,0.0
28.48,1.151,-0.617,0.0
24.704,0.991,-0.671,0.0
21.861,0.871,-0.712,0.0
19.555,0.773,-0.743,0.0
44.694,1.747,-0.453,0.0
0.0,0.0,0.0,0.0
29.196,1.124,-0.612,0.0
25.177,0.962,-0.666,0.0
22.507,0.853,-0.717,0.0
19.903,0.748,-0.742,0.0
104.691,0.841,0.74,9.0
85.347,0.662,0.151,6.0
0.0,0.0,0.0,0.0
46.016,0.331,-0.409,1.0
35.856,0.248,-0.508,0.0
30.823,0.204,-0.6,0.0
105.007,0.667,0.88,13.0
87.789,0.532,0.273,3.0
0.0,0.0,0.0,0.0
48.777,0.269,-0.368,0.0
0.0,0.0,0.0,0.0
31.662,0.157,-0.573,0.0
111.086,0.522,1.08,20.0
94.739,0.418,0.422,3.0
0.0,0.0,0.0,0.0
0.0,0.0,0.0,0.0
42.641,0.153,-0.488,0.0
34.017,0.113,-0.569,0.0
119.755,0.365,1.33,9.0
103.991,0.289,0.607,9.0
0.0,0.0,0.0,0.0
0.0,0.0,0.0,0.0
42.84,0.084,-0.431,1.0
35.29,0.06,-0.54,0.0
111.126,0.158,1.392,19.0
110.791,0.129,0.804,9.0
95.573,0.085,0.191,2.0
0.0,0.0,0.0,0.0
45.549,0.016,-0.392,2.0
37.301,0.003,-0.517,0.0
117.327,-0.019,1.638,15.0
117.235,-0.051,1.021,11.0
99.013,-0.068,0.341,2.0
0.0,0.0,0.0,0.0
47.519,-0.057,-0.34,0.0
0.0,0.0,0.0,0.0
112.857,-0.194,1.74,2.0
114.489,-0.226,1.163,53.0
110.869,-0.248,0.545,2.0
0.0,0.0,0.0,0.0
0.0,0.0,0.0,0.0
0.0,0.0,0.0,0.0
114.76,-0.374,1.94,1.0
119.672,-0.42,1.395,13.0
111.136,-0.418,0.712,5.0
0.0,0.0,0.0,0.0
0.0,0.0,0.0,0.0
43.791,-0.198,-0.412,0.0
119.806,-0.572,2.206,46.0
119.776,-0.602,1.579,12.0
119.718,-0.631,0.95,10.0
0.0,0.0,0.0,0.0
0.0,0.0,0.0,0.0
0.0,0.0,0.0,0.0
119.817,-0.75,2.392,77.0
119.772,-0.779,1.764,25.0
119.707,-0.809,1.137,16.0
111.418,-0.78,0.464,4.0
0.0,0.0,0.0,0.0
0.0,0.0,0.0,0.0
119.743,-0.926,2.58,71.0
119.754,-0.954,1.952,81.0
119.664,-0.982,1.325,16.0
114.403,-0.967,0.658,5.0
0.0,0.0,0.0,0.0
53.701,-0.479,-0.252,0.0
119.729,-1.097,2.77,150.0
119.736,-1.126,2.145,150.0
119.76,-1.153,1.518,150.0
119.741,-1.181,0.88,150.0
0.0,0.0,0.0,0.0
0.0,0.0,0.0,0.0
209.105,-2.207,5.173,21.0
0.0,0.0,0.0,0.0
139.205,-1.532,1.988,4.0
139.22,-1.565,1.248,23.0
0.0,0.0,0.0,0.0
0.0,0.0,0.0,0.0
0.0,0.0,0.0,0.0
210.441,-2.558,4.453,12.0
204.167,-2.525,3.253,8.0
139.254,-1.754,1.479,9.0
127.624,-1.636,0.69,8.0
0.0,0.0,0.0,0.0
113.239,-1.501,3.174,11.0
206.55,-2.782,4.71,17.0
204.135,-2.795,3.592,10.0
139.008,-1.934,1.707,3.0
138.79,-1.962,0.982,22.0
0.0,0.0,0.0,0.0
0.0,0.0,0.0,0.0
0.0,0.0,0.0,0.0
194.73,-2.918,3.754,6.0
139.012,-2.113,1.941,7.0
138.956,-2.142,1.218,11.0
113.402,-1.773,0.405,4.0
0.0,0.0,0.0,0.0
112.623,-1.807,2.949,21.0
0.0,0.0,0.0,0.0
193.639,-3.187,3.036,7.0
139.158,-2.319,1.458,8.0
138.963,-2.346,0.735,6.0
112.742,-1.927,3.735,21.0
112.763,-1.949,3.147,24.0
206.314,-3.607,4.684,13.0
193.567,-3.424,3.37,19.0
0.0,0.0,0.0,0.0
139.053,-2.516,0.976,19.0
112.651,-2.061,3.927,23.0
113.134,-2.091,3.354,19.0
0.0,0.0,0.0,0.0
193.387,-3.652,3.705,20.0
138.965,-2.65,1.939,5.0
138.989,-2.677,1.217,21.0
113.167,-2.203,4.142,16.0
112.701,-2.214,3.537,25.0
206.492,-4.097,5.409,11.0
193.608,-3.878,4.048,21.0
193.121,-3.906,3.036,6.0
138.917,-2.834,1.461,4.0
106.608,-2.196,4.089,16.0
113.077,-2.351,3.75,21.0
112.671,-2.362,3.152,10.0
193.678,-4.097,4.394,5.0
193.192,-4.123,3.382,14.0
0.0,0.0,0.0,0.0
106.475,-2.312,4.275,6.0
113.327,-2.481,3.962,20.0
112.611,-2.485,3.351,10.0
117.77,-2.619,2.882,15.0
194.024,-4.349,3.743,6.0
138.781,-3.135,1.957,4.0
96.4,-2.196,4.043,14.0
116.82,-2.681,4.292,7.0
113.225,-2.618,3.573,9.0
117.939,-2.745,3.097,18.0
0.0,0.0,0.0,0.0
193.002,-4.559,3.07,14.0
82.086,-1.955,3.592,8.0
96.747,-2.319,3.73,16.0
120.755,-2.915,4.03,18.0
0.0,0.0,0.0,0.0
117.716,-2.88,2.697,5.0
193.052,-4.754,3.423,12.0
81.95,-2.034,3.736,13.0
101.805,-2.543,4.112,11.0
116.77,-2.933,4.11,15.0
120.859,-3.055,3.614,12.0
205.522,-5.227,5.083,12.0
195.168,-4.993,3.816,4.0
81.42,-2.099,3.86,12.0
101.758,-2.638,4.296,12.0
106.301,-2.771,3.936,11.0
120.782,-3.166,3.834,25.0
207.225,-5.464,5.507,10.0
0.0,0.0,0.0,0.0
81.222,-2.168,4.0,32.0
95.043,-2.551,4.188,13.0
105.904,-2.857,4.117,16.0
120.521,-3.268,4.048,27.0
0.0,0.0,0.0,0.0
0.0,0.0,0.0,0.0
81.529,-2.248,4.166,13.0
81.177,-2.25,3.727,15.0
94.654,-2.636,3.855,10.0
120.259,-3.365,4.262,17.0
205.477,-5.776,6.219,9.0
194.331,-5.489,4.875,8.0
85.39,-2.428,4.523,14.0
81.137,-2.318,3.877,35.0
81.438,-2.336,3.468,9.0
101.865,-2.935,3.8,8.0
120.431,-3.485,3.869,10.0
194.078,-5.639,5.231,19.0
66.047,-1.931,3.621,19.0
80.906,-2.376,4.016,34.0
81.257,-2.395,3.612,33.0
101.059,-2.991,3.958,13.0
105.971,-3.148,3.601,16.0
193.912,-5.783,5.587,15.0
65.616,-1.969,3.72,21.0
80.382,-2.421,4.139,18.0
81.314,-2.458,3.766,32.0
101.115,-3.067,4.148,18.0
106.02,-3.228,3.801,17.0
194.791,-5.951,5.974,5.0
56.927,-1.75,3.334,25.0
80.012,-2.468,4.271,13.0
81.105,-2.51,3.909,16.0
101.152,-3.14,4.34,13.0
101.69,-3.167,3.836,25.0
120.567,-3.768,3.925,3.0
44.898,-1.474,5.215,37.0
44.465,-1.454,4.925,30.0
44.218,-1.44,4.661,36.0
45.154,-1.464,4.512,20.0
46.612,-1.505,4.409,12.0
44.231,-1.422,3.948,36.0
44.392,-1.433,5.218,21.0
44.103,-1.417,4.946,23.0
44.047,-1.409,4.703,41.0
44.836,-1.428,4.542,35.0
55.973,-1.774,5.371,7.0
44.325,-1.399,4.016,22.0
44.121,-1.398,5.246,19.0
44.039,-1.389,4.998,18.0
43.967,-1.38,4.753,38.0
44.678,-1.396,4.585,46.0
43.715,-1.359,4.252,17.0
43.718,-1.353,4.018,23.0
44.241,-1.374,5.32,37.0
43.647,-1.349,5.012,42.0
43.897,-1.35,4.804,34.0
44.335,-1.357,4.609,33.0
0.0,0.0,0.0,0.0
43.682,-1.323,4.072,32.0
43.806,-1.332,5.324,48.0
43.854,-1.326,5.093,18.0
43.724,-1.316,4.841,40.0
43.865,-1.313,4.616,43.0
44.984,-1.339,4.491,20.0
43.586,-1.291,4.117,36.0
44.138,-1.312,5.42,36.0
43.67,-1.291,5.126,41.0
43.608,-1.282,4.882,43.0
43.734,-1.279,4.656,41.0
44.898,-1.305,4.538,20.0
43.608,-1.261,4.173,34.0
44.436,-1.289,5.512,30.0
43.727,-1.261,5.186,38.0
43.725,-1.254,4.949,39.0
43.671,-1.245,4.702,47.0
44.182,-1.253,4.518,27.0
43.619,-1.229,4.225,27.0
44.366,-1.254,5.556,31.0
43.744,-1.23,5.24,41.0
43.668,-1.22,4.993,37.0
43.707,-1.213,4.756,44.0
43.742,-1.207,4.524,37.0
43.632,-1.197,4.277,23.0
44.359,-1.22,5.607,30.0
44.243,-1.209,5.351,24.0
43.67,-1.186,5.044,28.0
43.693,-1.179,4.804,43.0
43.72,-1.172,4.57,46.0
45.518,-1.213,4.512,3.0
44.393,-1.186,5.661,32.0
44.376,-1.178,5.416,18.0
44.02,-1.16,5.132,32.0
43.734,-1.145,4.857,41.0
43.747,-1.138,4.62,39.0
45.53,-1.176,4.562,28.0
44.328,-1.148,5.7,17.0
51.206,-1.317,6.305,25.0
44.295,-1.132,5.211,18.0
44.051,-1.117,4.938,19.0
43.456,-1.094,4.635,43.0
0.0,0.0,0.0,0.0
44.959,-1.127,5.829,21.0
52.283,-1.3,6.492,7.0
44.249,-1.092,5.252,32.0
44.472,-1.09,5.031,19.0
43.539,-1.059,4.688,31.0
43.671,-1.054,4.465,34.0
45.105,-1.091,5.893,21.0
44.509,-1.068,5.571,41.0
50.078,-1.193,5.993,13.0
44.589,-1.054,5.088,19.0
43.284,-1.015,4.702,44.0
43.488,-1.011,4.488,41.0
45.211,-1.054,5.951,20.0
44.43,-1.027,5.603,18.0
0.0,0.0,0.0,0.0
44.936,-1.021,5.17,22.0
43.444,-0.979,4.76,28.0
43.268,-0.967,4.505,44.0
44.853,-1.003,5.946,20.0
47.787,-1.06,6.071,15.0
48.305,-1.062,5.871,5.0
45.34,-0.988,5.257,31.0
43.411,-0.939,4.795,36.0
43.226,-0.926,4.539,40.0
45.019,-0.966,6.007,20.0
45.678,-0.971,5.843,20.0
44.354,-0.934,5.429,26.0
50.074,-1.045,5.849,6.0
43.72,-0.905,4.866,18.0
43.377,-0.889,4.591,38.0
91.633,1.832,3.524,16.0
91.827,1.818,2.999,31.0
91.841,1.802,2.468,11.0
87.19,1.694,1.83,46.0
87.377,1.681,1.328,13.0
91.934,1.752,0.866,18.0
91.727,1.732,3.364,24.0
91.804,1.716,2.836,31.0
91.613,1.695,2.3,14.0
88.137,1.614,1.695,1.0
87.559,1.587,1.177,6.0
91.817,1.646,0.703,19.0
91.902,1.63,3.208,16.0
91.83,1.61,2.674,20.0
91.868,1.593,2.144,36.0
91.865,1.574,1.603,46.0
91.879,1.556,1.072,35.0
91.804,1.537,0.541,5.0
120.372,1.993,3.992,19.0
91.994,1.504,2.518,16.0
91.959,1.484,1.985,24.0
91.941,1.466,1.445,33.0
91.931,1.447,0.913,30.0
81.042,1.259,0.336,5.0
98.572,1.511,3.096,11.0
98.648,1.491,2.528,12.0
119.962,1.789,2.382,43.0
98.746,1.452,1.379,18.0
98.631,1.429,0.807,11.0
81.043,1.158,0.196,1.0
98.481,1.386,2.924,27.0
98.558,1.366,2.356,26.0
98.571,1.346,1.788,28.0
98.547,1.324,1.208,34.0
85.48,1.13,0.555,5.0
78.044,1.014,0.055,0.0
98.535,1.261,2.758,32.0
98.552,1.239,2.19,29.0
98.544,1.217,1.62,29.0
98.519,1.196,1.042,27.0
85.297,1.017,0.41,12.0
0.0,0.0,0.0,0.0
98.571,1.132,2.594,23.0
98.586,1.109,2.025,28.0
98.573,1.087,1.455,27.0
98.452,1.063,0.874,16.0
85.555,0.904,0.266,2.0
0.0,0.0,0.0,0.0
98.841,1.0,2.435,13.0
98.797,0.977,1.864,9.0
98.747,0.953,1.293,19.0
98.274,0.927,0.71,15.0
0.0,0.0,0.0,0.0
54.578,0.49,-0.233,0.0
102.079,0.893,2.349,1.0
0.0,0.0,0.0,0.0
100.815,0.835,1.158,4.0
97.6,0.786,0.549,7.0
0.0,0.0,0.0,0.0
0.0,0.0,0.0,0.0
104.811,0.768,2.241,21.0
104.857,0.744,1.638,13.0
104.893,0.72,1.036,23.0
91.867,0.609,0.369,1.0
0.0,0.0,0.0,0.0
46.09,0.283,-0.345,0.0
111.034,0.656,2.2,31.0
111.074,0.628,1.56,29.0
110.927,0.601,0.919,7.0
88.097,0.456,0.214,4.0
0.0,0.0,0.0,0.0
42.861,0.2,-0.389,0.0
111.174,0.492,2.027,16.0
111.191,0.465,1.387,23.0
104.194,0.411,0.701,7.0
0.0,0.0,0.0,0.0
0.0,0.0,0.0,0.0
42.746,0.136,-0.454,0.0
119.819,0.352,2.0,9.0
119.784,0.322,1.311,8.0
103.773,0.254,0.539,2.0
0.0,0.0,0.0,0.0
0.0,0.0,0.0,0.0
0.0,0.0,0.0,0.0
111.085,0.159,1.687,15.0
111.172,0.13,1.049,8.0
95.287,0.088,0.352,2.0
0.0,0.0,0.0,0.0
45.62,0.018,-0.36,2.0
37.388,0.005,-0.51,0.0
117.301,-0.012,1.607,11.0
111.049,-0.041,0.883,12.0
0.0,0.0,0.0,0.0
0.0,0.0,0.0,0.0
45.502,-0.053,-0.426,0.0
34.883,-0.049,-0.527,0.0
19.983,-1.202,-0.333,150.0
19.993,-1.21,-0.445,151.0
19.968,-1.216,-0.556,4.0
20.064,-1.229,-0.673,3.0
19.709,-1.214,-0.771,0.0
17.426,-1.079,-0.779,0.0
20.085,-1.246,-0.34,27.0
20.109,-1.255,-0.453,27.0
20.128,-1.263,-0.566,23.0
20.065,-1.267,-0.678,13.0
20.018,-1.271,-0.788,1.0
20.124,-1.285,-0.905,0.0
20.06,-1.283,-0.344,31.0
20.08,-1.292,-0.457,31.0
20.107,-1.3,-0.569,29.0
20.098,-1.307,-0.683,14.0
19.981,-1.306,-0.791,1.0
20.131,-1.323,-0.909,0.0
20.06,-1.32,-0.348,30.0
20.081,-1.329,-0.46,26.0
20.1,-1.337,-0.573,17.0
20.132,-1.346,-0.688,3.0
19.055,-1.281,-0.758,0.0
17.206,-1.163,-0.78,0.0
20.071,-1.358,-0.352,10.0
20.164,-1.372,-0.466,0.0
23.373,-1.598,-0.67,0.0
20.225,-1.39,-0.694,0.0
19.111,-1.32,-0.762,0.0
17.121,-1.189,-0.778,0.0
0.0,0.0,0.0,0.0
26.77,-1.871,-0.621,0.0
23.323,-1.638,-0.671,0.0
20.229,-1.428,-0.696,0.0
19.277,-1.367,-0.771,0.0
17.239,-1.229,-0.785,0.0
0.0,0.0,0.0,0.0
27.375,-1.963,-0.637,0.0
23.79,-1.714,-0.686,0.0
21.107,-1.528,-0.728,0.0
18.9,-1.375,-0.757,0.0
17.28,-1.263,-0.788,0.0
0.0,0.0,0.0,0.0
27.07,-1.99,-0.631,0.0
24.004,-1.773,-0.693,0.0
20.746,-1.54,-0.716,0.0
18.82,-1.404,-0.754,0.0
17.181,-1.288,-0.784,0.0
0.0,0.0,0.0,0.0
27.457,-2.069,-0.64,0.0
23.29,-1.763,-0.672,0.0
21.029,-1.599,-0.725,0.0
18.856,-1.441,-0.755,0.0
17.283,-1.327,-0.788,0.0
32.271,-2.479,-0.572,0.0
0.0,0.0,0.0,0.0
23.468,-1.819,-0.676,0.0
20.642,-1.607,-0.711,0.0
18.925,-1.48,-0.757,0.0
17.127,-1.345,-0.779,0.0
29.702,-2.334,-0.524,1.0
0.0,0.0,0.0,0.0
23.602,-1.871,-0.678,0.0
21.18,-1.686,-0.727,1.0
18.838,-1.507,-0.751,0.0
17.233,-1.384,-0.783,0.0
28.002,-2.25,-0.491,2.0
27.321,-2.205,-0.63,0.0
23.934,-1.939,-0.684,0.0
21.077,-1.715,-0.721,0.0
18.932,-1.547,-0.752,1.0
17.155,-1.408,-0.776,0.0
27.815,-2.284,-0.484,2.0
25.536,-2.105,-0.585,2.0
24.5,-2.028,-0.696,0.0
21.02,-1.747,-0.716,0.0
19.029,-1.588,-0.753,0.0
17.376,-1.456,-0.783,0.0
28.012,-2.348,-0.482,12.0
24.246,-2.04,-0.55,3.0
23.824,-2.012,-0.672,0.0
21.195,-1.798,-0.717,0.0
18.985,-1.617,-0.747,0.0
17.416,-1.489,-0.781,0.0
27.361,-2.34,-0.464,30.0
23.934,-2.055,-0.538,2.0
22.605,-1.948,-0.632,1.0
21.982,-1.902,-0.738,0.0
19.085,-1.658,-0.746,0.0
17.381,-1.516,-0.775,0.0
27.742,-2.419,-0.464,28.0
24.059,-2.106,-0.534,5.0
21.5,-1.889,-0.596,2.0
21.249,-1.874,-0.708,0.0
19.054,-1.687,-0.74,0.0
17.575,-1.562,-0.779,0.0
0.0,0.0,0.0,0.0
54.465,0.495,-0.234,0.0
42.911,0.398,-0.433,0.0
34.121,0.323,-0.545,0.0
28.631,0.276,-0.624,0.0
24.647,0.243,-0.68,0.0
0.0,0.0,0.0,0.0
0.0,0.0,0.0,0.0
41.065,0.427,-0.489,0.0
0.0,0.0,0.0,0.0
26.888,0.29,-0.635,0.0
23.511,0.257,-0.691,0.0
0.0,0.0,0.0,0.0
46.329,0.524,-0.369,0.0
36.611,0.42,-0.503,0.0
0.0,0.0,0.0,0.0
26.141,0.309,-0.665,0.0
22.589,0.271,-0.706,0.0
0.0,0.0,0.0,0.0
43.941,0.543,-0.431,1.0
33.612,0.421,-0.524,0.0
28.653,0.364,-0.616,0.0
24.645,0.317,-0.673,0.0
21.51,0.281,-0.712,0.0
0.0,0.0,0.0,0.0
40.921,0.547,-0.477,0.0
32.662,0.442,-0.571,0.0
0.0,0.0,0.0,0.0
23.461,0.326,-0.684,0.0
20.727,0.291,-0.725,0.0
47.042,0.668,-0.365,1.0
0.0,0.0,0.0,0.0
30.194,0.438,-0.584,0.0
25.909,0.38,-0.654,0.0
22.482,0.334,-0.698,0.0
19.963,0.3,-0.736,0.0
41.583,0.63,-0.401,0.0
35.242,0.54,-0.544,0.0
28.577,0.442,-0.607,0.0
24.741,0.386,-0.672,0.0
21.644,0.341,-0.713,0.0
19.296,0.307,-0.748,0.0
39.831,0.64,-0.459,0.0
32.204,0.522,-0.558,0.0
27.291,0.446,-0.631,0.0
23.485,0.388,-0.682,0.0
20.875,0.348,-0.727,0.0
18.657,0.314,-0.758,0.0
36.423,0.617,-0.489,0.0
30.496,0.521,-0.587,0.0
26.292,0.453,-0.658,0.0
22.466,0.39,-0.695,0.0
20.028,0.351,-0.736,0.0
17.759,0.314,-0.756,0.0
0.0,0.0,0.0,0.0
28.903,0.518,-0.611,0.0
24.724,0.447,-0.667,0.0
21.581,0.393,-0.709,0.0
19.315,0.354,-0.747,0.0
17.535,0.324,-0.78,0.0
31.755,0.59,-0.548,0.0
27.192,0.509,-0.627,0.0
23.428,0.442,-0.677,0.0
20.925,0.397,-0.728,0.0
18.645,0.356,-0.757,0.0
16.881,0.325,-0.783,0.0
30.194,0.584,-0.579,0.0
26.064,0.507,-0.651,0.0
22.571,0.442,-0.695,0.0
19.964,0.394,-0.733,0.0
17.953,0.357,-0.763,0.0
16.442,0.329,-0.795,0.0
28.958,0.581,-0.611,0.0
24.732,0.499,-0.665,0.0
21.669,0.44,-0.709,0.0
19.353,0.395,-0.747,0.0
17.555,0.361,-0.78,0.0
15.932,0.33,-0.801,0.0
27.19,0.564,-0.626,0.0
23.488,0.49,-0.678,0.0
20.909,0.439,-0.725,0.0
18.585,0.392,-0.754,0.0
16.824,0.357,-0.781,0.0
15.428,0.33,-0.806,0.0
26.023,0.557,-0.65,0.0
22.64,0.487,-0.697,0.0
20.018,0.433,-0.733,0.0
17.892,0.389,-0.761,0.0
16.52,0.361,-0.799,0.0
14.986,0.329,-0.812,0.0
24.773,0.545,-0.667,0.0
21.699,0.48,-0.71,0.0
19.202,0.427,-0.74,0.0
17.327,0.387,-0.77,0.0
15.875,0.356,-0.798,0.0
14.609,0.33,-0.82,0.0
38.451,4.807,-0.446,8.0
29.457,3.682,-0.511,3.0
27.1,3.387,-0.625,1.0
23.694,2.96,-0.685,0.0
20.851,2.605,-0.722,0.0
18.693,2.335,-0.755,0.0
38.456,4.798,-0.489,7.0
29.36,3.662,-0.541,6.0
26.438,3.297,-0.639,1.0
23.102,2.88,-0.693,0.0
20.469,2.552,-0.731,0.0
18.413,2.295,-0.764,0.0
38.457,4.786,-0.531,3.0
29.31,3.647,-0.572,15.0
25.885,3.22,-0.654,1.0
22.581,2.808,-0.702,0.0
19.966,2.482,-0.735,0.0
18.043,2.243,-0.768,0.0
29.739,3.691,-0.443,2.0
29.308,3.636,-0.604,8.0
25.141,3.118,-0.662,0.0
22.004,2.728,-0.708,0.0
19.644,2.435,-0.745,0.0
17.711,2.195,-0.773,0.0
29.706,3.675,-0.474,2.0
28.941,3.579,-0.628,1.0
24.584,3.039,-0.674,0.0
21.495,2.656,-0.714,0.0
19.207,2.373,-0.749,0.0
17.373,2.146,-0.777,0.0
29.76,3.669,-0.507,1.0
27.255,3.358,-0.62,0.0
23.902,2.944,-0.68,0.0
20.967,2.582,-0.719,0.0
18.723,2.304,-0.749,0.0
17.087,2.103,-0.782,0.0
29.85,3.665,-0.539,2.0
26.526,3.256,-0.631,1.0
23.265,2.854,-0.687,0.0
20.514,2.516,-0.725,0.0
18.5,2.268,-0.759,0.0
16.76,2.054,-0.784,0.0
29.851,3.65,-0.57,5.0
26.014,3.179,-0.646,0.0
22.815,2.787,-0.697,0.0
20.169,2.462,-0.733,0.0
18.096,2.208,-0.762,0.0
16.513,2.014,-0.79,0.0
29.825,3.63,-0.6,6.0
25.429,3.093,-0.657,0.0
22.317,2.713,-0.704,0.0
19.745,2.399,-0.738,0.0
17.888,2.172,-0.771,0.0
16.268,1.975,-0.794,0.0
29.703,3.597,-0.627,2.0
24.851,3.007,-0.666,0.0
21.731,2.628,-0.707,0.0
19.448,2.351,-0.746,0.0
17.468,2.11,-0.77,0.0
16.052,1.938,-0.799,0.0
27.698,3.336,-0.611,0.0
24.209,2.913,-0.673,0.0
21.29,2.561,-0.713,0.0
19.016,2.286,-0.748,0.0
17.18,2.064,-0.774,0.0
15.797,1.897,-0.802,0.0
26.98,3.23,-0.621,0.0
23.734,2.84,-0.682,0.0
20.906,2.5,-0.72,0.0
18.716,2.236,-0.754,0.0
17.038,2.035,-0.784,0.0
15.511,1.851,-0.802,0.0
26.494,3.153,-0.635,0.0
23.181,2.756,-0.688,0.0
20.495,2.435,-0.725,0.0
18.315,2.175,-0.754,0.0
16.75,1.988,-0.786,0.0
15.37,1.823,-0.809,0.0
25.984,3.072,-0.646,0.0
22.862,2.701,-0.699,0.0
20.182,2.382,-0.732,0.0
18.052,2.129,-0.76,0.0
16.519,1.947,-0.79,0.0
15.204,1.791,-0.814,0.0
25.457,2.989,-0.656,0.0
22.386,2.626,-0.704,0.0
19.836,2.325,-0.737,0.0
17.756,2.079,-0.763,0.0
16.272,1.904,-0.792,0.0
14.995,1.753,-0.816,0.0
24.93,2.905,-0.664,0.0
21.904,2.55,-0.708,0.0
19.495,2.268,-0.741,0.0
17.6,2.045,-0.772,0.0
16.057,1.865,-0.796,0.0
14.813,1.719,-0.819,0.0
19.687,1.397,-0.739,0.0
17.844,1.261,-0.768,0.0
16.333,1.15,-0.793,0.0
15.011,1.054,-0.813,0.0
13.925,0.974,-0.831,0.0
13.079,0.912,-0.853,0.0
19.785,1.37,-0.736,0.0
17.996,1.241,-0.769,0.0
16.493,1.133,-0.795,0.0
15.134,1.036,-0.815,0.0
13.981,0.954,-0.83,0.0
13.099,0.89,-0.85,0.0
20.111,1.357,-0.741,0.0
18.102,1.217,-0.767,0.0
16.506,1.105,-0.79,0.0
15.122,1.009,-0.808,0.0
14.099,0.937,-0.831,0.0
13.182,0.873,-0.85,0.0
20.069,1.319,-0.732,0.0
18.253,1.195,-0.766,0.0
16.656,1.086,-0.79,0.0
15.314,0.995,-0.812,0.0
14.243,0.922,-0.834,0.0
13.225,0.853,-0.847,0.0
20.156,1.29,-0.726,0.0
18.363,1.17,-0.762,0.0
16.868,1.071,-0.793,0.0
15.376,0.972,-0.809,0.0
14.26,0.898,-0.828,0.0
13.3,0.834,-0.846,0.0
20.422,1.271,-0.726,0.0
18.457,1.144,-0.757,0.0
16.85,1.04,-0.783,0.0
15.498,0.952,-0.807,0.0
14.343,0.878,-0.826,0.0
13.419,0.818,-0.846,0.0
20.698,1.252,-0.725,0.0
18.681,1.125,-0.757,0.0
17.06,1.023,-0.784,0.0
15.656,0.935,-0.807,0.0
14.464,0.86,-0.825,0.0
13.483,0.798,-0.843,0.0
20.874,1.226,-0.72,0.0
18.919,1.106,-0.755,0.0
17.199,1.001,-0.781,0.0
15.733,0.911,-0.802,0.0
14.549,0.839,-0.821,0.0
13.603,0.781,-0.842,0.0
21.311,1.214,-0.722,0.0
19.081,1.082,-0.75,0.0
17.408,0.982,-0.779,0.0
15.855,0.891,-0.798,0.0
14.712,0.822,-0.821,0.0
13.674,0.761,-0.838,0.0
21.532,1.189,-0.715,0.0
19.418,1.067,-0.751,0.0
17.795,0.973,-0.785,0.0
16.11,0.876,-0.8,0.0
14.926,0.808,-0.823,0.0
13.757,0.741,-0.833,0.0
21.938,1.172,-0.714,0.0
19.553,1.04,-0.743,0.0
17.918,0.948,-0.778,0.0
16.268,0.856,-0.796,0.0
15.035,0.787,-0.818,0.0
13.944,0.727,-0.835,0.0
22.172,1.146,-0.706,0.0
19.791,1.017,-0.737,0.0
17.896,0.915,-0.764,0.0
16.509,0.84,-0.796,0.0
15.133,0.766,-0.812,0.0
14.059,0.708,-0.831,0.0
22.599,1.128,-0.702,0.0
20.143,1.0,-0.735,0.0
18.246,0.901,-0.765,0.0
16.693,0.82,-0.792,0.0
15.279,0.746,-0.807,0.0
14.26,0.693,-0.831,0.0
22.963,1.106,-0.695,0.0
20.471,0.981,-0.73,0.0
18.471,0.88,-0.759,0.0
16.909,0.801,-0.788,0.0
15.605,0.735,-0.812,0.0
14.371,0.673,-0.825,0.0
23.335,1.084,-0.687,0.0
20.879,0.964,-0.727,0.0
18.601,0.854,-0.748,0.0
17.01,0.776,-0.778,0.0
15.777,0.716,-0.807,0.0
14.463,0.652,-0.818,0.0
23.844,1.066,-0.681,0.0
21.326,0.948,-0.724,0.0
19.1,0.843,-0.751,0.0
17.388,0.763,-0.78,0.0
16.106,0.702,-0.809,0.0
14.752,0.64,-0.821,0.0
81.839,-1.235,4.192,11.0
81.226,-1.229,3.739,17.0
112.362,-1.707,4.592,12.0
112.829,-1.721,4.018,9.0
112.955,-1.728,3.439,1.0
112.661,-1.73,2.85,12.0
81.711,-1.267,4.35,13.0
81.142,-1.261,3.9,25.0
84.962,-1.325,3.645,5.0
106.459,-1.665,4.007,15.0
112.831,-1.771,3.666,5.0
112.784,-1.775,3.084,17.0
61.122,-0.971,3.378,9.0
82.026,-1.306,4.11,22.0
95.514,-1.525,4.293,12.0
112.124,-1.794,4.448,9.0
112.855,-1.81,3.895,11.0
113.065,-1.818,3.32,6.0
61.166,-0.992,3.506,24.0
81.703,-1.328,4.259,29.0
81.229,-1.323,3.814,11.0
106.621,-1.74,4.445,10.0
112.677,-1.842,4.115,15.0
112.835,-1.848,3.539,6.0
61.105,-1.01,3.625,9.0
81.57,-1.35,4.416,11.0
81.174,-1.345,3.975,17.0
95.359,-1.583,4.167,15.0
106.399,-1.768,4.099,13.0
112.85,-1.878,3.766,17.0
51.664,-0.867,3.169,12.0
61.174,-1.028,3.435,25.0
81.947,-1.378,4.178,18.0
95.204,-1.603,4.353,10.0
95.738,-1.614,3.883,7.0
112.751,-1.902,3.992,22.0
50.412,-0.857,3.194,24.0
61.134,-1.04,3.557,24.0
81.662,-1.391,4.329,19.0
81.249,-1.384,3.878,10.0
95.608,-1.63,4.068,13.0
106.572,-1.818,3.985,13.0
50.083,-0.861,3.275,34.0
51.946,-0.893,3.127,17.0
61.145,-1.052,3.363,6.0
81.971,-1.41,4.077,21.0
95.293,-1.639,4.246,13.0
106.67,-1.835,4.202,13.0
48.453,-0.84,3.265,20.0
51.117,-0.886,3.179,25.0
61.187,-1.06,3.488,22.0
81.697,-1.415,4.225,18.0
81.689,-1.415,3.802,8.0
112.449,-1.947,4.651,7.0
48.467,-0.846,3.361,41.0
50.101,-0.874,3.215,28.0
52.031,-0.906,3.068,15.0
81.582,-1.421,4.38,11.0
81.527,-1.419,3.954,14.0
95.54,-1.661,4.138,9.0
48.378,-0.848,3.451,33.0
0.0,0.0,0.0,0.0
51.882,-0.907,3.162,16.0
61.165,-1.068,3.404,8.0
82.036,-1.431,4.14,18.0
81.769,-1.424,3.704,13.0
43.453,-0.762,3.185,18.0
48.471,-0.849,3.301,37.0
50.599,-0.885,3.183,24.0
61.195,-1.069,3.525,21.0
81.665,-1.424,4.28,19.0
81.461,-1.418,3.846,9.0
43.137,-0.757,3.246,32.0
48.4,-0.847,3.389,37.0
50.001,-0.874,3.241,36.0
51.986,-0.907,3.094,20.0
73.514,-1.279,3.994,9.0
81.84,-1.421,4.022,17.0
42.937,-0.751,3.314,44.0
48.434,-0.846,3.486,14.0
0.0,0.0,0.0,0.0
51.48,-0.894,3.164,24.0
61.169,-1.06,3.441,22.0
81.843,-1.415,4.18,19.0
42.744,-0.744,3.381,41.0
43.375,-0.753,3.205,25.0
48.429,-0.839,3.326,40.0
50.39,-0.87,3.194,24.0
61.146,-1.053,3.557,20.0
81.671,-1.402,4.327,19.0
42.726,-0.739,3.463,44.0
43.299,-0.746,3.283,34.0
48.319,-0.83,3.411,36.0
50.032,-0.857,3.267,29.0
61.04,-1.042,3.667,9.0
61.147,-1.04,3.355,12.0
42.758,-0.733,3.547,43.0
42.785,-0.731,3.325,48.0
48.469,-0.824,3.513,10.0
48.395,-0.82,3.251,19.0
51.098,-0.863,3.166,25.0
61.177,-1.029,3.473,27.0
42.634,-0.722,3.618,41.0
42.696,-0.72,3.399,44.0
43.118,-0.724,3.207,41.0
48.364,-0.809,3.34,31.0
0.0,0.0,0.0,0.0
61.121,-1.014,3.582,11.0
42.035,-0.703,3.645,49.0
42.642,-0.709,3.474,48.0
42.869,-0.71,3.268,44.0
48.341,-0.797,3.427,36.0
48.58,-0.797,3.191,21.0
50.778,-0.829,3.07,7.0
42.025,-0.691,3.722,39.0
42.901,-0.702,3.574,38.0
42.723,-0.695,3.336,45.0
48.472,-0.785,3.526,7.0
48.384,-0.779,3.266,35.0
50.589,-0.811,3.151,27.0
41.96,-0.677,3.793,47.0
42.492,-0.682,3.618,41.0
42.675,-0.681,3.41,46.0
42.899,-0.681,3.198,42.0
48.324,-0.762,3.349,21.0
0.0,0.0,0.0,0.0
41.995,-0.663,3.873,45.0
42.03,-0.66,3.655,38.0
42.684,-0.666,3.487,40.0
42.795,-0.664,3.267,46.0
48.34,-0.745,3.436,28.0
48.554,-0.743,3.197,29.0
41.842,-0.645,3.933,41.0
42.022,-0.644,3.728,41.0
42.708,-0.65,3.564,39.0
42.505,-0.642,3.319,37.0
42.688,-0.641,3.11,27.0
48.291,-0.72,3.264,37.0
41.835,-0.628,4.006,39.0
41.944,-0.625,3.795,44.0
42.247,-0.625,3.6,36.0
42.472,-0.624,3.39,32.0
42.618,-0.621,3.178,39.0
48.324,-0.7,3.349,33.0
41.839,-0.61,4.079,37.0
41.98,-0.607,3.871,40.0
41.977,-0.602,3.649,43.0
43.488,-0.619,3.546,20.0
42.472,-0.599,3.239,41.0
48.28,-0.676,3.429,22.0
41.878,-0.59,4.155,30.0
41.989,-0.587,3.943,44.0
41.935,-0.581,3.716,46.0
42.933,-0.589,3.574,18.0
42.241,-0.575,3.293,42.0
42.577,-0.575,3.095,46.0
0.0,0.0,0.0,0.0
41.893,-0.564,4.005,39.0
41.908,-0.559,3.784,41.0
42.39,-0.559,3.599,37.0
42.202,-0.552,3.36,30.0
42.448,-0.55,3.156,39.0
41.681,-0.544,4.275,30.0
41.892,-0.541,4.074,42.0
42.002,-0.537,3.862,40.0
41.968,-0.531,3.631,34.0
42.458,-0.531,3.449,31.0
42.14,-0.522,3.201,44.0
0.0,0.0,0.0,0.0
0.0,0.0,0.0,0.0
42.14,-0.514,3.942,39.0
41.845,-0.505,3.688,36.0
41.716,-0.497,3.456,43.0
42.183,-0.497,3.272,44.0
41.494,-0.492,4.391,41.0
41.888,-0.491,4.209,16.0
42.104,-0.487,4.006,32.0
41.846,-0.478,3.755,37.0
41.613,-0.47,3.513,46.0
42.135,-0.47,3.333,39.0
41.452,-0.465,4.451,35.0
41.556,-0.46,4.24,38.0
41.696,-0.456,4.031,39.0
41.665,-0.449,3.802,41.0
41.71,-0.444,3.585,34.0
42.331,-0.444,3.414,25.0
41.293,-0.436,4.497,38.0
41.468,-0.431,4.294,38.0
41.68,-0.428,4.093,31.0
41.624,-0.421,3.861,36.0
41.782,-0.416,3.654,38.0
41.874,-0.411,3.439,29.0
41.21,-0.407,4.55,41.0
41.323,-0.402,4.341,43.0
41.655,-0.398,4.152,42.0
41.546,-0.39,3.915,40.0
41.635,-0.385,3.702,40.0
41.639,-0.379,3.48,39.0
41.238,-0.377,4.614,40.0
41.285,-0.371,4.397,43.0
41.473,-0.366,4.195,36.0
41.646,-0.361,3.986,40.0
41.561,-0.353,3.756,39.0
41.614,-0.347,3.538,42.0
41.107,-0.344,4.659,44.0
41.35,-0.34,4.464,40.0
41.293,-0.333,4.236,49.0
41.638,-0.329,4.044,41.0
41.488,-0.321,3.807,42.0
41.477,-0.314,3.585,39.0
41.086,-0.312,4.715,37.0
41.287,-0.307,4.515,42.0
41.263,-0.3,4.291,44.0
41.556,-0.295,4.093,43.0
41.575,-0.288,3.872,42.0
41.541,-0.281,3.647,39.0
40.94,-0.278,4.754,44.0
41.426,-0.274,4.587,41.0
41.163,-0.265,4.336,41.0
41.353,-0.26,4.129,39.0
41.689,-0.255,3.939,43.0
41.358,-0.246,3.686,44.0
40.984,-0.244,4.814,41.0
41.71,-0.242,4.674,39.0
41.141,-0.231,4.388,46.0
41.2,-0.224,4.168,40.0
41.882,-0.22,4.011,41.0
41.427,-0.211,3.745,36.0
41.029,-0.21,4.873,43.0
41.701,-0.206,4.726,32.0
41.189,-0.196,4.446,42.0
41.209,-0.189,4.221,38.0
41.533,-0.183,4.03,40.0
41.621,-0.176,3.815,42.0
41.118,-0.173,4.936,34.0
41.203,-0.167,4.722,16.0
41.163,-0.159,4.494,24.0
41.215,-0.152,4.273,35.0
41.321,-0.145,4.061,43.0
41.615,-0.138,3.865,42.0
41.414,-0.137,5.022,23.0
41.22,-0.129,4.774,16.0
41.071,-0.121,4.534,41.0
41.485,-0.115,4.35,27.0
41.289,-0.107,4.106,43.0
41.661,-0.1,3.918,35.0
41.162,-0.098,5.04,24.0
41.07,-0.091,4.805,42.0
41.14,-0.084,4.589,42.0
41.464,-0.076,4.396,19.0
41.393,-0.069,4.164,40.0
41.939,-0.062,3.993,40.0
41.043,-0.059,5.073,42.0
41.096,-0.051,4.855,31.0
41.454,-0.044,4.672,16.0
0.0,0.0,0.0,0.0
41.385,-0.029,4.21,42.0
41.861,-0.021,4.031,17.0
41.052,-0.019,5.12,44.0
41.107,-0.012,4.902,34.0
41.383,-0.004,4.709,16.0
41.189,0.003,4.458,21.0
41.417,0.011,4.258,46.0
41.366,0.018,4.028,44.0
41.118,0.02,5.172,43.0
40.998,0.028,4.932,30.0
41.138,0.036,4.724,41.0
41.389,0.044,4.523,26.0
41.361,0.052,4.294,43.0
41.335,0.059,4.066,41.0
41.175,0.061,5.221,34.0
41.053,0.069,4.98,16.0
41.083,0.077,4.759,28.0
54.3,0.112,5.987,10.0
41.313,0.094,4.33,35.0
41.351,0.101,4.108,45.0
41.25,0.104,5.271,35.0
41.062,0.111,5.021,32.0
41.033,0.119,4.792,31.0
54.523,0.169,6.064,10.0
41.229,0.135,4.36,34.0
41.375,0.144,4.15,42.0
41.706,0.148,5.369,17.0
41.081,0.154,5.062,26.0
41.211,0.163,4.851,25.0
41.307,0.171,4.632,15.0
41.19,0.178,4.393,31.0
41.243,0.187,4.173,40.0
42.184,0.194,5.468,38.0
40.829,0.196,5.067,33.0
41.064,0.205,4.871,27.0
41.287,0.214,4.666,14.0
47.116,0.254,5.066,6.0
41.251,0.23,4.21,35.0
42.302,0.241,5.52,43.0
40.768,0.239,5.094,44.0
41.008,0.249,4.898,26.0
41.345,0.26,4.707,36.0
41.27,0.267,4.471,16.0
41.376,0.276,4.256,38.0
42.373,0.287,5.564,38.0
40.686,0.284,5.117,39.0
40.88,0.293,4.916,41.0
41.226,0.304,4.726,33.0
41.056,0.311,4.48,41.0
41.523,0.322,4.303,41.0
42.372,0.334,5.597,30.0
40.958,0.331,5.183,40.0
40.609,0.336,4.914,42.0
41.16,0.349,4.749,44.0
41.12,0.356,4.518,40.0
41.535,0.368,4.334,35.0
42.302,0.38,5.618,16.0
40.632,0.373,5.171,45.0
40.693,0.382,4.952,40.0
41.102,0.394,4.771,37.0
41.124,0.402,4.546,43.0
41.334,0.412,4.342,36.0
41.602,0.42,5.554,32.0
40.727,0.42,5.21,40.0
40.797,0.428,4.992,39.0
40.886,0.438,4.772,47.0
41.275,0.449,4.589,43.0
41.529,0.46,4.388,25.0
40.597,0.456,5.445,24.0
40.801,0.466,5.245,42.0
40.655,0.472,5.0,43.0
40.778,0.482,4.785,43.0
41.347,0.497,4.622,40.0
41.628,0.508,4.423,39.0
40.538,0.501,5.461,50.0
40.681,0.511,5.253,34.0
40.63,0.519,5.02,42.0
40.814,0.529,4.812,42.0
41.364,0.544,4.647,32.0
40.804,0.544,4.358,38.0
40.611,0.549,5.493,38.0
40.885,0.56,5.302,16.0
40.706,0.566,5.051,41.0
40.524,0.571,4.799,38.0
41.04,0.587,4.632,34.0
40.656,0.589,4.363,40.0
40.487,0.594,5.497,47.0
40.887,0.607,5.322,26.0
40.553,0.61,5.052,41.0
40.509,0.618,4.816,40.0
40.782,0.63,4.622,30.0
40.716,0.637,4.388,41.0
40.6,0.642,5.531,47.0
41.022,0.657,5.358,26.0
41.376,0.671,5.173,18.0
40.48,0.664,4.83,45.0
40.572,0.674,4.615,37.0
40.794,0.685,4.413,42.0
40.482,0.688,5.531,44.0
40.739,0.7,5.337,40.0
41.355,0.718,5.186,24.0
40.533,0.712,4.852,33.0
40.472,0.719,4.619,49.0
40.754,0.732,4.424,41.0
40.722,0.739,5.579,50.0
40.661,0.746,5.342,44.0
40.766,0.756,5.126,43.0
40.785,0.763,4.896,37.0
40.505,0.766,4.636,40.0
40.719,0.778,4.433,38.0
40.609,0.785,5.576,46.0
40.846,0.797,5.379,33.0
40.438,0.797,5.097,42.0
40.659,0.809,4.893,37.0
40.376,0.811,4.632,46.0
40.592,0.823,4.43,31.0
40.741,0.835,5.606,44.0
40.955,0.847,5.404,44.0
40.381,0.843,5.1,39.0
40.529,0.854,4.887,36.0
40.382,0.858,4.643,44.0
40.521,0.868,4.432,41.0
40.84,0.886,5.628,38.0
40.777,0.892,5.389,45.0
40.359,0.89,5.106,43.0
40.306,0.896,4.868,40.0
40.59,0.91,4.674,26.0
40.56,0.917,4.444,40.0
41.125,0.94,5.675,49.0
40.837,0.941,5.404,40.0
40.364,0.938,5.113,38.0
40.321,0.944,4.876,36.0
40.345,0.951,4.652,22.0
40.519,0.963,4.445,47.0
40.939,0.984,5.655,40.0
40.853,0.989,5.411,42.0
40.238,0.981,5.102,46.0
40.469,0.994,4.898,23.0
40.242,0.996,4.644,40.0
40.694,1.014,4.468,38.0
40.952,1.032,5.66,36.0
40.922,1.039,5.423,40.0
40.395,1.033,5.124,38.0
40.286,1.037,4.879,34.0
40.362,1.046,4.66,35.0
40.809,1.065,4.482,27.0
40.844,1.077,5.647,39.0
41.045,1.09,5.441,31.0
40.383,1.079,5.124,45.0
40.253,1.082,4.875,41.0
40.407,1.094,4.665,39.0
40.765,1.11,4.477,39.0
40.727,1.121,5.63,46.0
41.5,1.15,5.5,17.0
40.452,1.128,5.131,42.0
40.277,1.13,4.877,37.0
40.401,1.14,4.663,39.0
40.713,1.156,4.47,40.0
40.832,1.171,5.642,45.0
41.301,1.192,5.471,17.0
40.508,1.176,5.136,38.0
40.633,1.186,4.917,27.0
40.508,1.189,4.672,35.0
40.602,1.199,4.453,37.0
41.009,1.224,5.662,36.0
41.075,1.233,5.437,16.0
40.869,1.233,5.177,36.0
41.13,1.247,4.972,16.0
40.647,1.239,4.683,38.0
40.636,1.245,4.452,33.0
41.021,1.27,5.658,41.0
40.651,1.265,5.374,40.0
41.052,1.284,5.193,33.0
41.161,1.294,4.969,16.0
40.629,1.284,4.674,39.0
40.725,1.294,4.454,22.0
41.211,1.323,5.676,34.0
40.607,1.31,5.36,44.0
41.183,1.335,5.201,30.0
40.824,1.329,4.919,31.0
40.788,1.334,4.683,38.0
40.979,1.347,4.472,16.0
41.71,1.385,5.735,26.0
40.613,1.355,5.351,40.0
41.045,1.375,5.173,35.0
41.05,1.381,4.936,16.0
41.121,1.391,4.71,37.0
41.095,1.396,4.474,21.0
50.344,1.727,6.907,3.0
40.689,1.402,5.349,34.0
41.484,1.436,5.216,32.0
40.992,1.425,4.916,13.0
41.459,1.447,4.736,30.0
41.404,1.451,4.494,17.0
40.901,1.448,5.598,29.0
40.577,1.442,5.321,38.0
41.651,1.486,5.223,27.0
40.955,1.468,4.897,37.0
41.301,1.486,4.703,16.0
40.744,1.472,4.408,39.0
40.907,1.493,5.584,32.0
40.625,1.488,5.311,40.0
41.465,1.525,5.183,22.0
41.002,1.513,4.886,36.0
0.0,0.0,0.0,0.0
40.634,1.512,4.379,31.0
40.921,1.537,5.568,42.0
40.77,1.537,5.313,25.0
40.92,1.548,5.097,16.0
40.982,1.556,4.866,2.0
0.0,0.0,0.0,0.0
40.581,1.552,4.355,34.0
40.949,1.581,5.553,8.0
40.752,1.579,5.291,19.0
40.892,1.59,5.074,26.0
41.075,1.603,4.857,2.0
0.0,0.0,0.0,0.0
40.437,1.588,4.319,42.0
40.919,1.622,5.527,31.0
40.896,1.627,5.288,39.0
40.888,1.632,5.052,10.0
60.738,2.431,7.15,7.0
40.713,1.635,4.56,33.0
40.677,1.639,4.323,35.0
48.31,1.964,6.499,4.0
40.922,1.669,5.269,16.0
43.948,1.798,5.405,4.0
45.007,1.846,5.273,19.0
40.678,1.674,4.532,40.0
40.653,1.678,4.297,17.0
48.258,2.01,6.463,5.0
44.626,1.864,5.719,9.0
60.77,2.546,7.438,8.0
45.301,1.903,5.279,36.0
40.65,1.712,4.504,43.0
40.64,1.717,4.27,31.0
48.303,2.06,6.438,10.0
41.631,1.78,5.308,11.0
41.601,1.783,5.064,15.0
0.0,0.0,0.0,0.0
40.686,1.754,4.481,39.0
40.764,1.761,4.256,40.0
48.241,2.103,6.397,9.0
41.494,1.813,5.262,16.0
41.654,1.825,5.042,36.0
45.067,1.979,5.191,10.0
40.63,1.789,4.446,40.0
41.268,1.822,4.28,38.0
48.214,2.146,6.358,14.0
41.43,1.848,5.224,22.0
41.62,1.862,5.007,41.0
45.626,2.046,5.221,9.0
45.057,2.025,4.897,5.0
41.143,1.854,4.236,28.0
48.221,2.191,6.322,7.0
41.446,1.887,5.194,44.0
41.642,1.9,4.978,39.0
41.807,1.912,4.752,9.0
40.779,1.869,4.401,24.0
40.983,1.882,4.187,38.0
48.264,2.236,6.289,3.0
41.67,1.934,5.188,28.0
41.694,1.939,4.95,38.0
45.531,2.122,5.138,9.0
40.767,1.904,4.366,41.0
40.909,1.914,4.146,43.0
44.976,2.122,5.823,3.0
41.587,1.965,5.143,31.0
41.798,1.979,4.927,39.0
45.477,2.157,5.093,8.0
40.829,1.941,4.337,29.0
40.932,1.95,4.113,32.0
41.545,1.995,5.342,7.0
41.628,2.002,5.111,32.0
41.754,2.012,4.884,38.0
45.373,2.19,5.041,19.0
40.889,1.977,4.307,40.0
40.909,1.982,4.073,34.0
41.517,2.027,5.299,5.0
41.537,2.032,5.061,37.0
41.835,2.049,4.855,35.0
40.961,2.01,4.512,28.0
40.828,2.006,4.262,40.0
40.801,2.008,4.024,40.0
41.526,2.06,5.261,10.0
41.67,2.07,5.037,36.0
42.072,2.094,4.841,15.0
40.851,2.036,4.46,35.0
41.103,2.052,4.25,27.0
40.863,2.043,3.99,33.0
41.579,2.094,5.226,35.0
41.577,2.097,4.984,40.0
42.076,2.125,4.799,16.0
40.78,2.063,4.411,34.0
53.371,2.704,5.465,5.0
40.845,2.072,3.947,34.0
41.572,2.124,5.181,37.0
41.708,2.134,4.955,34.0
40.713,2.086,4.601,6.0
40.69,2.087,4.358,41.0
40.811,2.096,4.136,15.0
40.997,2.108,3.918,36.0
41.717,2.161,5.154,33.0
41.681,2.161,4.907,45.0
40.726,2.114,4.559,14.0
40.727,2.117,4.318,36.0
40.918,2.129,4.102,29.0
40.806,2.126,3.856,35.0
41.655,2.185,5.101,38.0
41.754,2.193,4.87,45.0
40.845,2.147,4.526,34.0
40.732,2.144,4.274,38.0
40.819,2.15,4.047,23.0
41.032,2.164,3.831,37.0
41.707,2.215,5.06,37.0
41.735,2.218,4.82,42.0
40.698,2.165,4.464,37.0
40.806,2.172,4.235,28.0
40.836,2.176,4.002,36.0
41.181,2.196,3.798,34.0
41.732,2.241,5.014,32.0
41.723,2.242,4.77,35.0
40.738,2.191,4.42,27.0
45.992,2.475,4.719,9.0
40.903,2.203,3.961,41.0
41.156,2.219,3.747,40.0
41.649,2.26,4.954,44.0
41.417,2.249,4.685,24.0
40.755,2.214,4.373,34.0
40.97,2.228,4.155,31.0
40.953,2.228,3.916,38.0
41.268,2.247,3.708,38.0
41.673,2.284,4.905,41.0
41.297,2.264,4.621,17.0
40.733,2.234,4.321,44.0
40.96,2.248,4.103,18.0
41.116,2.258,3.88,21.0
40.931,2.249,3.627,37.0
41.731,2.308,4.86,38.0
40.845,2.26,4.519,13.0
40.734,2.254,4.269,32.0
40.781,2.258,4.033,30.0
41.283,2.287,3.844,37.0
40.68,2.255,3.552,39.0
41.761,2.329,4.809,42.0
40.911,2.282,4.472,27.0
40.842,2.279,4.227,28.0
45.974,2.567,4.486,4.0
41.296,2.306,3.791,37.0
40.484,2.262,3.482,39.0
41.775,2.348,4.755,24.0
40.826,2.295,4.409,28.0
45.919,2.582,4.692,5.0
45.937,2.584,4.422,8.0
41.338,2.326,3.739,35.0
40.43,2.276,3.424,32.0
48.191,2.727,5.42,5.0
40.767,2.308,4.347,36.0
45.965,2.603,4.634,14.0
41.305,2.339,3.92,18.0
41.383,2.344,3.687,36.0
40.593,2.3,3.382,38.0
40.855,2.327,4.537,3.0
40.774,2.323,4.291,32.0
45.744,2.606,4.548,20.0
41.295,2.353,3.861,47.0
40.934,2.333,3.59,22.0
40.503,2.308,3.318,34.0
40.887,2.342,4.484,23.0
40.742,2.334,4.23,19.0
45.471,2.605,4.456,20.0
41.313,2.366,3.805,41.0
40.377,2.313,3.484,45.0
40.504,2.321,3.261,39.0
40.923,2.356,4.429,37.0
58.866,3.389,6.028,6.0
45.023,2.592,4.348,8.0
41.373,2.381,3.75,39.0
40.608,2.337,3.446,38.0
40.558,2.334,3.207,40.0
40.927,2.367,4.37,31.0
45.443,2.627,4.587,19.0
41.27,2.385,3.926,30.0
41.49,2.398,3.701,26.0
40.977,2.368,3.418,35.0
40.72,2.352,3.161,40.0
40.865,2.372,4.303,26.0
44.82,2.6,4.458,19.0
41.293,2.395,3.866,40.0
40.803,2.366,3.58,16.0
40.723,2.36,3.337,37.0
40.936,2.372,3.117,36.0
40.853,2.378,4.24,8.0
44.934,2.615,4.402,19.0
41.356,2.405,3.81,42.0
40.438,2.351,3.487,35.0
40.638,2.362,3.268,37.0
41.244,2.396,3.078,33.0
53.392,3.115,5.461,0.0
44.906,2.618,4.331,4.0
41.373,2.411,3.749,45.0
40.894,2.382,3.464,26.0
40.483,2.357,3.194,43.0
41.374,2.408,3.025,34.0
44.887,2.623,4.521,18.0
41.309,2.412,3.92,39.0
41.357,2.414,3.684,24.0
40.858,2.383,3.397,39.0
40.858,2.382,3.161,39.0
41.393,2.412,2.962,36.0
44.836,2.622,4.446,31.0
41.413,2.421,3.865,34.0
40.665,2.375,3.558,26.0
40.597,2.369,3.312,36.0
41.209,2.404,3.124,38.0
41.399,2.414,2.898,40.0
45.026,2.634,4.393,20.0
41.344,2.417,3.793,46.0
40.536,2.368,3.483,34.0
40.618,2.371,3.25,40.0
41.383,2.414,3.071,35.0
41.491,2.418,2.838,17.0
41.277,2.414,3.961,29.0
41.432,2.421,3.735,40.0
41.121,2.4,3.467,34.0
40.545,2.365,3.178,41.0
41.372,2.411,3.003,36.0
41.908,2.441,2.799,16.0
41.37,2.416,3.903,39.0
41.015,2.393,3.63,17.0
40.776,2.377,3.372,38.0
40.967,2.386,3.145,35.0
41.325,2.404,2.933,37.0
42.144,2.45,2.748,17.0
41.393,2.413,3.838,40.0
40.429,2.354,3.513,34.0
40.647,2.365,3.295,36.0
41.089,2.388,3.088,29.0
41.288,2.397,2.864,37.0
41.609,2.413,2.645,16.0
41.355,2.405,3.766,48.0
40.723,2.365,3.471,37.0
40.538,2.352,3.22,40.0
41.423,2.4,3.045,33.0
41.342,2.393,2.8,24.0
41.642,2.408,2.579,33.0
41.467,2.404,3.708,27.0
40.966,2.372,3.425,39.0
40.766,2.357,3.171,40.0
41.219,2.38,2.963,33.0
41.141,2.373,2.719,31.0
41.62,2.398,2.51,21.0
40.586,2.343,3.563,24.0
40.537,2.337,3.322,37.0
41.028,2.362,3.124,37.0
41.159,2.367,2.891,35.0
41.122,2.361,2.65,15.0
41.668,2.39,2.444,29.0
40.381,2.32,3.477,43.0
40.567,2.327,3.257,39.0
41.248,2.363,3.073,43.0
40.943,2.342,2.808,40.0
41.229,2.355,2.588,31.0
41.73,2.381,2.378,27.0
40.766,2.33,3.442,33.0
40.549,2.314,3.187,36.0
41.181,2.346,2.998,34.0
41.079,2.336,2.748,35.0
41.489,2.356,2.535,16.0
52.53,2.979,2.906,5.0
40.555,2.303,3.356,39.0
40.596,2.302,3.123,39.0
40.931,2.317,2.911,33.0
41.098,2.323,2.68,16.0
41.596,2.347,2.472,34.0
52.772,2.973,2.831,17.0
40.527,2.286,3.285,35.0
40.879,2.301,3.076,44.0
40.923,2.3,2.842,39.0
41.017,2.301,2.606,37.0
41.765,2.339,2.412,29.0
52.338,2.927,2.72,23.0
40.463,2.265,3.212,45.0
41.434,2.314,3.048,26.0
40.89,2.28,2.77,40.0
41.214,2.294,2.549,39.0
41.77,2.321,2.342,30.0
52.412,2.907,2.636,21.0
40.519,2.248,3.147,41.0
40.919,2.266,2.94,40.0
41.125,2.273,2.716,36.0
41.048,2.264,2.469,37.0
41.826,2.302,2.274,8.0
52.534,2.886,2.552,17.0
40.55,2.229,3.08,48.0
40.923,2.244,2.87,40.0
41.055,2.247,2.642,36.0
59.363,3.243,3.47,11.0
59.383,3.237,3.128,11.0
52.702,2.867,2.471,26.0
40.728,2.216,3.024,37.0
40.873,2.219,2.797,42.0
40.989,2.22,2.568,41.0
59.357,3.208,3.368,14.0
59.345,3.2,3.025,8.0
59.408,3.197,2.685,7.0
40.924,2.202,2.969,38.0
40.96,2.199,2.733,36.0
40.935,2.192,2.495,42.0
59.322,3.17,3.266,20.0
59.34,3.163,2.924,17.0
59.416,3.16,2.584,10.0
40.888,2.174,2.896,46.0
40.878,2.168,2.658,45.0
59.326,3.139,3.514,21.0
59.36,3.133,3.166,12.0
59.39,3.126,2.824,6.0
59.397,3.12,2.482,34.0
41.0,2.152,2.834,36.0
40.924,2.142,2.591,42.0
41.715,2.178,2.4,25.0
59.344,3.09,3.064,6.0
59.377,3.084,2.722,17.0
59.401,3.078,2.381,26.0
40.948,2.119,2.76,44.0
41.115,2.122,2.532,16.0
59.398,3.057,3.314,6.0
52.654,2.703,2.628,27.0
59.407,3.041,2.622,11.0
59.42,3.033,2.279,27.0
40.924,2.086,2.687,43.0
41.607,2.115,2.491,34.0
52.396,2.656,2.834,8.0
52.655,2.661,2.538,15.0
59.437,2.996,2.522,16.0
59.472,2.989,2.18,23.0
40.957,2.055,2.62,43.0
41.607,2.081,2.42,30.0
59.489,2.966,3.116,8.0
59.419,2.954,2.762,21.0
59.474,2.948,2.421,23.0
125.204,6.187,4.376,1.0
41.041,2.024,2.555,42.0
41.591,2.045,2.348,31.0
59.462,2.914,3.013,10.0
59.466,2.905,2.663,15.0
65.865,3.207,2.57,2.0
0.0,0.0,0.0,0.0
41.529,2.011,2.514,36.0
52.768,2.547,2.889,24.0
59.449,2.86,2.911,29.0
52.926,2.537,2.281,21.0
0.0,0.0,0.0,0.0
0.0,0.0,0.0,0.0
41.679,1.98,2.452,26.0
59.501,2.816,3.157,11.0
59.525,2.808,2.814,9.0
52.958,2.489,2.193,10.0
0.0,0.0,0.0,0.0
61.072,2.85,1.825,1.0
59.469,2.768,3.4,19.0
52.812,2.448,2.714,8.0
52.652,2.432,2.401,7.0
52.748,2.427,2.096,18.0
0.0,0.0,0.0,0.0
61.092,2.791,1.723,9.0
52.899,2.409,2.935,8.0
65.875,2.988,3.275,8.0
52.637,2.378,2.313,23.0
52.767,2.374,2.009,2.0
66.114,2.963,2.136,8.0
61.203,2.733,1.625,8.0
52.923,2.355,2.849,9.0
65.993,2.924,3.171,24.0
52.64,2.322,2.226,26.0
66.056,2.903,2.405,32.0
63.474,2.777,1.945,10.0
61.621,2.685,1.533,5.0
65.964,2.863,3.44,20.0
65.955,2.85,3.059,16.0
65.99,2.839,2.68,25.0
66.032,2.828,2.294,33.0
64.308,2.742,1.863,15.0
62.713,2.662,1.456,8.0
65.932,2.787,3.329,32.0
65.98,2.776,2.951,23.0
66.017,2.765,2.572,34.0
66.064,2.753,2.186,31.0
66.142,2.744,1.808,24.0
63.531,2.623,1.371,8.0
65.967,2.711,3.222,9.0
66.057,2.702,2.846,11.0
66.104,2.69,2.467,27.0
66.12,2.678,2.079,2.0
120.059,4.839,3.086,12.0
120.118,4.819,2.398,10.0
66.211,2.642,3.127,12.0
66.142,2.625,2.742,26.0
190.762,7.532,6.809,20.0
195.278,7.672,5.827,18.0
194.227,7.592,4.681,19.0
120.077,4.669,2.203,12.0
66.177,2.558,3.019,20.0
66.241,2.547,2.64,5.0
190.713,7.294,6.503,14.0
0.0,0.0,0.0,0.0
120.092,4.544,2.703,8.0
120.076,4.518,2.012,11.0
72.528,2.712,3.194,18.0
72.478,2.695,2.774,3.0
72.508,2.68,2.358,21.0
72.468,2.663,1.933,24.0
72.436,2.646,1.515,22.0
72.381,2.629,1.098,24.0
72.422,2.614,3.075,27.0
72.416,2.597,2.657,33.0
72.407,2.581,2.24,36.0
72.369,2.564,1.817,32.0
72.355,2.547,1.4,33.0
72.348,2.531,0.984,30.0
72.399,2.515,2.96,30.0
72.41,2.5,2.544,36.0
72.382,2.482,2.127,35.0
72.369,2.465,1.704,36.0
72.361,2.448,1.288,30.0
72.351,2.432,0.873,31.0
72.443,2.417,2.851,30.0
72.446,2.401,2.435,31.0
72.439,2.384,2.018,30.0
72.442,2.368,1.595,33.0
72.433,2.35,1.179,36.0
72.434,2.335,0.764,31.0
117.71,3.763,4.454,7.0
211.36,6.707,6.784,19.0
119.947,3.778,3.161,7.0
120.001,3.752,2.463,9.0
120.024,3.724,1.774,15.0
78.952,2.432,0.714,11.0
78.843,2.407,2.865,25.0
78.938,2.39,2.415,17.0
74.796,2.247,1.859,7.0
74.377,2.216,1.414,4.0
78.873,2.331,1.048,6.0
78.829,2.311,0.595,14.0
78.816,2.289,2.747,23.0
78.834,2.269,2.294,31.0
76.616,2.188,1.791,6.0
76.385,2.162,1.34,8.0
76.347,2.142,0.902,6.0
78.691,2.188,0.478,10.0
78.795,2.169,2.631,29.0
78.854,2.151,2.18,32.0
78.87,2.132,1.729,32.0
78.885,2.113,1.27,33.0
78.878,2.093,0.818,30.0
71.765,1.886,0.333,9.0
78.937,2.051,2.522,22.0
119.974,3.086,3.145,14.0
120.008,3.057,2.459,14.0
85.318,2.151,1.251,13.0
85.047,2.123,0.76,14.0
71.827,1.775,0.232,14.0
85.27,2.082,2.604,28.0
85.263,2.059,2.115,32.0
85.253,2.037,1.627,33.0
85.235,2.015,1.131,36.0
85.116,1.99,0.642,16.0
71.707,1.658,0.131,7.0
85.241,1.946,2.485,32.0
85.242,1.924,1.998,37.0
85.251,1.901,1.51,37.0
85.248,1.879,1.014,40.0
84.963,1.85,0.525,12.0
69.639,1.498,0.032,3.0
85.338,1.81,2.372,27.0
85.36,1.787,1.885,28.0
85.396,1.765,1.398,21.0
85.44,1.744,0.902,24.0
84.712,1.706,0.41,3.0
70.197,1.395,-0.06,3.0
91.823,1.796,2.43,6.0
87.228,1.682,1.81,18.0
87.409,1.661,1.314,42.0
91.875,1.721,0.848,23.0
84.377,1.557,0.297,3.0
0.0,0.0,0.0,0.0
91.864,1.642,2.311,32.0
91.838,1.616,1.786,42.0
91.9,1.591,1.262,38.0
91.824,1.565,0.728,24.0
77.49,1.299,0.172,3.0
0.0,0.0,0.0,0.0
91.993,1.488,2.197,12.0
91.988,1.462,1.672,23.0
91.991,1.436,1.147,30.0
91.882,1.409,0.613,12.0
75.757,1.14,0.073,1.0
0.0,0.0,0.0,0.0
98.639,1.423,2.231,27.0
98.552,1.395,1.668,29.0
98.581,1.367,1.107,28.0
85.349,1.159,0.463,13.0
75.096,0.997,-0.02,1.0
0.0,0.0,0.0,0.0
98.533,1.25,2.108,28.0
98.519,1.221,1.547,29.0
98.486,1.192,0.986,22.0
85.311,1.008,0.36,9.0
0.0,0.0,0.0,0.0
46.606,0.524,-0.333,0.0
98.623,1.077,1.994,29.0
98.64,1.047,1.432,28.0
98.5,1.016,0.869,16.0
83.062,0.833,0.252,2.0
0.0,0.0,0.0,0.0
46.678,0.44,-0.388,0.0
100.22,0.914,1.909,2.0
100.423,0.885,1.342,2.0
98.373,0.838,0.755,14.0
84.151,0.691,0.159,3.0
54.929,0.435,-0.207,0.0
42.913,0.326,-0.406,0.0
104.871,0.764,1.878,18.0
104.979,0.734,1.285,13.0
104.725,0.701,0.687,6.0
0.0,0.0,0.0,0.0
0.0,0.0,0.0,0.0
42.743,0.247,-0.452,1.0
111.073,0.605,1.868,30.0
111.069,0.572,1.238,25.0
104.077,0.504,0.568,2.0
0.0,0.0,0.0,0.0
