X,Y,Z,Reflectivity
75.205,-8.654,0.614,29.0
51.373,-5.921,0.139,22.0
42.061,-4.855,-0.111,16.0
35.866,-4.146,-0.286,18.0
73.417,-8.488,1.465,34.0
75.216,-8.708,1.098,29.0
75.209,-8.719,0.695,26.0
51.549,-5.985,0.195,4.0
0.0,0.0,0.0,0.0
36.967,-4.305,-0.255,15.0
73.492,-8.558,1.546,20.0
118.563,-13.825,1.859,15.0
75.216,-8.782,0.777,19.0
75.162,-8.787,0.366,9.0
46.362,-5.428,-0.022,20.0
37.826,-4.434,-0.22,23.0
73.472,-8.614,1.626,8.0
118.674,-13.93,1.99,14.0
90.686,-10.657,1.035,2.0
75.325,-8.864,0.449,6.0
46.825,-5.517,0.029,13.0
38.583,-4.552,-0.182,17.0
73.583,-8.682,1.709,4.0
73.232,-8.65,1.31,9.0
107.788,-12.747,1.35,8.0
84.427,-9.995,0.597,15.0
0.0,0.0,0.0,0.0
38.918,-4.619,-0.14,9.0
101.412,-12.037,2.47,8.0
73.563,-8.74,1.397,5.0
73.114,-8.696,0.997,24.0
89.73,-10.684,0.735,7.0
51.298,-6.115,0.146,12.0
42.065,-5.02,-0.105,17.0
73.275,-8.745,1.866,7.0
73.343,-8.762,1.476,9.0
73.143,-8.746,1.08,23.0
89.761,-10.744,0.837,11.0
52.357,-6.273,0.208,1.0
45.793,-5.493,-0.062,20.0
73.091,-8.768,1.945,10.0
72.992,-8.764,1.552,27.0
73.313,-8.81,1.166,7.0
91.132,-10.962,0.953,8.0
65.851,-7.928,0.337,5.0
46.149,-5.561,-0.009,21.0
72.988,-8.798,2.026,8.0
72.895,-8.794,1.633,32.0
73.576,-8.883,1.255,12.0
100.882,-12.189,1.172,9.0
0.0,0.0,0.0,0.0
46.819,-5.667,0.043,11.0
72.929,-8.829,2.109,10.0
94.128,-11.403,2.217,8.0
73.579,-8.92,1.34,8.0
107.793,-13.078,1.378,4.0
85.239,-10.349,0.633,10.0
49.975,-6.073,0.104,18.0
75.088,-9.127,2.258,6.0
73.275,-8.912,1.812,7.0
100.842,-12.272,1.955,7.0
73.34,-8.931,1.021,4.0
90.312,-11.005,0.776,5.0
52.482,-6.4,0.17,18.0
75.037,-9.153,2.343,15.0
87.542,-10.684,2.267,7.0
73.526,-8.978,1.511,8.0
73.508,-8.981,1.109,21.0
90.54,-11.069,0.883,9.0
63.214,-7.733,0.279,7.0
75.045,-9.183,2.432,10.0
76.7,-9.39,2.075,9.0
76.743,-9.399,1.666,5.0
73.621,-9.021,1.198,20.0
100.904,-12.371,1.102,6.0
83.561,-10.25,0.466,11.0
75.132,-9.22,2.523,20.0
72.939,-8.954,2.059,11.0
73.152,-8.983,1.673,19.0
76.75,-9.428,1.338,7.0
73.261,-9.004,0.885,8.0
84.697,-10.414,0.571,10.0
70.044,-7.624,4.683,26.0
69.957,-7.596,4.294,10.0
70.148,-7.6,3.922,9.0
33.201,-3.589,1.671,4.0
33.188,-3.579,1.489,19.0
33.178,-3.57,1.308,51.0
33.302,-3.587,2.248,51.0
70.225,-7.547,4.356,15.0
70.322,-7.54,3.977,22.0
69.569,-7.441,3.546,18.0
71.737,-7.656,3.263,31.0
79.117,-8.424,3.167,6.0
33.294,-3.548,2.268,54.0
0.0,0.0,0.0,0.0
70.261,-7.452,4.015,36.0
69.605,-7.364,3.589,25.0
71.945,-7.594,3.315,33.0
74.42,-7.836,3.022,28.0
33.288,-3.509,2.287,52.0
69.183,-7.275,4.373,9.0
69.279,-7.266,3.999,20.0
71.404,-7.47,3.722,10.0
71.977,-7.512,3.357,34.0
74.758,-7.783,3.077,19.0
33.267,-3.467,2.304,52.0
69.246,-7.197,4.415,19.0
68.871,-7.139,4.012,27.0
71.38,-7.38,3.759,23.0
72.057,-7.431,3.399,15.0
74.78,-7.692,3.117,27.0
33.27,-3.426,2.321,55.0
69.383,-7.125,4.46,20.0
68.946,-7.061,4.051,20.0
71.294,-7.282,3.79,23.0
74.683,-7.608,3.56,7.0
72.895,-7.406,3.074,5.0
33.268,-3.383,2.338,55.0
69.569,-7.055,4.505,16.0
69.189,-6.997,4.099,21.0
71.524,-7.213,3.836,9.0
74.642,-7.507,3.592,14.0
77.986,-7.823,3.324,11.0
33.252,-3.338,2.351,55.0
69.36,-6.943,4.522,16.0
69.319,-6.919,4.136,22.0
71.28,-7.095,3.854,18.0
74.251,-7.369,3.605,7.0
71.386,-7.066,3.072,8.0
33.245,-3.293,2.365,54.0
33.233,-3.282,2.18,32.0
71.697,-7.06,4.307,19.0
71.264,-6.998,3.88,12.0
71.528,-7.003,3.5,13.0
77.678,-7.584,3.373,20.0
33.234,-3.247,2.376,56.0
33.236,-3.237,2.193,37.0
70.659,-6.862,4.271,25.0
71.663,-6.938,3.928,6.0
73.124,-7.058,3.604,7.0
77.499,-7.458,3.392,20.0
33.223,-3.2,2.387,54.0
33.236,-3.191,2.204,44.0
69.859,-6.687,4.245,25.0
73.515,-7.014,4.054,8.0
73.134,-6.957,3.628,26.0
70.998,-6.733,3.129,18.0
33.238,-3.154,2.398,59.0
33.219,-3.142,2.213,48.0
69.937,-6.595,4.271,19.0
73.463,-6.905,4.071,5.0
71.375,-6.688,3.56,10.0
71.126,-6.643,3.155,18.0
70.147,-6.557,5.081,20.0
70.212,-6.54,4.695,13.0
70.223,-6.52,4.306,14.0
70.228,-6.499,3.909,11.0
71.408,-6.587,3.579,12.0
71.236,-6.55,3.176,15.0
70.464,-6.484,5.12,44.0
70.772,-6.49,4.749,19.0
71.302,-6.517,4.387,12.0
70.894,-6.459,3.961,39.0
71.365,-6.48,3.592,17.0
71.235,-6.446,3.19,8.0
70.33,-6.369,5.123,29.0
70.671,-6.377,4.754,18.0
71.063,-6.39,4.385,8.0
70.652,-6.332,3.959,32.0
71.118,-6.351,3.591,15.0
67.958,-6.049,3.054,8.0
69.912,-6.227,5.103,26.0
70.673,-6.271,4.764,20.0
71.016,-6.279,4.392,27.0
70.873,-6.244,3.981,44.0
67.965,-5.967,3.44,46.0
67.989,-5.948,3.063,54.0
10.134,-0.007,-0.884,0.0
9.643,-0.008,-0.897,0.0
9.188,-0.009,-0.908,0.0
0.0,0.0,0.0,0.0
8.38,-0.01,-0.926,0.0
8.005,-0.01,-0.932,0.0
10.022,-0.016,-0.887,0.0
9.575,-0.017,-0.903,0.0
9.104,-0.017,-0.911,0.0
0.0,0.0,0.0,0.0
8.279,-0.017,-0.926,0.0
7.928,-0.018,-0.933,0.0
9.924,-0.025,-0.891,0.0
9.372,-0.025,-0.895,0.0
8.989,-0.025,-0.911,0.0
8.516,-0.025,-0.913,0.0
8.22,-0.025,-0.929,0.0
7.807,-0.025,-0.928,0.0
9.786,-0.034,-0.89,0.0
9.274,-0.034,-0.897,0.0
8.966,-0.034,-0.919,0.0
8.463,-0.033,-0.918,0.0
8.134,-0.033,-0.929,0.0
7.799,-0.033,-0.937,0.0
9.693,-0.043,-0.893,0.0
9.268,-0.043,-0.907,0.0
8.791,-0.042,-0.911,0.0
8.386,-0.041,-0.919,0.0
8.059,-0.04,-0.93,0.0
7.716,-0.04,-0.935,0.0
9.605,-0.052,-0.895,0.0
9.115,-0.051,-0.902,0.0
8.719,-0.05,-0.914,0.0
8.32,-0.049,-0.921,0.0
8.0,-0.048,-0.932,0.0
7.667,-0.048,-0.938,0.0
9.549,-0.062,-0.901,0.0
9.098,-0.06,-0.911,0.0
8.735,-0.059,-0.925,0.0
8.3,-0.058,-0.928,0.0
7.929,-0.056,-0.932,0.0
7.599,-0.055,-0.938,0.0
9.433,-0.071,-0.9,0.0
9.009,-0.069,-0.911,0.0
8.545,-0.067,-0.914,0.0
8.198,-0.065,-0.925,0.0
7.862,-0.064,-0.933,0.0
7.547,-0.062,-0.939,0.0
9.316,-0.08,-0.898,0.0
8.913,-0.078,-0.91,0.0
8.469,-0.075,-0.914,0.0
8.063,-0.073,-0.918,0.0
7.791,-0.072,-0.932,0.0
7.48,-0.07,-0.938,0.0
9.269,-0.089,-0.902,0.0
8.813,-0.086,-0.909,0.0
8.451,-0.084,-0.92,0.0
8.069,-0.082,-0.926,0.0
7.75,-0.08,-0.934,0.0
7.469,-0.078,-0.944,0.0
9.215,-0.099,-0.905,0.0
8.805,-0.096,-0.916,0.0
8.393,-0.093,-0.921,0.0
8.027,-0.09,-0.928,0.0
7.742,-0.088,-0.94,0.0
7.424,-0.086,-0.945,0.0
9.157,-0.108,-0.908,0.0
8.761,-0.105,-0.919,0.0
8.313,-0.101,-0.92,0.0
7.969,-0.098,-0.929,0.0
7.619,-0.095,-0.932,0.0
7.371,-0.093,-0.944,0.0
9.051,-0.117,-0.905,0.0
8.614,-0.113,-0.911,0.0
8.205,-0.109,-0.915,0.0
7.981,-0.107,-0.937,0.0
7.66,-0.104,-0.943,0.0
7.308,-0.101,-0.942,0.0
9.016,-0.126,-0.908,0.0
8.583,-0.122,-0.914,0.0
8.2,-0.118,-0.92,0.0
7.913,-0.115,-0.935,0.0
7.567,-0.111,-0.938,0.0
7.276,-0.108,-0.944,0.0
8.929,-0.135,-0.906,0.0
8.483,-0.13,-0.91,0.0
8.196,-0.127,-0.926,0.0
7.813,-0.122,-0.929,0.0
7.533,-0.12,-0.939,0.0
7.238,-0.116,-0.944,0.0
8.917,-0.145,-0.911,0.0
8.479,-0.14,-0.915,0.0
8.098,-0.135,-0.921,0.0
7.84,-0.132,-0.937,0.0
7.492,-0.127,-0.939,0.0
7.193,-0.124,-0.943,0.0
78.999,1.997,1.692,15.0
78.997,2.024,1.261,3.0
78.916,2.048,0.83,32.0
78.705,2.069,0.391,8.0
65.217,1.735,-0.031,6.0
55.213,1.487,-0.327,0.0
74.489,2.038,1.622,6.0
78.866,2.184,1.288,32.0
78.869,2.211,0.857,26.0
78.679,2.231,0.418,6.0
64.84,1.86,-0.008,7.0
55.439,1.609,-0.31,0.0
78.901,2.324,1.744,24.0
78.939,2.351,1.314,22.0
79.001,2.38,0.884,19.0
72.343,2.202,0.407,16.0
65.018,2.0,0.01,9.0
55.175,1.716,-0.292,0.0
72.523,2.289,1.625,10.0
72.465,2.311,1.227,33.0
72.391,2.332,0.83,33.0
72.263,2.351,0.426,22.0
65.176,2.143,0.028,9.0
59.853,1.988,-0.301,0.0
72.384,2.436,1.64,34.0
72.356,2.458,1.243,38.0
72.343,2.482,0.847,33.0
72.235,2.5,0.442,23.0
65.217,2.278,0.042,11.0
58.332,2.056,-0.281,0.0
72.419,2.587,1.656,25.0
72.43,2.61,1.26,24.0
61.536,2.238,0.733,15.0
72.25,2.649,0.457,17.0
65.254,2.414,0.054,10.0
56.947,2.125,-0.264,2.0
49.611,1.875,1.143,1.0
61.488,2.344,1.08,15.0
63.681,2.447,0.769,13.0
72.347,2.804,0.469,7.0
65.227,2.548,0.064,13.0
55.89,2.201,-0.251,2.0
49.182,1.961,1.14,12.0
64.413,2.588,1.139,17.0
64.73,2.621,0.789,15.0
66.04,2.695,0.436,22.0
65.274,2.685,0.072,11.0
54.732,2.269,-0.24,2.0
48.886,2.05,1.138,13.0
66.069,2.791,1.175,27.0
66.052,2.811,0.811,30.0
66.021,2.831,0.441,25.0
65.168,2.814,0.076,11.0
53.683,2.336,-0.232,2.0
48.612,2.139,1.135,16.0
48.234,2.138,0.86,10.0
66.085,2.949,0.815,25.0
66.105,2.97,0.444,16.0
65.173,2.948,0.078,9.0
52.543,2.393,-0.225,18.0
48.372,2.227,1.131,15.0
48.022,2.226,0.857,23.0
120.085,5.605,1.482,13.0
120.044,5.64,0.807,14.0
65.291,3.088,0.079,10.0
51.854,2.468,-0.223,5.0
48.163,2.317,1.125,17.0
47.819,2.315,0.853,35.0
120.079,5.851,1.479,13.0
119.956,5.882,0.803,15.0
59.341,2.927,0.069,18.0
51.289,2.546,-0.223,7.0
47.989,2.406,1.118,34.0
47.697,2.406,0.848,33.0
120.113,6.095,1.472,22.0
59.437,3.034,0.393,27.0
59.153,3.037,0.064,20.0
0.0,0.0,0.0,0.0
47.805,2.493,1.11,38.0
59.391,3.115,1.05,33.0
59.358,3.13,0.721,30.0
59.313,3.145,0.386,30.0
59.081,3.151,0.057,12.0
0.0,0.0,0.0,0.0
47.665,2.581,1.101,36.0
59.381,3.232,1.042,30.0
59.353,3.249,0.713,29.0
59.316,3.263,0.377,23.0
52.533,2.906,0.043,14.0
50.681,2.818,-0.239,3.0
47.518,2.667,1.09,26.0
59.471,3.355,1.034,7.0
59.47,3.373,0.704,3.0
59.213,3.375,0.366,17.0
52.366,3.0,0.033,24.0
48.147,2.772,-0.236,11.0
115.336,6.703,2.623,3.0
114.873,6.708,1.973,7.0
114.456,6.716,1.33,7.0
114.02,6.723,0.68,6.0
51.968,3.079,0.021,20.0
46.026,2.741,-0.237,19.0
113.319,6.809,2.55,7.0
111.089,6.705,1.882,16.0
111.114,6.739,1.264,50.0
111.108,6.769,0.634,47.0
51.856,3.174,0.007,19.0
45.614,2.805,-0.246,19.0
111.236,6.9,2.473,17.0
111.132,6.923,1.852,8.0
110.788,6.934,1.228,10.0
52.36,3.292,0.283,2.0
51.633,3.26,-0.007,17.0
45.271,2.871,-0.258,19.0
109.74,7.019,2.406,2.0
52.338,3.362,0.855,3.0
52.334,3.377,0.563,30.0
52.238,3.384,0.265,23.0
51.559,3.355,-0.025,18.0
44.824,2.929,-0.271,19.0
52.246,3.442,1.127,44.0
52.228,3.455,0.835,42.0
52.228,3.469,0.543,28.0
52.175,3.48,0.246,16.0
51.469,3.447,-0.044,18.0
44.341,2.981,-0.285,18.0
52.192,3.537,1.106,44.0
52.195,3.552,0.814,42.0
52.196,3.565,0.522,32.0
52.144,3.576,0.225,21.0
46.091,3.173,-0.058,16.0
43.574,3.012,-0.298,17.0
52.211,3.636,1.084,26.0
52.223,3.65,0.793,25.0
52.202,3.663,0.5,24.0
52.14,3.672,0.203,15.0
45.925,3.247,-0.078,21.0
42.622,3.025,-0.31,8.0
102.08,7.298,2.075,54.0
52.317,3.753,0.77,7.0
52.287,3.765,0.477,18.0
52.148,3.768,0.178,13.0
45.65,3.31,-0.098,19.0
41.904,3.049,-0.325,7.0
101.842,7.465,2.021,4.0
101.501,7.466,1.446,6.0
101.196,7.468,0.874,3.0
52.228,3.867,0.153,13.0
45.348,3.37,-0.121,19.0
41.231,3.074,-0.341,7.0
100.587,7.553,1.945,8.0
100.431,7.567,1.378,9.0
100.209,7.575,0.813,11.0
52.164,3.957,0.125,4.0
45.197,3.439,-0.145,18.0
40.764,3.112,-0.359,5.0
99.546,7.653,1.87,8.0
99.347,7.66,1.308,8.0
99.104,7.666,0.748,9.0
45.838,3.557,0.084,16.0
44.988,3.503,-0.17,18.0
40.512,3.165,-0.38,5.0
98.504,7.745,1.793,7.0
45.958,3.624,0.578,15.0
45.881,3.629,0.319,35.0
45.703,3.626,0.056,24.0
44.739,3.56,-0.196,19.0
40.357,3.222,-0.403,5.0
45.833,3.682,0.806,40.0
45.817,3.692,0.548,45.0
45.781,3.699,0.29,32.0
45.606,3.696,0.027,24.0
44.285,3.599,-0.222,19.0
40.194,3.277,-0.427,6.0
45.782,3.756,0.776,44.0
45.772,3.765,0.518,36.0
45.751,3.774,0.26,29.0
45.473,3.761,-0.002,23.0
43.449,3.604,-0.246,18.0
40.057,3.332,-0.453,7.0
45.779,3.832,0.745,39.0
45.764,3.841,0.487,31.0
45.721,3.847,0.228,18.0
45.375,3.828,-0.032,27.0
0.0,0.0,0.0,0.0
39.949,3.389,-0.479,12.0
45.802,3.908,0.713,27.0
45.79,3.916,0.455,24.0
45.754,3.923,0.196,16.0
45.232,3.889,-0.065,19.0
40.751,3.513,-0.288,16.0
39.797,3.439,-0.506,4.0
93.146,8.096,1.383,148.0
93.174,8.118,0.857,32.0
45.862,4.006,0.162,13.0
45.195,3.957,-0.098,18.0
40.555,3.559,-0.317,15.0
39.719,3.495,-0.535,1.0
93.097,8.238,1.312,11.0
92.918,8.24,0.784,11.0
45.674,4.06,0.127,6.0
45.059,4.015,-0.133,19.0
40.243,3.594,-0.346,15.0
36.247,3.245,-0.517,1.0
92.28,8.307,1.228,7.0
92.153,8.313,0.705,9.0
45.681,4.13,0.091,16.0
44.53,4.036,-0.167,19.0
39.869,3.622,-0.375,14.0
35.745,3.254,-0.538,2.0
91.527,8.377,1.144,11.0
91.361,8.38,0.624,10.0
91.189,8.382,0.106,3.0
43.892,4.043,-0.201,19.0
39.562,3.653,-0.405,6.0
35.476,3.282,-0.564,2.0
90.77,8.441,1.058,11.0
90.6,8.443,0.543,10.0
73.374,6.851,0.024,3.0
42.936,4.018,-0.233,18.0
39.455,3.7,-0.438,6.0
34.652,3.256,-0.581,0.0
90.052,8.504,0.971,10.0
89.942,8.51,0.46,9.0
45.663,4.329,-0.024,7.0
41.729,3.964,-0.264,19.0
39.378,3.748,-0.472,9.0
31.815,3.035,-0.561,0.0
89.358,8.564,0.884,11.0
89.25,8.569,0.377,9.0
45.461,4.373,-0.065,15.0
40.447,3.898,-0.292,16.0
39.318,3.797,-0.507,7.0
31.193,3.019,-0.579,1.0
88.734,8.626,0.797,12.0
88.544,8.622,0.292,11.0
45.529,4.442,-0.108,19.0
39.942,3.904,-0.325,19.0
39.24,3.843,-0.542,3.0
30.626,3.005,-0.597,0.0
88.118,8.683,0.709,11.0
86.426,8.531,0.204,10.0
0.0,0.0,0.0,0.0
39.575,3.92,-0.359,15.0
39.189,3.889,-0.579,0.0
29.596,2.942,-0.605,0.0
87.517,8.735,0.62,11.0
87.04,8.702,0.123,10.0
43.49,4.355,-0.185,18.0
39.259,3.938,-0.394,10.0
33.762,3.392,-0.531,1.0
28.878,2.907,-0.618,0.0
86.938,8.787,0.531,11.0
86.464,8.752,0.037,6.0
42.72,4.331,-0.224,18.0
39.135,3.975,-0.432,8.0
33.405,3.398,-0.559,1.0
27.793,2.832,-0.623,0.0
86.394,8.838,0.441,10.0
69.971,7.169,-0.041,3.0
40.646,4.17,-0.254,16.0
39.074,4.015,-0.471,8.0
33.114,3.409,-0.588,0.0
27.108,2.795,-0.636,0.0
85.836,8.882,0.349,10.0
52.191,5.408,-0.084,2.0
40.086,4.16,-0.293,17.0
39.017,4.055,-0.511,8.0
30.906,3.217,-0.581,1.0
26.585,2.772,-0.651,0.0
84.484,8.839,0.256,11.0
51.853,5.432,-0.137,5.0
39.645,4.159,-0.331,27.0
38.953,4.092,-0.551,3.0
30.107,3.168,-0.597,0.0
25.9,2.729,-0.662,0.0
84.147,8.896,0.166,34.0
45.59,4.826,-0.169,8.0
39.385,4.175,-0.371,15.0
38.919,4.131,-0.592,0.0
29.26,3.11,-0.612,0.0
25.254,2.688,-0.672,0.0
75.906,8.105,0.067,5.0
42.519,4.546,-0.204,17.0
38.999,4.175,-0.41,12.0
32.605,3.495,-0.532,0.0
28.124,3.018,-0.619,0.0
24.594,2.643,-0.682,0.0
70.594,7.609,-0.013,4.0
40.794,4.402,-0.24,16.0
38.893,4.202,-0.451,8.0
32.084,3.471,-0.558,1.0
27.491,2.978,-0.635,0.0
23.874,2.59,-0.688,0.0
69.693,7.581,-0.09,5.0
40.251,4.383,-0.281,16.0
38.854,4.236,-0.494,9.0
31.286,3.415,-0.579,1.0
26.702,2.918,-0.647,0.0
23.383,2.558,-0.7,0.0
52.115,5.717,-0.125,3.0
39.72,4.361,-0.322,23.0
38.835,4.269,-0.537,6.0
30.062,3.308,-0.59,1.0
25.98,2.863,-0.659,0.0
22.718,2.506,-0.706,0.0
45.315,5.011,-0.161,5.0
39.283,4.348,-0.363,15.0
38.812,4.301,-0.581,0.0
29.064,3.224,-0.604,0.0
25.256,2.805,-0.669,0.0
22.13,2.46,-0.713,0.0
42.601,4.747,-0.2,18.0
38.93,4.342,-0.405,14.0
0.0,0.0,0.0,0.0
28.19,3.151,-0.618,0.0
24.51,2.742,-0.678,0.0
21.621,2.422,-0.722,0.0
40.624,4.559,-0.237,16.0
38.744,4.353,-0.449,7.0
31.729,3.568,-0.549,0.0
27.192,3.06,-0.629,0.0
23.775,2.679,-0.686,0.0
20.932,2.361,-0.723,0.0
40.216,4.544,-0.282,18.0
38.724,4.379,-0.493,8.0
30.931,3.501,-0.571,1.0
26.523,3.005,-0.644,0.0
23.275,2.639,-0.698,0.0
20.448,2.321,-0.731,0.0
39.717,4.516,-0.326,26.0
38.703,4.404,-0.539,5.0
30.41,3.463,-0.597,0.0
25.808,2.942,-0.657,0.0
22.682,2.588,-0.707,0.0
20.06,2.291,-0.741,0.0
39.211,4.485,-0.368,15.0
38.638,4.422,-0.584,1.0
29.051,3.328,-0.605,0.0
25.106,2.878,-0.669,0.0
22.055,2.531,-0.714,0.0
19.575,2.248,-0.746,0.0
38.805,4.463,-0.41,13.0
33.042,3.803,-0.539,0.0
28.012,3.226,-0.617,0.0
24.34,2.805,-0.678,0.0
21.391,2.467,-0.719,0.0
19.111,2.206,-0.752,0.0
38.663,4.469,-0.456,8.0
32.12,3.715,-0.562,0.0
27.078,3.134,-0.629,1.0
23.585,2.732,-0.685,0.0
20.843,2.416,-0.725,0.0
18.651,2.163,-0.756,0.0
38.672,4.49,-0.502,9.0
30.5,3.544,-0.57,1.0
26.353,3.064,-0.644,1.0
23.099,2.687,-0.699,0.0
20.321,2.366,-0.732,0.0
18.285,2.13,-0.763,0.0
38.636,4.505,-0.548,6.0
30.02,3.502,-0.598,1.0
25.666,2.996,-0.658,0.0
22.511,2.629,-0.709,0.0
19.934,2.33,-0.742,0.0
17.89,2.093,-0.769,0.0
38.58,4.516,-0.594,0.0
28.495,3.337,-0.602,0.0
24.925,2.92,-0.669,0.0
21.719,2.546,-0.71,0.0
19.432,2.279,-0.747,0.0
17.553,2.06,-0.776,0.0
32.475,3.814,-0.54,0.0
27.612,3.244,-0.617,0.0
24.16,2.84,-0.678,0.0
21.161,2.489,-0.718,0.0
18.959,2.231,-0.752,0.0
17.169,2.022,-0.779,0.0
30.839,3.632,-0.55,0.0
26.79,3.157,-0.631,1.0
23.409,2.76,-0.686,0.0
20.667,2.438,-0.726,0.0
18.565,2.191,-0.759,0.0
16.918,1.998,-0.789,0.0
30.412,3.592,-0.579,2.0
26.135,3.087,-0.648,0.0
22.953,2.713,-0.7,0.0
20.084,2.375,-0.73,0.0
18.134,2.145,-0.763,0.0
16.522,1.955,-0.791,0.0
29.654,3.51,-0.601,1.0
25.436,3.011,-0.661,0.0
22.301,2.641,-0.707,0.0
19.734,2.338,-0.741,0.0
17.779,2.107,-0.77,0.0
16.225,1.924,-0.796,0.0
28.157,3.338,-0.604,0.0
24.681,2.927,-0.671,0.0
21.623,2.565,-0.712,0.0
19.268,2.286,-0.747,0.0
17.366,2.062,-0.773,0.0
15.935,1.892,-0.801,0.0
27.322,3.244,-0.619,0.0
23.869,2.834,-0.677,0.0
21.054,2.501,-0.718,0.0
18.706,2.222,-0.747,0.0
17.069,2.029,-0.78,0.0
15.672,1.863,-0.806,0.0
26.588,3.16,-0.634,0.0
23.296,2.769,-0.689,0.0
20.573,2.446,-0.726,0.0
18.413,2.19,-0.758,0.0
16.796,1.998,-0.788,0.0
15.293,1.82,-0.805,0.0
25.853,3.074,-0.647,0.0
22.675,2.697,-0.698,0.0
20.06,2.386,-0.732,0.0
18.015,2.143,-0.763,0.0
16.419,1.954,-0.789,0.0
15.088,1.796,-0.812,0.0
25.23,3.001,-0.661,0.0
22.163,2.636,-0.708,0.0
19.645,2.337,-0.74,0.0
17.641,2.099,-0.768,0.0
16.194,1.927,-0.798,0.0
14.911,1.775,-0.821,0.0
24.405,2.902,-0.669,0.0
21.495,2.556,-0.712,0.0
19.172,2.28,-0.745,0.0
17.256,2.053,-0.771,0.0
15.927,1.895,-0.803,0.0
14.629,1.741,-0.822,0.0
23.773,2.826,-0.679,0.0
21.026,2.499,-0.721,0.0
18.685,2.221,-0.748,0.0
16.993,2.02,-0.779,0.0
15.507,1.844,-0.8,0.0
14.324,1.703,-0.822,0.0
23.161,2.75,-0.688,0.0
20.392,2.421,-0.723,0.0
18.408,2.186,-0.758,0.0
16.78,1.992,-0.789,0.0
15.357,1.824,-0.811,0.0
14.161,1.682,-0.829,0.0
22.647,2.686,-0.699,0.0
20.067,2.379,-0.735,0.0
17.947,2.128,-0.76,0.0
16.386,1.943,-0.789,0.0
15.089,1.789,-0.814,0.0
13.95,1.654,-0.832,0.0
21.956,2.599,-0.703,0.0
19.604,2.321,-0.74,0.0
17.681,2.093,-0.769,0.0
16.087,1.904,-0.793,0.0
14.878,1.761,-0.819,0.0
13.774,1.63,-0.838,0.0
21.523,2.543,-0.713,0.0
19.123,2.259,-0.743,0.0
17.369,2.051,-0.774,0.0
15.898,1.877,-0.802,0.0
14.609,1.725,-0.821,0.0
13.588,1.605,-0.841,0.0
20.962,2.471,-0.717,0.0
18.769,2.212,-0.75,0.0
17.087,2.013,-0.78,0.0
15.592,1.837,-0.803,0.0
14.429,1.699,-0.826,0.0
13.383,1.576,-0.843,0.0
20.455,2.404,-0.722,0.0
18.341,2.155,-0.752,0.0
16.78,1.971,-0.785,0.0
15.298,1.797,-0.805,0.0
14.149,1.661,-0.825,0.0
13.181,1.548,-0.845,0.0
20.098,2.354,-0.731,0.0
18.038,2.112,-0.759,0.0
16.451,1.926,-0.787,0.0
15.126,1.77,-0.812,0.0
14.007,1.639,-0.832,0.0
13.023,1.524,-0.849,0.0
19.723,2.302,-0.738,0.0
17.731,2.069,-0.765,0.0
16.182,1.888,-0.791,0.0
14.906,1.738,-0.816,0.0
13.814,1.61,-0.835,0.0
12.848,1.498,-0.851,0.0
19.233,2.236,-0.74,0.0
17.512,2.035,-0.774,0.0
15.949,1.853,-0.796,0.0
14.626,1.699,-0.815,0.0
13.628,1.582,-0.838,0.0
12.64,1.467,-0.85,0.0
18.816,2.178,-0.743,0.0
17.105,1.979,-0.773,0.0
15.628,1.807,-0.796,0.0
14.475,1.673,-0.822,0.0
13.516,1.562,-0.845,0.0
12.517,1.446,-0.854,0.0
18.469,2.128,-0.747,0.0
16.849,1.94,-0.778,0.0
15.431,1.776,-0.801,0.0
14.262,1.641,-0.824,0.0
13.288,1.528,-0.844,0.0
12.428,1.429,-0.86,0.0
18.208,2.087,-0.755,0.0
16.647,1.907,-0.785,0.0
15.23,1.744,-0.805,0.0
14.084,1.612,-0.827,0.0
13.137,1.503,-0.847,0.0
12.255,1.401,-0.86,0.0
17.931,2.044,-0.76,0.0
16.435,1.872,-0.791,0.0
15.098,1.719,-0.813,0.0
13.902,1.582,-0.829,0.0
12.941,1.472,-0.846,0.0
12.09,1.375,-0.86,0.0
17.65,2.0,-0.765,0.0
16.171,1.831,-0.793,0.0
14.834,1.679,-0.812,0.0
13.773,1.558,-0.834,0.0
12.845,1.452,-0.852,0.0
11.83,1.337,-0.852,0.0
17.507,1.972,-0.774,0.0
15.991,1.8,-0.799,0.0
14.619,1.644,-0.814,0.0
13.646,1.534,-0.839,0.0
12.616,1.417,-0.848,0.0
11.74,1.318,-0.856,0.0
17.114,1.915,-0.772,0.0
15.739,1.759,-0.8,0.0
14.466,1.616,-0.818,0.0
13.5,1.507,-0.842,0.0
12.513,1.396,-0.852,0.0
11.623,1.296,-0.858,0.0
16.886,1.876,-0.776,0.0
15.605,1.732,-0.807,0.0
14.285,1.584,-0.82,0.0
13.332,1.478,-0.843,0.0
12.391,1.372,-0.854,0.0
11.498,1.273,-0.859,0.0
16.74,1.846,-0.784,0.0
15.323,1.688,-0.805,0.0
14.185,1.561,-0.826,0.0
13.187,1.45,-0.844,0.0
12.287,1.35,-0.857,0.0
11.421,1.254,-0.862,0.0
16.526,1.808,-0.787,0.0
15.162,1.657,-0.808,0.0
14.013,1.53,-0.827,0.0
13.109,1.43,-0.85,0.0
12.142,1.324,-0.857,0.0
11.329,1.234,-0.864,0.0
16.318,1.77,-0.79,0.0
15.004,1.626,-0.811,0.0
13.909,1.506,-0.831,0.0
12.969,1.403,-0.851,0.0
11.918,1.288,-0.85,0.0
11.216,1.211,-0.864,0.0
16.226,1.745,-0.797,0.0
14.835,1.594,-0.813,0.0
13.813,1.483,-0.836,0.0
12.772,1.37,-0.847,0.0
11.851,1.27,-0.854,0.0
11.141,1.193,-0.866,0.0
15.944,1.7,-0.794,0.0
14.676,1.563,-0.815,0.0
13.715,1.459,-0.84,0.0
12.602,1.339,-0.844,0.0
11.755,1.248,-0.855,0.0
11.044,1.171,-0.866,0.0
15.806,1.669,-0.798,0.0
14.55,1.535,-0.818,0.0
13.565,1.429,-0.839,0.0
12.561,1.322,-0.85,0.0
11.659,1.226,-0.855,0.0
10.957,1.151,-0.866,0.0
15.596,1.631,-0.798,0.0
14.392,1.503,-0.818,0.0
13.437,1.402,-0.84,0.0
12.358,1.288,-0.844,0.0
11.675,1.215,-0.864,0.0
10.889,1.132,-0.868,0.0
15.414,1.596,-0.798,0.0
14.304,1.479,-0.822,0.0
13.378,1.381,-0.844,0.0
12.341,1.273,-0.85,0.0
11.559,1.191,-0.862,0.0
10.855,1.117,-0.872,0.0
15.37,1.574,-0.805,0.0
14.225,1.455,-0.825,0.0
13.295,1.358,-0.847,0.0
12.259,1.251,-0.852,0.0
11.434,1.165,-0.859,0.0
10.754,1.094,-0.87,0.0
15.227,1.542,-0.806,0.0
14.122,1.428,-0.827,0.0
13.162,1.329,-0.846,0.0
12.128,1.223,-0.849,0.0
11.36,1.144,-0.86,0.0
10.714,1.078,-0.872,0.0
15.154,1.517,-0.81,0.0
14.029,1.402,-0.829,0.0
13.068,1.305,-0.846,0.0
12.145,1.211,-0.857,0.0
11.288,1.124,-0.86,0.0
10.624,1.056,-0.87,0.0
15.066,1.49,-0.812,0.0
13.908,1.374,-0.828,0.0
13.022,1.284,-0.849,0.0
11.967,1.179,-0.85,0.0
11.232,1.105,-0.861,0.0
10.625,1.044,-0.875,0.0
14.978,1.463,-0.814,0.0
13.842,1.35,-0.831,0.0
12.875,1.254,-0.845,0.0
11.923,1.159,-0.852,0.0
11.167,1.084,-0.861,0.0
10.586,1.026,-0.876,0.0
14.833,1.431,-0.812,0.0
13.786,1.328,-0.833,0.0
12.863,1.237,-0.85,0.0
11.874,1.14,-0.853,0.0
11.132,1.067,-0.863,0.0
10.542,1.009,-0.877,0.0
14.8,1.409,-0.816,0.0
13.758,1.307,-0.836,0.0
12.688,1.204,-0.843,0.0
11.824,1.12,-0.853,0.0
11.071,1.047,-0.862,0.0
10.47,0.988,-0.874,0.0
14.613,1.372,-0.811,0.0
13.685,1.282,-0.836,0.0
12.65,1.183,-0.844,0.0
11.783,1.1,-0.854,0.0
11.027,1.028,-0.862,0.0
10.445,0.972,-0.875,0.0
14.584,1.35,-0.813,0.0
13.632,1.259,-0.837,0.0
12.572,1.159,-0.843,0.0
11.77,1.083,-0.857,0.0
11.047,1.015,-0.867,0.0
10.437,0.957,-0.878,0.0
14.555,1.327,-0.816,0.0
13.59,1.237,-0.838,0.0
12.524,1.138,-0.843,0.0
11.708,1.062,-0.855,0.0
10.999,0.996,-0.865,0.0
10.433,0.943,-0.88,0.0
14.498,1.302,-0.816,0.0
13.589,1.218,-0.841,0.0
12.508,1.119,-0.844,0.0
11.693,1.044,-0.856,0.0
11.02,0.982,-0.869,0.0
10.376,0.923,-0.877,0.0
14.419,1.275,-0.814,0.0
13.517,1.193,-0.839,0.0
12.58,1.108,-0.851,0.0
11.655,1.024,-0.856,0.0
10.958,0.961,-0.866,0.0
10.385,0.909,-0.879,0.0
14.413,1.254,-0.816,0.0
13.515,1.174,-0.841,0.0
12.501,1.083,-0.848,0.0
11.631,1.006,-0.855,0.0
10.944,0.944,-0.866,0.0
10.361,0.892,-0.878,0.0
14.48,1.239,-0.821,0.0
13.464,1.15,-0.839,0.0
12.496,1.065,-0.849,0.0
11.629,0.989,-0.856,0.0
10.888,0.924,-0.863,0.0
10.367,0.877,-0.88,0.0
14.463,1.217,-0.821,0.0
13.501,1.133,-0.842,0.0
12.471,1.044,-0.847,0.0
11.618,0.97,-0.856,0.0
10.927,0.911,-0.866,0.0
10.368,0.862,-0.88,0.0
14.467,1.195,-0.822,0.0
13.504,1.113,-0.842,0.0
12.419,1.021,-0.844,0.0
11.623,0.954,-0.856,0.0
10.915,0.893,-0.865,0.0
10.368,0.847,-0.88,0.0
14.407,1.169,-0.818,0.0
13.501,1.093,-0.842,0.0
12.51,1.01,-0.85,0.0
11.592,0.934,-0.853,0.0
10.959,0.88,-0.868,0.0
10.373,0.831,-0.88,0.0
14.496,1.155,-0.822,0.0
13.501,1.072,-0.841,0.0
12.526,0.992,-0.85,0.0
11.641,0.92,-0.856,0.0
10.918,0.861,-0.864,0.0
10.369,0.815,-0.878,0.0
14.41,1.126,-0.816,0.0
13.52,1.053,-0.841,0.0
12.433,0.966,-0.842,0.0
11.609,0.9,-0.852,0.0
10.93,0.845,-0.863,0.0
10.401,0.802,-0.88,0.0
14.52,1.112,-0.82,0.0
13.521,1.033,-0.839,0.0
12.518,0.953,-0.846,0.0
11.668,0.886,-0.855,0.0
10.989,0.832,-0.866,0.0
10.4,0.786,-0.878,0.0
14.556,1.092,-0.819,0.0
13.543,1.013,-0.837,0.0
12.429,0.927,-0.837,0.0
11.697,0.87,-0.854,0.0
10.988,0.815,-0.864,0.0
10.435,0.772,-0.878,0.0
14.581,1.072,-0.817,0.0
13.619,0.998,-0.839,0.0
12.876,0.941,-0.865,0.0
11.713,0.853,-0.853,0.0
11.002,0.799,-0.862,0.0
10.438,0.756,-0.876,0.0
14.639,1.053,-0.817,0.0
13.657,0.979,-0.837,0.0
12.597,0.9,-0.842,0.0
11.738,0.837,-0.851,0.0
11.08,0.787,-0.865,0.0
10.505,0.744,-0.878,0.0
14.734,1.037,-0.817,0.0
13.649,0.957,-0.833,0.0
12.75,0.891,-0.848,0.0
11.799,0.822,-0.852,0.0
11.104,0.771,-0.863,0.0
10.518,0.728,-0.876,0.0
14.733,1.013,-0.812,0.0
13.675,0.937,-0.829,0.0
12.804,0.875,-0.847,0.0
11.838,0.806,-0.85,0.0
11.147,0.757,-0.862,0.0
10.562,0.715,-0.875,0.0
14.905,1.001,-0.816,0.0
13.779,0.923,-0.83,0.0
12.933,0.863,-0.85,0.0
11.875,0.79,-0.848,0.0
11.183,0.741,-0.86,0.0
10.622,0.702,-0.876,0.0
15.001,0.984,-0.814,0.0
13.901,0.908,-0.831,0.0
12.933,0.842,-0.845,0.0
11.967,0.777,-0.849,0.0
11.244,0.727,-0.86,0.0
10.672,0.688,-0.875,0.0
15.116,0.967,-0.813,0.0
14.026,0.894,-0.832,0.0
13.05,0.829,-0.846,0.0
12.032,0.761,-0.847,0.0
11.333,0.715,-0.861,0.0
10.702,0.672,-0.872,0.0
15.1,0.942,-0.805,0.0
14.082,0.875,-0.828,0.0
13.104,0.811,-0.842,0.0
12.198,0.752,-0.852,0.0
11.406,0.701,-0.86,0.0
10.775,0.66,-0.872,0.0
15.237,0.926,-0.804,0.0
14.247,0.863,-0.829,0.0
13.298,0.802,-0.847,0.0
12.253,0.736,-0.849,0.0
11.506,0.688,-0.86,0.0
10.844,0.646,-0.871,0.0
15.386,0.911,-0.802,0.0
14.359,0.846,-0.827,0.0
13.286,0.78,-0.838,0.0
12.381,0.724,-0.85,0.0
11.545,0.672,-0.856,0.0
10.9,0.632,-0.868,0.0
15.533,0.894,-0.8,0.0
14.432,0.828,-0.822,0.0
13.43,0.767,-0.838,0.0
12.478,0.709,-0.848,0.0
11.641,0.659,-0.855,0.0
10.981,0.619,-0.867,0.0
15.721,0.88,-0.799,0.0
14.507,0.808,-0.816,0.0
13.592,0.754,-0.839,0.0
12.724,0.703,-0.856,0.0
11.734,0.645,-0.853,0.0
11.097,0.607,-0.868,0.0
15.927,0.866,-0.797,0.0
14.683,0.794,-0.815,0.0
13.672,0.736,-0.833,0.0
12.709,0.681,-0.845,0.0
11.833,0.631,-0.852,0.0
11.146,0.592,-0.863,0.0
16.132,0.851,-0.795,0.0
14.981,0.786,-0.82,0.0
13.863,0.724,-0.834,0.0
12.832,0.667,-0.843,0.0
11.941,0.618,-0.85,0.0
11.2,0.577,-0.858,0.0
16.376,0.837,-0.794,0.0
15.074,0.767,-0.813,0.0
14.004,0.709,-0.831,0.0
12.991,0.655,-0.843,0.0
12.132,0.608,-0.853,0.0
11.296,0.564,-0.856,0.0
16.591,0.822,-0.79,0.0
15.283,0.753,-0.811,0.0
14.123,0.693,-0.826,0.0
13.177,0.643,-0.843,0.0
12.286,0.596,-0.853,0.0
11.495,0.555,-0.861,0.0
16.792,0.805,-0.785,0.0
15.448,0.737,-0.805,0.0
14.314,0.679,-0.824,0.0
13.381,0.631,-0.844,0.0
12.416,0.583,-0.851,0.0
11.611,0.542,-0.859,0.0
17.041,0.79,-0.781,0.0
15.727,0.725,-0.805,0.0
14.445,0.662,-0.818,0.0
13.56,0.619,-0.842,0.0
12.588,0.571,-0.85,0.0
11.731,0.529,-0.856,0.0
17.297,0.774,-0.775,0.0
15.829,0.705,-0.795,0.0
14.652,0.649,-0.815,0.0
13.692,0.603,-0.837,0.0
12.762,0.559,-0.849,0.0
11.838,0.516,-0.852,0.0
17.65,0.763,-0.773,0.0
16.224,0.697,-0.798,0.0
14.945,0.638,-0.816,0.0
13.86,0.589,-0.833,0.0
12.962,0.547,-0.849,0.0
12.006,0.504,-0.851,0.0
17.92,0.746,-0.766,0.0
16.487,0.683,-0.794,0.0
15.197,0.626,-0.813,0.0
14.099,0.577,-0.832,0.0
13.117,0.533,-0.845,0.0
12.202,0.493,-0.851,0.0
18.279,0.733,-0.761,0.0
16.719,0.666,-0.786,0.0
15.519,0.614,-0.813,0.0
14.301,0.563,-0.828,0.0
13.403,0.524,-0.848,0.0
12.392,0.481,-0.85,0.0
18.487,0.712,-0.749,0.0
16.991,0.651,-0.779,0.0
15.715,0.598,-0.805,0.0
14.506,0.548,-0.822,0.0
13.562,0.509,-0.842,0.0
12.583,0.469,-0.849,0.0
18.854,0.698,-0.742,0.0
17.379,0.639,-0.777,0.0
15.96,0.583,-0.799,0.0
14.762,0.535,-0.819,0.0
13.735,0.495,-0.836,0.0
12.977,0.464,-0.859,0.0
19.552,0.694,-0.746,0.0
17.751,0.626,-0.772,0.0
16.354,0.572,-0.798,0.0
15.037,0.522,-0.816,0.0
13.932,0.481,-0.831,0.0
13.116,0.449,-0.852,0.0
19.936,0.678,-0.735,0.0
18.158,0.613,-0.767,0.0
16.597,0.556,-0.789,0.0
15.195,0.505,-0.805,0.0
14.251,0.47,-0.831,0.0
13.35,0.437,-0.85,0.0
20.487,0.666,-0.73,0.0
18.607,0.6,-0.762,0.0
16.929,0.542,-0.783,0.0
15.634,0.497,-0.808,0.0
14.474,0.456,-0.825,0.0
13.578,0.425,-0.847,0.0
21.197,0.658,-0.726,0.0
19.057,0.587,-0.754,0.0
17.199,0.525,-0.772,0.0
15.875,0.481,-0.799,0.0
14.8,0.445,-0.824,0.0
13.74,0.41,-0.838,0.0
21.648,0.64,-0.712,0.0
19.599,0.575,-0.749,0.0
17.638,0.513,-0.768,0.0
16.287,0.47,-0.797,0.0
15.123,0.433,-0.821,0.0
13.968,0.396,-0.832,0.0
22.453,0.632,-0.708,0.0
20.142,0.562,-0.742,0.0
18.433,0.51,-0.776,0.0
16.608,0.455,-0.789,0.0
15.299,0.416,-0.808,0.0
14.312,0.386,-0.832,0.0
23.382,0.625,-0.704,0.0
20.677,0.548,-0.732,0.0
18.7,0.491,-0.761,0.0
17.103,0.445,-0.788,0.0
15.688,0.404,-0.806,0.0
14.579,0.372,-0.826,0.0
23.908,0.605,-0.685,0.0
21.316,0.535,-0.723,0.0
19.092,0.474,-0.748,0.0
17.519,0.431,-0.781,0.0
16.123,0.393,-0.804,0.0
14.857,0.359,-0.82,0.0
24.954,0.597,-0.677,0.0
22.195,0.526,-0.719,0.0
19.765,0.464,-0.745,0.0
17.854,0.415,-0.769,0.0
16.574,0.382,-0.802,0.0
15.209,0.347,-0.816,0.0
26.093,0.59,-0.668,0.0
22.781,0.509,-0.703,0.0
20.284,0.449,-0.733,0.0
18.423,0.404,-0.765,0.0
16.855,0.365,-0.789,0.0
15.611,0.335,-0.813,0.0
26.824,0.57,-0.645,0.0
23.573,0.496,-0.691,0.0
20.879,0.435,-0.722,0.0
19.056,0.392,-0.761,0.0
17.401,0.354,-0.787,0.0
15.899,0.32,-0.803,0.0
27.859,0.556,-0.626,0.0
24.545,0.484,-0.68,0.0
21.843,0.426,-0.72,0.0
19.618,0.378,-0.752,0.0
17.666,0.337,-0.77,0.0
16.434,0.31,-0.803,0.0
29.22,0.546,-0.609,0.0
25.762,0.475,-0.672,0.0
22.372,0.408,-0.701,0.0
20.04,0.361,-0.735,0.0
18.383,0.327,-0.771,0.0
16.851,0.297,-0.796,0.0
30.398,0.529,-0.584,0.0
26.669,0.459,-0.652,0.0
23.879,0.406,-0.709,0.0
20.837,0.35,-0.73,0.0
18.922,0.313,-0.762,0.0
17.531,0.287,-0.798,1.0
0.0,0.0,0.0,0.0
28.107,0.449,-0.64,0.0
0.0,0.0,0.0,0.0
21.623,0.336,-0.721,0.0
19.342,0.297,-0.746,0.0
17.685,0.268,-0.775,1.0
33.755,0.505,-0.534,0.0
29.3,0.433,-0.617,0.0
25.543,0.372,-0.671,0.0
22.438,0.322,-0.709,0.0
20.187,0.286,-0.744,0.0
18.273,0.255,-0.769,1.0
36.461,0.503,-0.514,0.0
30.618,0.416,-0.592,0.0
26.545,0.356,-0.651,0.0
23.382,0.308,-0.698,0.0
20.898,0.272,-0.733,0.0
18.863,0.242,-0.761,0.0
39.868,0.504,-0.492,0.0
32.225,0.401,-0.566,0.0
28.071,0.344,-0.64,0.0
0.0,0.0,0.0,0.0
21.811,0.259,-0.727,0.0
19.498,0.228,-0.752,0.0
41.027,0.473,-0.434,0.0
34.862,0.395,-0.55,0.0
0.0,0.0,0.0,0.0
25.585,0.281,-0.673,0.0
22.616,0.244,-0.713,0.0
20.214,0.214,-0.743,0.0
0.0,0.0,0.0,0.0
37.333,0.383,-0.522,0.0
30.876,0.311,-0.593,0.0
26.665,0.264,-0.654,0.0
23.479,0.228,-0.698,0.0
21.046,0.201,-0.736,0.0
0.0,0.0,0.0,0.0
40.027,0.369,-0.487,0.0
0.0,0.0,0.0,0.0
28.03,0.248,-0.636,0.0
24.878,0.216,-0.694,0.0
21.828,0.186,-0.722,0.0
54.905,0.459,-0.282,0.0
42.865,0.351,-0.443,0.0
35.224,0.282,-0.547,0.0
29.461,0.231,-0.613,0.0
25.902,0.198,-0.674,0.0
22.572,0.169,-0.704,0.0
0.0,0.0,0.0,0.0
45.923,0.33,-0.388,0.0
37.796,0.265,-0.515,0.0
30.919,0.211,-0.585,0.0
0.0,0.0,0.0,0.0
23.708,0.154,-0.695,0.0
0.0,0.0,0.0,0.0
0.0,0.0,0.0,0.0
42.782,0.259,-0.502,0.0
33.601,0.198,-0.571,0.0
0.0,0.0,0.0,0.0
24.785,0.138,-0.678,0.0
88.094,0.479,0.049,1.0
0.0,0.0,0.0,0.0
42.928,0.22,-0.421,1.0
35.515,0.176,-0.536,0.0
29.914,0.144,-0.606,0.0
26.226,0.122,-0.667,0.0
87.516,0.397,0.218,1.0
0.0,0.0,0.0,0.0
49.897,0.21,-0.391,0.0
0.0,0.0,0.0,0.0
31.958,0.125,-0.585,0.0
27.441,0.104,-0.645,0.0
94.648,0.346,0.42,4.0
0.0,0.0,0.0,0.0
52.898,0.178,-0.312,1.0
42.825,0.138,-0.478,0.0
34.233,0.105,-0.56,0.0
29.179,0.085,-0.628,0.0
104.379,0.294,0.668,8.0
0.0,0.0,0.0,0.0
0.0,0.0,0.0,0.0
0.0,0.0,0.0,0.0
0.0,0.0,0.0,0.0
30.373,0.064,-0.593,0.0
111.091,0.223,0.932,9.0
93.866,0.176,0.302,1.0
0.0,0.0,0.0,0.0
49.94,0.08,-0.359,0.0
40.215,0.059,-0.497,0.0
33.462,0.045,-0.587,0.0
111.203,0.136,1.157,20.0
103.761,0.114,0.543,7.0
0.0,0.0,0.0,0.0
0.0,0.0,0.0,0.0
45.261,0.033,-0.468,1.0
35.446,0.021,-0.55,0.0
111.056,0.055,1.378,15.0
110.991,0.041,0.805,12.0
95.531,0.024,0.198,1.0
0.0,0.0,0.0,0.0
45.561,0.0,-0.379,0.0
37.511,-0.003,-0.506,0.0
111.065,-0.023,1.603,10.0
117.343,-0.037,1.089,12.0
98.324,-0.042,0.403,1.0
0.0,0.0,0.0,0.0
0.0,0.0,0.0,0.0
41.489,-0.031,-0.474,0.0
114.706,-0.1,1.89,11.0
117.466,-0.116,1.33,8.0
110.919,-0.121,0.685,13.0
0.0,0.0,0.0,0.0
0.0,0.0,0.0,0.0
45.464,-0.063,-0.426,1.0
115.885,-0.176,2.15,6.0
114.738,-0.185,1.536,3.0
114.439,-0.196,0.942,38.0
0.0,0.0,0.0,0.0
0.0,0.0,0.0,0.0
0.0,0.0,0.0,0.0
193.903,-0.409,3.993,15.0
115.703,-0.254,1.786,2.0
119.766,-0.275,1.232,14.0
0.0,0.0,0.0,0.0
0.0,0.0,0.0,0.0
0.0,0.0,0.0,0.0
119.82,-0.32,2.716,49.0
119.842,-0.331,2.1,117.0
115.335,-0.327,1.425,2.0
114.327,-0.334,0.812,7.0
0.0,0.0,0.0,0.0
0.0,0.0,0.0,0.0
119.82,-0.383,2.965,9.0
119.813,-0.392,2.348,16.0
119.787,-0.402,1.732,4.0
119.724,-0.41,1.1,14.0
103.733,-0.363,0.419,2.0
0.0,0.0,0.0,0.0
119.808,-0.441,3.214,23.0
119.811,-0.45,2.598,16.0
119.864,-0.458,1.981,21.0
119.761,-0.466,1.35,10.0
111.263,-0.441,0.681,5.0
0.0,0.0,0.0,0.0
0.0,0.0,0.0,0.0
119.797,-0.503,2.846,22.0
119.846,-0.511,2.231,32.0
119.742,-0.518,1.601,17.0
119.735,-0.525,0.985,15.0
105.906,-0.471,0.327,1.0
206.643,-0.94,6.414,11.0
119.798,-0.552,3.102,23.0
119.778,-0.559,2.485,21.0
119.81,-0.565,1.856,18.0
119.697,-0.571,1.239,16.0
110.979,-0.536,0.579,5.0
206.838,-1.02,6.86,6.0
119.742,-0.596,3.353,7.0
119.834,-0.602,2.739,86.0
119.827,-0.608,2.11,47.0
119.682,-0.613,1.492,14.0
119.693,-0.619,0.877,9.0
190.582,-1.004,6.725,19.0
206.443,-1.097,6.22,9.0
119.815,-0.641,2.992,13.0
119.81,-0.646,2.362,21.0
119.81,-0.651,1.746,29.0
119.707,-0.655,1.13,15.0
190.593,-1.062,7.126,38.0
215.6,-1.208,6.949,8.0
119.783,-0.675,3.243,9.0
194.26,-1.102,4.241,21.0
193.847,-1.105,3.234,22.0
119.656,-0.686,1.38,19.0
190.212,-1.109,7.513,17.0
190.631,-1.117,6.546,7.0
0.0,0.0,0.0,0.0
119.822,-0.708,2.868,17.0
119.812,-0.711,2.252,16.0
119.758,-0.714,1.636,19.0
95.386,-0.577,3.97,8.0
190.571,-1.158,6.948,31.0
215.418,-1.313,6.745,7.0
119.775,-0.732,3.122,28.0
119.821,-0.734,2.505,32.0
119.793,-0.736,1.889,19.0
95.455,-0.596,4.175,17.0
190.683,-1.193,7.356,23.0
215.368,-1.349,7.197,7.0
119.757,-0.752,3.372,12.0
119.806,-0.753,2.758,33.0
119.811,-0.754,2.142,21.0
95.785,-0.612,4.391,13.0
103.01,-0.659,4.19,7.0
190.551,-1.22,6.768,23.0
206.045,-1.319,6.235,9.0
119.784,-0.767,3.008,48.0
119.812,-0.767,2.392,90.0
81.021,-0.526,3.884,9.0
95.351,-0.619,4.079,15.0
190.545,-1.237,7.169,35.0
215.44,-1.398,6.973,8.0
119.802,-0.777,3.261,6.0
119.788,-0.776,2.643,45.0
81.216,-0.533,4.064,10.0
80.696,-0.529,3.622,9.0
103.023,-0.674,4.09,4.0
190.516,-1.245,6.564,16.0
205.916,-1.344,6.034,5.0
119.799,-0.78,2.893,39.0
81.814,-0.54,4.265,10.0
95.807,-0.631,4.499,10.0
95.384,-0.626,3.986,13.0
190.467,-1.247,6.956,35.0
215.262,-1.405,6.753,8.0
119.799,-0.78,3.14,20.0
60.797,-0.401,3.295,23.0
81.162,-0.533,3.979,10.0
95.461,-0.625,4.187,15.0
190.64,-1.244,7.36,19.0
0.0,0.0,0.0,0.0
208.034,-1.345,5.883,5.0
60.759,-0.398,3.42,10.0
77.828,-0.507,3.978,8.0
95.789,-0.622,4.402,11.0
102.981,-0.665,4.188,7.0
190.584,-1.224,6.766,28.0
205.972,-1.316,6.251,9.0
60.829,-0.393,3.549,7.0
60.774,-0.391,3.231,10.0
81.013,-0.518,3.887,9.0
95.348,-0.606,4.072,15.0
190.558,-1.203,7.153,29.0
0.0,0.0,0.0,0.0
60.454,-0.384,3.65,30.0
60.794,-0.383,3.355,21.0
81.221,-0.508,4.061,8.0
95.83,-0.595,4.286,14.0
189.857,-1.171,7.512,11.0
190.651,-1.167,6.557,14.0
60.028,-0.372,3.747,21.0
60.753,-0.373,3.476,8.0
77.789,-0.474,4.048,5.0
95.641,-0.577,4.471,9.0
95.429,-0.571,3.967,12.0
190.545,-1.131,6.937,33.0
60.133,-0.361,3.874,17.0
60.814,-0.362,3.602,22.0
60.815,-0.358,3.286,22.0
81.112,-0.473,3.954,4.0
95.655,-0.552,4.168,20.0
190.543,-1.088,7.315,21.0
60.681,-0.35,4.031,7.0
60.577,-0.346,3.709,29.0
60.724,-0.343,3.403,9.0
77.867,-0.434,3.953,10.0
80.917,-0.446,3.689,10.0
189.794,-1.033,7.666,75.0
47.963,-0.264,3.283,20.0
60.098,-0.327,3.801,9.0
60.647,-0.325,3.521,6.0
77.639,-0.411,4.095,16.0
80.876,-0.422,3.847,10.0
95.41,-0.49,4.044,32.0
47.889,-0.249,3.374,15.0
60.36,-0.309,3.937,21.0
60.905,-0.308,3.656,21.0
60.765,-0.302,3.325,8.0
81.236,-0.397,4.024,7.0
103.158,-0.496,4.573,7.0
45.721,-0.222,3.311,6.0
60.58,-0.29,4.07,8.0
60.288,-0.283,3.736,25.0
60.497,-0.279,3.428,2.0
77.64,-0.351,3.996,26.0
96.135,-0.426,4.447,13.0
42.553,-0.191,3.163,25.0
51.0,-0.225,3.524,7.0
60.303,-0.26,3.853,21.0
60.664,-0.256,3.554,11.0
78.007,-0.322,4.165,8.0
103.393,-0.417,4.983,6.0
42.194,-0.172,3.218,44.0
48.132,-0.192,3.419,22.0
60.519,-0.236,3.983,21.0
60.462,-0.229,3.658,8.0
60.725,-0.224,3.358,6.0
81.545,-0.293,4.084,10.0
42.151,-0.154,3.296,35.0
48.292,-0.171,3.523,10.0
60.596,-0.208,4.103,22.0
60.23,-0.201,3.758,19.0
60.674,-0.195,3.468,20.0
77.824,-0.242,4.044,10.0
41.593,-0.132,3.331,50.0
42.768,-0.131,3.2,17.0
60.883,-0.179,4.237,19.0
60.262,-0.171,3.872,22.0
60.561,-0.165,3.575,23.0
60.476,-0.158,3.254,9.0
41.536,-0.11,3.403,50.0
41.979,-0.106,3.22,36.0
50.922,-0.123,3.639,6.0
60.778,-0.14,4.019,35.0
60.497,-0.132,3.683,19.0
60.749,-0.126,3.38,17.0
41.535,-0.088,3.48,44.0
41.954,-0.083,3.294,34.0
48.567,-0.091,3.559,12.0
60.694,-0.106,4.123,21.0
60.471,-0.098,3.791,9.0
60.693,-0.09,3.487,11.0
41.388,-0.063,3.543,44.0
42.102,-0.059,3.383,19.0
45.762,-0.058,3.436,10.0
60.932,-0.07,4.249,17.0
60.55,-0.061,3.905,19.0
60.496,-0.053,3.585,8.0
41.379,-0.038,3.618,46.0
41.48,-0.032,3.408,46.0
41.958,-0.027,3.226,36.0
61.046,-0.032,4.366,8.0
60.448,-0.023,4.005,17.0
60.382,-0.015,3.683,3.0
41.479,-0.011,3.7,37.0
41.441,-0.006,3.477,45.0
41.787,0.0,3.286,16.0
45.712,0.006,3.349,2.0
67.485,0.018,4.589,9.0
60.248,0.025,3.781,24.0
42.318,0.016,3.848,18.0
41.537,0.022,3.557,47.0
41.564,0.028,3.34,43.0
47.841,0.039,3.588,5.0
67.657,0.065,4.718,7.0
60.331,0.067,3.888,9.0
42.567,0.046,3.944,18.0
41.465,0.051,3.622,45.0
41.499,0.058,3.405,38.0
47.734,0.074,3.66,6.0
60.864,0.103,4.346,11.0
60.584,0.111,4.007,4.0
42.301,0.077,3.991,33.0
41.467,0.082,3.692,31.0
41.46,0.088,3.471,43.0
45.658,0.104,3.576,6.0
51.265,0.125,3.744,5.0
67.502,0.175,4.575,9.0
41.507,0.107,3.984,40.0
41.428,0.114,3.756,39.0
41.551,0.121,3.547,44.0
41.748,0.127,3.338,41.0
45.698,0.147,3.412,6.0
47.809,0.161,3.317,5.0
41.392,0.14,4.04,46.0
41.573,0.147,3.836,38.0
41.55,0.154,3.613,39.0
41.583,0.161,3.391,41.0
41.901,0.169,3.195,30.0
47.827,0.201,3.393,18.0
41.324,0.173,4.099,44.0
41.859,0.182,3.929,22.0
41.511,0.188,3.675,40.0
41.609,0.195,3.458,48.0
41.815,0.203,3.252,16.0
45.645,0.229,3.308,4.0
41.287,0.208,4.159,39.0
41.524,0.216,3.961,45.0
41.448,0.223,3.733,44.0
41.446,0.23,3.508,49.0
41.778,0.238,3.313,35.0
60.869,0.358,4.503,7.0
41.239,0.243,4.217,39.0
41.594,0.253,4.03,28.0
41.403,0.258,3.79,31.0
41.444,0.266,3.569,46.0
41.8,0.275,3.376,24.0
41.813,0.283,3.155,3.0
41.37,0.281,4.292,39.0
41.62,0.29,4.094,16.0
41.607,0.297,3.87,47.0
41.355,0.302,3.621,38.0
41.612,0.312,3.422,46.0
41.82,0.321,3.216,30.0
41.557,0.32,4.371,44.0
41.543,0.328,4.147,20.0
46.879,0.379,4.428,11.0
41.454,0.342,3.689,39.0
41.503,0.35,3.472,42.0
41.799,0.36,3.274,5.0
41.203,0.357,4.393,42.0
41.286,0.365,4.179,44.0
47.074,0.425,4.513,16.0
41.634,0.383,3.763,29.0
41.585,0.39,3.536,41.0
41.429,0.397,3.301,35.0
41.25,0.397,4.455,35.0
41.248,0.405,4.232,48.0
41.547,0.415,4.039,35.0
41.501,0.422,3.807,39.0
41.483,0.43,3.582,42.0
41.653,0.439,3.374,42.0
41.105,0.436,4.494,44.0
41.359,0.446,4.298,42.0
41.588,0.457,4.098,40.0
41.57,0.464,3.868,18.0
41.478,0.471,3.637,26.0
41.644,0.481,3.428,43.0
40.99,0.477,4.535,41.0
41.67,0.492,4.385,19.0
41.802,0.502,4.173,39.0
41.301,0.504,3.897,31.0
41.446,0.514,3.687,23.0
41.238,0.519,3.446,26.0
41.298,0.523,4.622,34.0
41.341,0.531,4.403,18.0
41.481,0.542,4.193,39.0
41.089,0.544,3.928,42.0
41.075,0.552,3.705,40.0
40.864,0.557,3.466,49.0
41.3,0.567,4.674,37.0
40.729,0.566,4.388,42.0
41.313,0.583,4.226,33.0
41.195,0.589,3.987,39.0
40.899,0.592,3.737,48.0
40.949,0.601,3.521,39.0
40.681,0.601,4.652,45.0
40.58,0.608,4.419,47.0
41.159,0.625,4.259,38.0
41.081,0.631,4.024,44.0
40.988,0.638,3.792,35.0
40.746,0.642,3.55,44.0
40.555,0.643,4.684,40.0
40.68,0.653,4.476,36.0
40.906,0.665,4.279,36.0
40.977,0.674,4.059,40.0
41.261,0.687,3.864,35.0
40.771,0.687,3.597,40.0
40.556,0.688,4.729,33.0
40.548,0.696,4.507,41.0
40.86,0.71,4.319,40.0
41.062,0.721,4.112,36.0
41.278,0.734,3.91,36.0
40.799,0.733,3.643,41.0
40.86,0.739,4.808,29.0
40.445,0.74,4.538,45.0
40.707,0.753,4.345,41.0
41.014,0.767,4.15,41.0
41.156,0.778,3.941,38.0
40.89,0.781,3.693,38.0
40.677,0.783,4.829,35.0
40.489,0.787,4.585,41.0
40.588,0.797,4.374,48.0
40.917,0.812,4.182,37.0
41.028,0.823,3.97,42.0
40.689,0.824,3.716,40.0
40.412,0.825,4.838,46.0
40.603,0.837,4.638,33.0
40.596,0.844,4.414,46.0
40.778,0.856,4.207,43.0
41.272,0.875,4.032,26.0
40.966,0.877,3.779,29.0
40.44,0.872,4.879,39.0
40.834,0.889,4.702,44.0
40.53,0.89,4.445,46.0
40.746,0.903,4.241,34.0
40.92,0.916,4.035,27.0
40.744,0.92,3.795,34.0
40.309,0.917,4.9,41.0
40.444,0.928,4.693,29.0
40.507,0.938,4.478,45.0
40.787,0.952,4.28,38.0
40.995,0.965,4.078,22.0
40.775,0.968,3.833,38.0
40.492,0.969,4.957,36.0
40.324,0.973,4.713,37.0
40.593,0.987,4.521,40.0
40.719,0.999,4.307,44.0
40.951,1.013,4.107,28.0
40.696,1.014,3.858,30.0
40.436,1.016,4.983,41.0
40.253,1.019,4.738,42.0
40.547,1.035,4.548,30.0
40.848,1.051,4.353,35.0
40.859,1.059,4.129,46.0
40.532,1.059,3.874,36.0
40.364,1.063,5.005,43.0
40.547,1.076,4.803,28.0
40.653,1.087,4.591,30.0
40.732,1.097,4.371,38.0
41.025,1.113,4.176,35.0
40.557,1.109,3.906,35.0
40.397,1.113,5.039,43.0
40.444,1.122,4.82,40.0
40.52,1.133,4.605,32.0
40.838,1.149,4.411,38.0
41.045,1.164,4.207,46.0
40.802,1.165,3.957,46.0
40.453,1.165,5.073,40.0
40.637,1.178,4.87,32.0
40.641,1.186,4.646,39.0
40.675,1.195,4.42,35.0
40.916,1.211,4.22,37.0
40.834,1.216,3.987,46.0
40.857,1.226,5.15,32.0
41.213,1.245,4.966,16.0
40.697,1.237,4.677,36.0
40.678,1.245,4.445,38.0
40.852,1.258,4.238,40.0
40.988,1.271,4.026,42.0
40.991,1.281,5.191,34.0
41.196,1.295,4.988,16.0
40.615,1.285,4.691,41.0
40.869,1.301,4.489,19.0
41.128,1.317,4.29,39.0
41.088,1.324,4.058,40.0
41.136,1.337,5.232,25.0
40.98,1.34,4.983,39.0
40.923,1.345,4.748,35.0
41.106,1.36,4.537,28.0
40.818,1.358,4.278,36.0
40.721,1.362,4.042,41.0
41.071,1.385,5.244,30.0
40.953,1.389,5.0,38.0
41.186,1.405,4.799,33.0
41.128,1.411,4.558,37.0
40.545,1.399,4.268,45.0
40.586,1.408,4.048,34.0
41.16,1.44,5.275,31.0
40.946,1.44,5.018,32.0
41.122,1.454,4.809,8.0
40.749,1.449,4.534,37.0
40.535,1.449,4.285,45.0
40.671,1.462,4.073,35.0
40.555,1.469,5.214,43.0
40.922,1.49,5.031,27.0
41.113,1.505,4.824,4.0
40.756,1.499,4.55,27.0
40.534,1.499,4.3,38.0
40.562,1.507,4.077,29.0
41.062,1.538,5.294,46.0
40.895,1.54,5.042,16.0
50.803,1.922,5.979,2.0
0.0,0.0,0.0,0.0
40.588,1.551,4.319,33.0
40.488,1.555,4.082,38.0
40.848,1.582,5.279,38.0
40.938,1.592,5.06,15.0
50.844,1.986,5.999,1.0
0.0,0.0,0.0,0.0
40.581,1.6,4.329,35.0
40.56,1.607,4.101,36.0
40.882,1.633,5.294,33.0
43.852,1.76,5.432,4.0
45.13,1.819,5.336,19.0
40.683,1.647,4.578,16.0
40.569,1.65,4.338,30.0
40.693,1.663,4.123,30.0
45.754,1.885,5.936,20.0
43.902,1.816,5.447,6.0
44.592,1.853,5.282,15.0
40.68,1.697,4.586,19.0
40.682,1.705,4.358,33.0
40.927,1.722,4.155,16.0
45.855,1.945,5.957,20.0
41.587,1.772,5.168,15.0
41.669,1.782,4.943,38.0
40.773,1.752,4.603,16.0
45.133,1.947,4.841,3.0
41.181,1.784,4.186,29.0
44.777,1.955,5.823,5.0
41.601,1.823,5.174,15.0
41.652,1.833,4.945,37.0
47.712,2.108,5.391,4.0
43.164,1.914,4.634,3.0
41.378,1.842,4.21,24.0
44.901,2.015,5.843,9.0
41.522,1.87,5.168,40.0
41.674,1.884,4.951,42.0
41.825,1.898,4.728,8.0
40.788,1.858,4.381,29.0
40.974,1.874,4.171,37.0
48.284,2.225,6.285,3.0
41.726,1.929,5.195,34.0
41.7,1.935,4.955,38.0
41.984,1.955,4.747,17.0
40.771,1.906,4.38,44.0
40.839,1.916,4.157,39.0
48.123,2.276,6.264,5.0
41.894,1.988,5.215,17.0
41.681,1.985,4.952,41.0
45.534,2.175,5.147,5.0
40.769,1.955,4.378,37.0
41.124,1.979,4.185,38.0
48.055,2.33,6.252,9.0
41.726,2.029,5.191,19.0
41.744,2.037,4.956,34.0
45.528,2.229,5.143,14.0
40.738,2.001,4.372,38.0
41.354,2.038,4.204,23.0
53.957,2.68,7.015,6.0
41.611,2.073,5.173,38.0
41.66,2.082,4.942,42.0
45.849,2.299,5.174,14.0
40.758,2.049,4.369,40.0
41.032,2.07,4.166,16.0
47.889,2.435,6.219,4.0
41.689,2.125,5.176,35.0
41.688,2.132,4.939,42.0
46.084,2.364,5.193,7.0
40.74,2.096,4.36,39.0
45.456,2.346,4.607,4.0
44.828,2.33,5.813,2.0
41.532,2.165,5.148,31.0
41.689,2.179,4.93,41.0
41.734,2.188,4.694,25.0
40.684,2.139,4.345,41.0
45.18,2.382,4.569,10.0
44.792,2.38,5.798,3.0
41.649,2.218,5.153,16.0
41.687,2.227,4.92,42.0
41.187,2.206,4.622,22.0
40.756,2.189,4.342,36.0
41.008,2.208,4.136,27.0
44.811,2.431,5.788,3.0
42.004,2.285,5.185,27.0
41.66,2.271,4.905,42.0
41.248,2.255,4.617,17.0
40.714,2.232,4.325,38.0
45.748,2.514,4.601,10.0
42.552,2.355,5.483,2.0
42.02,2.332,5.173,14.0
41.703,2.32,4.896,35.0
62.462,3.484,6.97,23.0
40.794,2.281,4.32,32.0
45.972,2.577,4.607,12.0
42.35,2.391,5.441,4.0
41.652,2.357,5.112,28.0
41.724,2.366,4.882,32.0
57.86,3.289,6.434,3.0
40.878,2.329,4.313,35.0
45.908,2.622,4.582,18.0
44.706,2.572,5.725,5.0
41.566,2.396,5.085,19.0
41.719,2.41,4.864,35.0
41.723,2.416,4.622,6.0
40.829,2.369,4.29,25.0
44.858,2.609,4.458,26.0
44.726,2.62,5.708,9.0
41.433,2.432,5.049,42.0
41.804,2.459,4.855,42.0
63.134,3.721,6.964,24.0
40.802,2.41,4.268,9.0
44.803,2.652,4.431,14.0
44.774,2.669,5.691,11.0
41.459,2.476,5.032,41.0
41.602,2.49,4.81,41.0
62.936,3.773,6.911,16.0
40.768,2.449,4.244,10.0
44.917,2.703,4.419,39.0
44.815,2.716,5.673,11.0
41.519,2.521,5.017,39.0
41.624,2.532,4.79,40.0
46.652,2.843,5.097,5.0
52.37,3.198,5.422,4.0
45.241,2.767,4.426,19.0
44.865,2.763,5.654,5.0
41.726,2.574,5.018,33.0
41.634,2.573,4.767,40.0
52.26,3.235,5.679,13.0
52.291,3.243,5.383,43.0
52.321,3.251,5.087,10.0
44.89,2.808,5.629,4.0
41.712,2.613,4.99,40.0
52.168,3.274,5.941,7.0
52.253,3.284,5.645,15.0
52.299,3.293,5.35,20.0
52.276,3.297,5.049,11.0
41.581,2.64,5.186,40.0
41.558,2.643,4.944,34.0
41.871,2.667,4.74,17.0
52.248,3.333,5.609,11.0
52.279,3.34,5.313,24.0
52.312,3.347,5.017,5.0
41.81,2.693,5.186,36.0
41.525,2.678,4.911,37.0
41.861,2.704,4.709,38.0
52.303,3.383,5.578,8.0
42.252,2.737,4.264,6.0
45.529,2.954,4.334,7.0
41.852,2.732,5.161,40.0
41.565,2.717,4.885,34.0
46.721,3.058,5.222,5.0
46.729,3.063,4.949,14.0
42.243,2.773,4.231,42.0
45.353,2.981,4.283,19.0
41.598,2.751,5.097,29.0
41.624,2.756,4.86,32.0
62.337,4.134,6.918,12.0
46.545,3.09,4.893,7.0
42.199,2.805,4.194,21.0
42.052,2.799,3.938,12.0
41.487,2.779,5.05,32.0
41.569,2.787,4.819,43.0
62.433,4.191,6.878,10.0
46.515,3.126,4.852,11.0
42.031,2.828,4.142,15.0
42.037,2.832,3.902,33.0
41.466,2.811,5.012,42.0
41.58,2.821,4.785,43.0
42.157,2.863,4.608,13.0
46.465,3.159,4.806,10.0
42.153,2.869,4.118,16.0
42.198,2.876,3.88,26.0
41.519,2.846,4.982,38.0
41.611,2.855,4.752,40.0
42.136,2.893,4.569,28.0
46.454,3.193,4.764,5.0
42.018,2.891,4.067,22.0
41.878,2.885,3.813,36.0
41.555,2.879,4.948,40.0
41.686,2.891,4.722,40.0
53.055,3.683,5.703,8.0
41.965,2.915,4.264,17.0
41.624,2.894,3.99,38.0
41.705,2.903,3.758,30.0
41.676,2.917,4.922,27.0
41.911,2.936,4.707,35.0
53.015,3.717,5.648,19.0
41.898,2.94,4.217,38.0
41.519,2.916,3.94,16.0
41.446,2.913,3.695,31.0
41.605,2.94,4.873,41.0
41.933,2.966,4.668,38.0
53.034,3.753,5.597,10.0
46.325,3.281,4.617,4.0
45.058,3.194,4.231,3.0
41.403,2.937,3.649,26.0
41.612,2.968,4.831,43.0
41.82,2.985,4.612,16.0
53.04,3.788,5.543,8.0
41.624,2.974,4.105,24.0
41.357,2.957,3.84,31.0
41.431,2.965,3.608,32.0
41.617,2.994,4.788,38.0
46.073,3.316,5.033,7.0
46.808,3.371,4.842,1.0
41.484,2.989,4.047,16.0
41.267,2.975,3.788,34.0
41.362,2.984,3.558,37.0
41.631,3.019,4.744,42.0
46.046,3.34,4.98,15.0
46.053,3.343,4.714,4.0
41.6,3.021,4.013,16.0
41.319,3.002,3.747,27.0
41.459,3.014,3.522,32.0
41.588,3.038,4.693,45.0
46.025,3.363,4.926,19.0
41.26,3.017,4.177,22.0
41.311,3.022,3.939,35.0
41.291,3.021,3.699,41.0
41.533,3.041,3.481,32.0
45.686,3.361,5.103,5.0
46.011,3.386,4.872,17.0
41.151,3.029,4.118,22.0
41.306,3.041,3.89,40.0
41.434,3.052,3.663,38.0
41.412,3.052,3.423,41.0
45.757,3.388,5.057,20.0
46.022,3.408,4.818,17.0
41.208,3.053,4.075,39.0
41.316,3.061,3.843,35.0
41.419,3.07,3.613,38.0
41.406,3.07,3.373,44.0
45.843,3.415,5.01,20.0
46.042,3.43,4.765,7.0
41.424,3.086,4.046,29.0
41.241,3.073,3.785,29.0
41.307,3.079,3.553,38.0
41.518,3.095,3.332,36.0
46.053,3.448,4.977,5.0
41.224,3.087,4.215,35.0
41.169,3.083,3.97,31.0
41.285,3.092,3.738,31.0
41.364,3.098,3.506,38.0
41.51,3.11,3.279,44.0
58.454,4.398,6.243,1.0
41.21,3.1,4.162,34.0
41.296,3.107,3.931,31.0
41.261,3.104,3.684,32.0
41.541,3.126,3.469,37.0
41.529,3.125,3.229,40.0
51.392,3.883,5.423,0.0
41.146,3.109,4.102,39.0
41.398,3.127,3.887,34.0
41.231,3.114,3.629,40.0
41.558,3.14,3.417,27.0
41.592,3.142,3.18,34.0
41.206,3.125,4.294,6.0
41.103,3.117,4.044,42.0
41.419,3.14,3.835,16.0
41.271,3.128,3.578,39.0
41.709,3.162,3.375,22.0
41.735,3.163,3.136,28.0
41.221,3.136,4.24,20.0
41.068,3.124,3.986,39.0
42.106,3.202,3.842,18.0
41.337,3.143,3.528,32.0
41.585,3.161,3.309,30.0
41.69,3.169,3.077,33.0
41.259,3.147,4.189,17.0
41.186,3.141,3.942,34.0
