X,Y,Z,Reflectivity
40.458,0.883,5.18,41.0
40.397,0.89,4.946,43.0
40.684,0.904,4.75,46.0
40.568,0.91,4.511,46.0
40.734,0.921,4.303,39.0
40.753,0.931,5.465,40.0
40.709,0.938,5.23,41.0
40.302,0.936,4.952,37.0
40.28,0.943,4.72,33.0
40.452,0.955,4.515,45.0
40.686,0.969,4.315,39.0
40.892,0.983,5.5,31.0
40.423,0.979,5.209,39.0
40.463,0.988,4.987,39.0
40.298,0.992,4.738,38.0
40.464,1.004,4.531,41.0
40.627,1.016,4.323,43.0
40.872,1.032,5.512,39.0
40.42,1.028,5.223,39.0
40.379,1.035,4.991,38.0
40.257,1.039,4.746,41.0
40.614,1.056,4.561,16.0
40.78,1.068,4.352,36.0
41.074,1.087,5.552,42.0
40.781,1.086,5.282,39.0
40.344,1.082,4.998,41.0
40.546,1.095,4.791,29.0
40.636,1.105,4.574,29.0
40.712,1.115,4.355,41.0
41.26,1.141,5.587,27.0
40.668,1.131,5.278,44.0
40.431,1.132,5.019,40.0
40.476,1.141,4.793,40.0
40.514,1.15,4.57,33.0
40.826,1.166,4.376,36.0
41.148,1.186,5.581,37.0
40.855,1.185,5.31,33.0
40.433,1.181,5.027,39.0
40.513,1.19,4.805,33.0
40.465,1.196,4.572,28.0
40.764,1.212,4.377,38.0
41.404,1.243,5.622,39.0
41.02,1.239,5.338,32.0
40.58,1.233,5.051,40.0
40.674,1.243,4.829,26.0
41.339,1.271,4.676,28.0
40.775,1.261,4.383,30.0
41.559,1.297,5.648,35.0
40.873,1.283,5.323,36.0
40.69,1.284,5.069,37.0
40.633,1.29,4.828,36.0
40.786,1.302,4.617,27.0
40.743,1.308,4.383,40.0
41.447,1.343,5.636,33.0
40.608,1.323,5.292,43.0
41.06,1.345,5.118,30.0
40.582,1.336,4.824,41.0
41.516,1.374,4.701,32.0
40.695,1.354,4.379,34.0
41.5,1.394,5.645,18.0
40.655,1.372,5.298,40.0
41.376,1.403,5.158,36.0
41.184,1.404,4.896,32.0
41.56,1.424,4.706,52.0
40.874,1.408,4.398,16.0
44.218,1.537,6.013,6.0
40.768,1.424,5.312,36.0
41.399,1.452,5.159,30.0
41.143,1.45,4.889,17.0
41.356,1.464,4.681,21.0
40.65,1.447,4.371,41.0
40.908,1.469,5.56,38.0
40.556,1.463,5.281,38.0
41.365,1.499,5.151,20.0
41.047,1.495,4.874,34.0
40.934,1.497,4.629,23.0
40.712,1.495,4.374,36.0
40.912,1.517,5.556,40.0
40.596,1.511,5.282,42.0
41.369,1.547,5.146,16.0
41.03,1.541,4.867,41.0
42.564,1.605,4.807,4.0
40.532,1.535,4.349,39.0
40.959,1.565,5.556,36.0
40.716,1.562,5.29,34.0
40.943,1.578,5.086,26.0
41.083,1.59,4.866,2.0
0.0,0.0,0.0,0.0
40.486,1.579,4.336,35.0
40.935,1.611,5.544,32.0
40.838,1.613,5.297,39.0
40.986,1.625,5.083,10.0
60.733,2.418,7.179,11.0
0.0,0.0,0.0,0.0
40.69,1.632,4.348,37.0
40.936,1.657,5.534,32.0
40.95,1.664,5.301,33.0
41.607,1.696,5.149,17.0
44.159,1.806,5.208,4.0
40.685,1.671,4.567,30.0
40.61,1.674,4.328,24.0
48.289,2.008,6.514,12.0
40.934,1.708,5.287,8.0
41.518,1.738,5.125,7.0
41.65,1.75,4.899,8.0
40.645,1.713,4.549,35.0
40.624,1.718,4.316,35.0
48.247,2.058,6.492,8.0
45.912,1.965,5.914,20.0
41.592,1.786,5.119,16.0
41.732,1.798,4.894,35.0
40.764,1.762,4.548,36.0
40.545,1.758,4.293,36.0
48.196,2.107,6.467,7.0
45.829,2.01,5.886,10.0
41.627,1.831,5.107,26.0
41.741,1.842,4.878,14.0
40.681,1.801,4.522,26.0
40.846,1.814,4.308,27.0
48.164,2.157,6.442,8.0
51.14,2.297,6.546,13.0
41.686,1.877,5.096,40.0
41.788,1.888,4.865,27.0
40.767,1.847,4.513,22.0
41.27,1.875,4.334,25.0
48.138,2.206,6.415,7.0
41.505,1.907,5.293,14.0
41.909,1.931,5.103,43.0
41.803,1.931,4.846,41.0
40.79,1.889,4.496,27.0
40.935,1.901,4.278,36.0
47.981,2.248,6.37,9.0
41.507,1.949,5.271,20.0
41.538,1.956,5.036,44.0
41.855,1.976,4.83,40.0
40.76,1.929,4.47,15.0
40.966,1.944,4.259,35.0
47.949,2.294,6.339,9.0
41.546,1.992,5.253,11.0
41.551,1.997,5.014,44.0
41.983,2.023,4.821,28.0
40.852,1.974,4.457,29.0
40.978,1.984,4.237,36.0
47.97,2.342,6.313,16.0
41.507,2.032,5.222,11.0
41.637,2.042,4.999,36.0
42.079,2.069,4.806,33.0
40.805,2.011,4.426,42.0
41.103,2.031,4.223,19.0
47.921,2.387,6.275,10.0
41.551,2.073,5.201,28.0
41.582,2.079,4.965,39.0
42.06,2.108,4.776,27.0
40.805,2.049,4.399,36.0
41.212,2.074,4.207,16.0
47.939,2.433,6.245,8.0
41.56,2.113,5.173,33.0
41.708,2.124,4.951,37.0
46.051,2.351,5.197,8.0
40.702,2.082,4.359,44.0
53.445,2.74,5.418,5.0
44.856,2.317,5.81,3.0
41.726,2.159,5.163,31.0
41.695,2.162,4.919,42.0
40.784,2.119,4.572,11.0
40.746,2.121,4.334,39.0
45.164,2.355,4.545,6.0
44.813,2.354,5.771,3.0
41.56,2.188,5.111,35.0
41.754,2.202,4.894,33.0
41.279,2.18,4.596,32.0
40.701,2.154,4.297,42.0
45.154,2.394,4.508,21.0
50.886,2.718,6.512,12.0
41.626,2.227,5.086,31.0
41.77,2.238,4.862,34.0
40.868,2.193,4.517,34.0
40.77,2.191,4.271,36.0
40.852,2.2,4.046,15.0
44.683,2.424,5.68,3.0
41.883,2.275,5.081,40.0
41.721,2.27,4.82,39.0
40.755,2.221,4.469,34.0
40.738,2.223,4.233,32.0
40.892,2.235,4.014,26.0
44.683,2.46,5.641,5.0
41.884,2.309,5.045,24.0
41.765,2.306,4.788,43.0
40.858,2.259,4.444,16.0
40.884,2.264,4.211,15.0
40.821,2.264,3.97,31.0
44.692,2.496,5.6,8.0
41.786,2.337,4.994,16.0
41.79,2.34,4.752,39.0
40.884,2.292,4.409,31.0
40.927,2.297,4.178,15.0
45.948,2.583,4.426,15.0
61.217,3.465,7.613,1.0
41.682,2.362,4.942,16.0
41.885,2.376,4.723,21.0
40.787,2.317,4.359,33.0
45.956,2.613,4.647,9.0
45.568,2.595,4.345,19.0
41.75,2.393,5.151,4.0
41.668,2.391,4.898,45.0
41.888,2.407,4.682,8.0
40.893,2.352,4.33,28.0
45.876,2.641,4.593,19.0
41.29,2.38,3.896,34.0
41.585,2.413,5.088,13.0
41.72,2.423,4.862,39.0
41.787,2.43,4.627,16.0
40.906,2.381,4.289,19.0
45.275,2.637,4.485,19.0
41.351,2.411,3.858,34.0
41.495,2.436,5.032,28.0
41.81,2.456,4.827,41.0
40.902,2.405,4.485,9.0
40.924,2.408,4.246,16.0
44.753,2.636,4.385,28.0
41.332,2.437,3.812,40.0
41.494,2.462,4.986,40.0
41.891,2.487,4.791,39.0
40.992,2.436,4.45,12.0
40.864,2.43,4.196,3.0
44.882,2.671,4.349,19.0
41.363,2.464,3.77,29.0
41.702,2.499,4.965,37.0
41.685,2.5,4.72,42.0
40.948,2.457,4.399,19.0
48.295,2.9,4.904,1.0
44.733,2.688,4.283,43.0
41.627,2.504,3.746,16.0
41.809,2.53,4.929,39.0
41.803,2.531,4.684,16.0
40.94,2.48,4.35,7.0
45.316,2.747,4.548,7.0
44.963,2.727,4.252,34.0
41.815,2.537,3.714,32.0
41.676,2.544,4.863,41.0
63.316,3.867,7.02,14.0
40.818,2.494,4.288,23.0
0.0,0.0,0.0,0.0
45.253,2.768,4.225,19.0
41.521,2.541,3.637,35.0
41.597,2.56,4.802,40.0
52.35,3.224,5.739,5.0
52.312,3.223,5.431,20.0
45.092,2.779,4.415,25.0
45.457,2.803,4.188,19.0
41.567,2.564,3.589,40.0
41.623,2.582,4.753,38.0
52.285,3.244,5.666,11.0
52.294,3.245,5.363,28.0
45.59,2.83,4.406,20.0
42.206,2.621,3.835,12.0
41.715,2.592,3.549,39.0
52.218,3.261,5.896,12.0
52.266,3.265,5.597,24.0
52.299,3.267,5.296,15.0
45.201,2.825,4.31,26.0
42.203,2.638,3.78,35.0
41.751,2.611,3.498,39.0
52.196,3.281,5.824,12.0
52.263,3.285,5.527,41.0
52.29,3.287,5.226,8.0
45.151,2.839,4.246,43.0
41.951,2.638,3.702,39.0
41.936,2.638,3.458,31.0
52.221,3.301,5.757,13.0
52.269,3.304,5.458,38.0
45.204,2.857,4.458,19.0
45.383,2.869,4.207,11.0
42.02,2.656,3.652,35.0
42.03,2.658,3.41,12.0
52.235,3.318,5.688,17.0
52.292,3.322,5.39,19.0
52.3,3.322,5.086,7.0
42.229,2.682,3.858,17.0
41.907,2.662,3.585,39.0
44.209,2.808,3.526,4.0
52.266,3.335,5.618,12.0
52.283,3.336,5.315,19.0
45.616,2.91,4.372,20.0
42.223,2.693,3.798,23.0
41.977,2.677,3.533,19.0
41.896,2.672,3.283,32.0
52.265,3.348,5.544,33.0
52.292,3.349,5.242,22.0
45.167,2.892,4.266,15.0
41.888,2.681,3.708,28.0
42.044,2.691,3.479,16.0
41.916,2.682,3.226,39.0
52.275,3.359,5.47,17.0
52.284,3.359,5.167,15.0
42.45,2.726,3.948,17.0
41.9,2.69,3.649,32.0
44.107,2.831,3.586,5.0
41.937,2.691,3.167,29.0
52.312,3.37,5.399,19.0
52.337,3.37,5.096,9.0
42.356,2.727,3.878,24.0
41.917,2.697,3.59,25.0
44.444,2.859,3.549,3.0
51.096,3.286,3.785,5.0
52.318,3.378,5.321,14.0
45.691,2.948,4.381,5.0
42.221,2.723,3.803,23.0
42.0,2.707,3.535,38.0
41.964,2.704,3.289,14.0
41.673,2.684,3.025,35.0
42.252,2.731,4.234,32.0
45.602,2.946,4.304,11.0
41.944,2.708,3.715,29.0
42.034,2.712,3.475,20.0
41.987,2.708,3.228,29.0
41.678,2.687,2.963,39.0
52.332,3.385,5.165,9.0
42.394,2.741,3.937,17.0
41.871,2.705,3.645,37.0
41.939,2.707,3.403,8.0
51.284,3.309,3.865,16.0
52.251,3.37,3.636,15.0
52.322,3.385,5.084,9.0
42.121,2.723,3.848,37.0
41.918,2.708,3.586,19.0
41.923,2.706,3.338,13.0
51.299,3.309,3.788,8.0
52.258,3.369,3.557,11.0
45.625,2.95,4.363,12.0
42.081,2.719,3.779,25.0
42.003,2.711,3.528,37.0
41.973,2.707,3.278,15.0
41.653,2.684,3.011,39.0
41.738,2.688,2.776,39.0
45.595,2.945,4.289,8.0
41.93,2.705,3.7,32.0
42.049,2.711,3.466,16.0
41.964,2.703,3.211,30.0
41.694,2.683,2.949,34.0
41.728,2.683,2.71,40.0
42.387,2.733,3.92,18.0
41.879,2.697,3.629,34.0
44.169,2.842,3.571,5.0
50.973,3.277,3.82,6.0
52.249,3.355,3.613,17.0
41.556,2.666,2.633,36.0
42.493,2.733,3.862,18.0
42.027,2.7,3.575,25.0
41.909,2.689,3.321,16.0
41.731,2.675,3.061,36.0
52.26,3.346,3.53,10.0
41.546,2.658,2.566,30.0
41.994,2.692,3.748,21.0
42.073,2.694,3.511,17.0
41.895,2.68,3.253,41.0
52.265,3.339,3.749,10.0
41.765,2.665,2.754,39.0
52.257,3.331,3.144,17.0
41.922,2.677,3.674,38.0
42.019,2.68,3.438,6.0
42.1,2.682,3.2,17.0
52.279,3.327,3.666,11.0
41.601,2.644,2.676,39.0
41.582,2.639,2.434,25.0
41.923,2.665,3.605,39.0
44.213,2.807,3.546,3.0
41.799,2.65,3.109,24.0
52.272,3.31,3.58,16.0
41.588,2.63,2.607,35.0
41.577,2.626,2.366,40.0
41.993,2.656,3.543,26.0
41.885,2.645,3.29,23.0
41.656,2.627,3.03,38.0
41.989,2.644,2.807,17.0
41.568,2.614,2.538,33.0
41.533,2.608,2.296,42.0
41.961,2.639,3.471,32.0
41.73,2.62,3.209,40.0
52.32,3.28,3.72,6.0
41.65,2.607,2.715,32.0
41.537,2.596,2.467,33.0
41.642,2.599,2.233,29.0
41.981,2.623,3.403,10.0
41.506,2.588,3.123,30.0
41.851,2.605,2.906,26.0
41.567,2.584,2.641,34.0
41.588,2.581,2.402,36.0
41.674,2.582,2.165,3.0
41.786,2.592,3.317,41.0
41.487,2.568,3.052,40.0
41.935,2.591,2.842,20.0
41.528,2.562,2.57,40.0
41.627,2.564,2.335,31.0
90.763,5.581,4.567,10.0
41.75,2.568,3.245,27.0
41.41,2.543,2.978,16.0
41.958,2.572,2.774,19.0
41.533,2.541,2.501,38.0
41.606,2.541,2.265,30.0
90.379,5.511,4.399,7.0
41.256,2.516,3.137,37.0
41.703,2.538,2.929,27.0
41.918,2.546,2.701,2.0
41.79,2.533,2.447,33.0
41.668,2.521,2.199,34.0
115.45,6.973,5.427,17.0
41.342,2.497,3.075,38.0
41.751,2.516,2.863,34.0
41.493,2.496,2.605,28.0
41.817,2.51,2.379,31.0
41.696,2.498,2.131,6.0
115.427,6.902,5.234,21.0
41.379,2.473,3.008,43.0
42.039,2.508,2.812,41.0
41.542,2.472,2.539,40.0
41.72,2.478,2.304,33.0
52.308,3.1,2.586,7.0
115.47,6.83,5.043,18.0
41.421,2.448,2.942,40.0
42.318,2.496,2.761,6.0
41.574,2.446,2.472,32.0
52.487,3.082,2.812,14.0
52.204,3.059,2.495,3.0
115.53,6.754,4.857,10.0
41.505,2.425,2.88,41.0
53.322,3.107,3.391,0.0
41.659,2.422,2.408,42.0
52.279,3.033,2.715,14.0
53.193,3.078,2.455,10.0
119.034,6.873,4.808,14.0
41.278,2.38,2.795,39.0
41.601,2.393,2.576,16.0
41.731,2.395,2.343,40.0
52.228,2.989,2.625,25.0
52.645,3.006,2.342,20.0
119.67,6.817,4.634,25.0
41.12,2.339,2.716,37.0
41.64,2.362,2.509,33.0
41.752,2.363,2.275,15.0
91.402,5.158,4.442,14.0
119.682,6.737,5.125,29.0
119.705,6.722,4.437,28.0
41.299,2.315,2.659,30.0
41.836,2.338,2.452,42.0
42.048,2.344,2.221,28.0
52.912,2.942,2.484,4.0
119.663,6.634,4.927,31.0
119.71,6.619,4.238,20.0
41.102,2.268,2.578,39.0
41.704,2.295,2.374,32.0
52.529,2.882,2.687,23.0
52.816,2.889,2.391,25.0
59.507,3.245,2.35,20.0
59.431,3.232,2.005,24.0
41.05,2.228,2.506,41.0
42.007,2.272,2.322,14.0
52.653,2.839,2.606,26.0
59.418,3.195,2.592,28.0
59.417,3.185,2.25,26.0
59.386,3.174,1.907,24.0
41.108,2.192,2.443,37.0
59.343,3.154,3.183,14.0
59.371,3.145,2.841,9.0
59.39,3.136,2.494,30.0
59.391,3.126,2.152,35.0
59.391,3.116,1.81,38.0
41.599,2.176,2.403,42.0
53.069,2.767,2.759,26.0
59.391,3.087,2.746,11.0
59.394,3.076,2.396,32.0
59.425,3.067,2.056,30.0
59.449,3.059,1.715,26.0
41.762,2.142,2.344,25.0
52.669,2.692,2.652,26.0
59.392,3.025,2.649,12.0
59.434,3.016,2.302,30.0
59.481,3.008,1.962,24.0
124.825,6.291,3.399,5.0
41.76,2.098,2.277,40.0
52.762,2.64,2.573,26.0
59.45,2.964,2.556,15.0
59.51,2.956,2.21,7.0
125.273,6.2,3.931,2.0
120.133,5.924,3.08,12.0
59.462,2.921,3.147,12.0
59.439,2.908,2.803,18.0
52.543,2.561,2.175,13.0
0.0,0.0,0.0,0.0
0.0,0.0,0.0,0.0
120.094,5.786,2.887,7.0
59.465,2.853,3.052,10.0
52.735,2.52,2.403,15.0
189.94,9.039,7.562,14.0
0.0,0.0,0.0,0.0
61.076,2.882,1.722,9.0
120.131,5.647,2.697,5.0
59.52,2.785,2.96,16.0
53.028,2.47,2.331,15.0
52.763,2.447,2.016,2.0
62.405,2.882,2.019,5.0
61.582,2.832,1.639,5.0
66.135,3.028,1.38,7.0
104.561,4.764,5.035,18.0
52.621,2.387,2.231,19.0
66.162,2.987,2.425,5.0
63.342,2.847,1.951,13.0
62.63,2.802,1.569,7.0
61.526,2.74,1.188,5.0
66.046,2.926,3.078,13.0
52.617,2.32,2.149,19.0
66.045,2.898,2.318,26.0
64.427,2.814,1.885,19.0
63.547,2.762,1.494,11.0
62.929,2.722,1.119,10.0
65.958,2.838,2.973,24.0
66.0,2.825,2.595,30.0
66.061,2.813,2.218,33.0
66.071,2.799,1.833,36.0
66.109,2.787,1.454,30.0
66.145,2.774,1.075,22.0
65.997,2.752,2.874,15.0
66.022,2.738,2.496,31.0
66.106,2.726,2.12,28.0
120.059,4.926,3.149,15.0
120.102,4.901,2.462,25.0
120.11,4.875,1.773,19.0
66.083,2.664,2.778,23.0
66.15,2.653,2.402,18.0
195.063,7.778,5.963,23.0
120.067,4.759,2.969,14.0
193.896,7.645,3.684,20.0
120.014,4.705,1.593,15.0
66.202,2.577,2.685,23.0
190.797,7.385,6.646,21.0
195.345,7.516,5.685,9.0
194.065,7.421,4.515,23.0
193.436,7.355,3.394,14.0
120.004,4.534,1.418,13.0
190.56,7.15,7.454,13.0
72.516,2.703,2.421,6.0
72.526,2.686,2.005,21.0
72.453,2.666,1.581,22.0
72.401,2.648,1.165,25.0
72.374,2.629,0.75,23.0
72.426,2.611,2.728,29.0
72.41,2.593,2.313,33.0
72.388,2.575,1.898,30.0
72.357,2.556,1.475,36.0
72.356,2.54,1.062,33.0
72.35,2.522,0.648,27.0
72.398,2.502,2.625,32.0
72.396,2.485,2.21,36.0
72.379,2.466,1.795,38.0
72.372,2.447,1.373,34.0
72.36,2.429,0.959,35.0
72.31,2.41,0.545,26.0
72.473,2.394,2.526,29.0
72.474,2.375,2.111,33.0
72.483,2.358,1.697,34.0
72.456,2.339,1.275,30.0
72.464,2.321,0.861,29.0
72.328,2.299,0.446,21.0
211.46,6.658,7.08,8.0
74.625,2.33,2.072,2.0
74.232,2.3,1.637,2.0
79.085,2.429,1.284,3.0
78.963,2.406,0.831,13.0
71.863,2.172,0.346,12.0
78.9,2.36,2.536,26.0
76.28,2.261,2.015,3.0
75.746,2.226,1.569,5.0
75.387,2.196,1.123,7.0
76.01,2.194,0.698,6.0
71.647,2.05,0.25,12.0
78.821,2.23,2.428,29.0
78.705,2.206,1.976,12.0
78.529,2.18,1.523,9.0
77.809,2.14,1.057,7.0
78.806,2.147,0.621,23.0
71.27,1.923,0.155,11.0
78.882,2.102,2.328,30.0
78.92,2.082,1.878,31.0
78.949,2.06,1.428,35.0
78.949,2.039,0.969,30.0
78.894,2.017,0.519,20.0
66.711,1.687,0.059,4.0
85.336,2.131,2.409,26.0
85.304,2.107,1.921,28.0
85.277,2.082,1.434,32.0
85.271,2.058,0.939,32.0
84.769,2.023,0.451,6.0
67.562,1.595,-0.024,10.0
85.255,1.984,2.3,36.0
85.24,1.959,1.813,43.0
85.236,1.935,1.327,40.0
85.232,1.912,0.833,34.0
72.113,1.597,0.295,6.0
0.0,0.0,0.0,0.0
85.306,1.837,2.196,33.0
85.328,1.814,1.711,30.0
85.356,1.79,1.225,31.0
85.305,1.765,0.73,25.0
72.306,1.475,0.208,5.0
0.0,0.0,0.0,0.0
88.519,1.75,2.172,5.0
87.591,1.707,1.651,9.0
87.544,1.681,1.152,5.0
91.802,1.736,0.677,10.0
72.663,1.354,0.123,7.0
57.766,1.059,-0.23,0.0
91.849,1.653,2.146,39.0
91.843,1.625,1.624,39.0
91.834,1.598,1.102,17.0
91.798,1.571,0.57,6.0
74.031,1.245,0.039,3.0
0.0,0.0,0.0,0.0
91.996,1.489,2.045,17.0
91.959,1.461,1.522,33.0
92.001,1.435,1.0,28.0
84.919,1.3,0.432,10.0
0.0,0.0,0.0,0.0
0.0,0.0,0.0,0.0
98.625,1.418,2.084,27.0
98.491,1.386,1.522,29.0
98.549,1.357,0.963,26.0
85.119,1.146,0.34,7.0
0.0,0.0,0.0,0.0
0.0,0.0,0.0,0.0
98.543,1.236,1.976,33.0
98.51,1.204,1.416,34.0
98.442,1.174,0.857,15.0
81.429,0.947,0.24,3.0
0.0,0.0,0.0,0.0
46.552,0.512,-0.39,0.0
98.66,1.052,1.875,28.0
98.661,1.021,1.316,27.0
98.366,0.989,0.755,15.0
82.337,0.802,0.157,1.0
0.0,0.0,0.0,0.0
42.932,0.391,-0.404,0.0
99.907,0.877,1.797,6.0
99.955,0.846,1.232,6.0
98.121,0.799,0.654,10.0
0.0,0.0,0.0,0.0
0.0,0.0,0.0,0.0
42.813,0.308,-0.446,1.0
101.567,0.696,1.727,4.0
101.321,0.664,1.15,2.0
97.594,0.608,0.555,3.0
70.887,0.418,-0.004,0.0
0.0,0.0,0.0,0.0
43.02,0.226,-0.489,0.0
111.116,0.548,1.783,26.0
111.065,0.511,1.154,21.0
94.74,0.405,0.449,3.0
0.0,0.0,0.0,0.0
49.972,0.181,-0.332,0.0
0.0,0.0,0.0,0.0
119.842,0.355,1.813,19.0
111.128,0.295,1.054,15.0
93.103,0.216,0.357,4.0
0.0,0.0,0.0,0.0
45.807,0.076,-0.346,1.0
36.927,0.049,-0.487,0.0
111.122,0.112,1.583,15.0
111.049,0.075,0.955,7.0
0.0,0.0,0.0,0.0
0.0,0.0,0.0,0.0
45.157,-0.013,-0.38,2.0
35.569,-0.023,-0.5,0.0
112.265,-0.108,1.504,18.0
111.023,-0.144,0.861,15.0
0.0,0.0,0.0,0.0
0.0,0.0,0.0,0.0
44.911,-0.103,-0.415,1.0
35.586,-0.093,-0.529,0.0
119.742,-0.352,1.507,14.0
111.191,-0.365,0.773,9.0
0.0,0.0,0.0,0.0
0.0,0.0,0.0,0.0
0.0,0.0,0.0,0.0
35.063,-0.162,-0.549,0.0
119.725,-0.593,1.413,16.0
111.03,-0.588,0.685,7.0
0.0,0.0,0.0,0.0
0.0,0.0,0.0,0.0
0.0,0.0,0.0,0.0
32.983,-0.219,-0.541,0.0
119.681,-0.833,1.324,20.0
111.553,-0.815,0.607,3.0
0.0,0.0,0.0,0.0
0.0,0.0,0.0,0.0
40.809,-0.34,-0.47,0.0
0.0,0.0,0.0,0.0
119.717,-1.079,1.239,38.0
0.0,0.0,0.0,0.0
0.0,0.0,0.0,0.0
0.0,0.0,0.0,0.0
40.035,-0.415,-0.488,0.0
0.0,0.0,0.0,0.0
139.244,-1.537,1.349,22.0
0.0,0.0,0.0,0.0
0.0,0.0,0.0,0.0
47.347,-0.572,-0.343,1.0
38.088,-0.473,-0.489,0.0
31.253,-0.399,-0.577,0.0
139.096,-1.82,1.259,26.0
0.0,0.0,0.0,0.0
0.0,0.0,0.0,0.0
46.737,-0.66,-0.367,1.0
0.0,0.0,0.0,0.0
30.724,-0.456,-0.586,0.0
138.841,-2.104,1.173,20.0
0.0,0.0,0.0,0.0
0.0,0.0,0.0,0.0
46.994,-0.762,-0.397,0.0
0.0,0.0,0.0,0.0
0.0,0.0,0.0,0.0
139.07,-2.394,1.098,16.0
0.0,0.0,0.0,0.0
0.0,0.0,0.0,0.0
45.153,-0.825,-0.405,3.0
36.862,-0.686,-0.537,0.0
30.134,-0.572,-0.608,0.0
139.013,-2.678,1.025,18.0
0.0,0.0,0.0,0.0
0.0,0.0,0.0,0.0
44.834,-0.911,-0.425,1.0
34.866,-0.721,-0.525,0.0
29.258,-0.616,-0.604,0.0
138.919,-2.963,0.958,11.0
0.0,0.0,0.0,0.0
54.639,-1.205,-0.233,0.0
0.0,0.0,0.0,0.0
34.322,-0.781,-0.533,0.0
28.97,-0.67,-0.612,0.0
138.861,-3.248,0.895,9.0
0.0,0.0,0.0,0.0
0.0,0.0,0.0,0.0
43.469,-1.064,-0.451,1.0
34.489,-0.857,-0.55,0.0
21.927,-0.553,-0.472,1.0
138.698,-3.536,0.837,7.0
0.0,0.0,0.0,0.0
54.902,-1.438,-0.28,0.0
41.246,-1.096,-0.444,0.0
0.0,0.0,0.0,0.0
21.912,-0.598,-0.48,151.0
138.508,-3.818,0.785,4.0
0.0,0.0,0.0,0.0
45.231,-1.28,-0.247,0.0
41.271,-1.183,-0.459,1.0
0.0,0.0,0.0,0.0
21.873,-0.643,-0.487,1.0
0.0,0.0,0.0,0.0
0.0,0.0,0.0,0.0
0.0,0.0,0.0,0.0
41.349,-1.271,-0.473,2.0
0.0,0.0,0.0,0.0
27.806,-0.875,-0.627,0.0
0.0,0.0,0.0,0.0
0.0,0.0,0.0,0.0
0.0,0.0,0.0,0.0
41.466,-1.361,-0.486,0.0
0.0,0.0,0.0,0.0
28.241,-0.948,-0.645,0.0
0.0,0.0,0.0,0.0
0.0,0.0,0.0,0.0
0.0,0.0,0.0,0.0
41.396,-1.446,-0.495,0.0
31.653,-1.117,-0.554,0.0
27.514,-0.981,-0.634,0.0
0.0,0.0,0.0,0.0
0.0,0.0,0.0,0.0
0.0,0.0,0.0,0.0
38.275,-1.415,-0.465,0.0
0.0,0.0,0.0,0.0
27.513,-1.038,-0.639,0.0
0.0,0.0,0.0,0.0
0.0,0.0,0.0,0.0
47.706,-1.846,-0.319,0.0
38.245,-1.494,-0.471,0.0
0.0,0.0,0.0,0.0
27.374,-1.089,-0.64,0.0
0.0,0.0,0.0,0.0
0.0,0.0,0.0,0.0
0.0,0.0,0.0,0.0
0.0,0.0,0.0,0.0
0.0,0.0,0.0,0.0
26.991,-1.13,-0.634,0.0
0.0,0.0,0.0,0.0
0.0,0.0,0.0,0.0
0.0,0.0,0.0,0.0
38.51,-1.663,-0.483,0.0
33.21,-1.447,-0.599,0.0
26.969,-1.185,-0.636,0.0
0.0,0.0,0.0,0.0
0.0,0.0,0.0,0.0
20.026,-0.898,-0.139,0.0
20.012,-0.905,-0.251,11.0
20.042,-0.914,-0.362,2.0
27.117,-1.247,-0.64,0.0
0.0,0.0,0.0,0.0
20.015,-0.931,-0.029,6.0
20.011,-0.938,-0.139,20.0
20.001,-0.945,-0.252,27.0
20.023,-0.954,-0.362,25.0
20.053,-0.962,-0.473,23.0
20.032,-0.965,0.081,0.0
20.009,-0.971,-0.028,21.0
19.988,-0.977,-0.139,29.0
19.991,-0.985,-0.251,28.0
20.012,-0.994,-0.361,28.0
20.048,-1.003,-0.472,33.0
20.006,-1.004,0.082,17.0
19.98,-1.01,-0.027,24.0
19.983,-1.018,-0.137,27.0
20.059,-1.029,-0.25,25.0
20.019,-1.034,-0.36,18.0
20.058,-1.044,-0.471,22.0
19.976,-1.043,0.083,30.0
19.973,-1.05,-0.026,18.0
20.015,-1.059,-0.136,23.0
38.714,-2.064,-0.48,0.0
0.0,0.0,0.0,0.0
0.0,0.0,0.0,0.0
19.987,-1.083,0.086,25.0
20.002,-1.091,-0.023,14.0
50.192,-2.757,-0.334,1.0
0.0,0.0,0.0,0.0
0.0,0.0,0.0,0.0
0.0,0.0,0.0,0.0
20.01,-1.124,0.089,18.0
20.035,-1.132,-0.02,0.0
20.056,-1.141,-0.13,0.0
20.003,-1.146,-0.241,0.0
20.004,-1.153,-0.351,2.0
19.998,-1.16,-0.461,18.0
20.014,-1.163,0.093,11.0
20.013,-1.17,-0.016,64.0
20.004,-1.177,-0.125,152.0
19.981,-1.183,-0.237,150.0
19.984,-1.19,-0.346,151.0
19.973,-1.197,-0.456,150.0
19.985,-1.2,0.097,150.0
19.988,-1.208,-0.011,150.0
19.989,-1.215,-0.12,150.0
20.017,-1.224,-0.232,13.0
20.068,-1.234,-0.343,12.0
20.1,-1.244,-0.453,21.0
20.0,-1.24,0.103,27.0
19.995,-1.247,-0.005,17.0
20.007,-1.255,-0.115,26.0
20.021,-1.263,-0.227,29.0
20.053,-1.272,-0.337,28.0
20.076,-1.281,-0.447,30.0
19.982,-1.277,0.109,27.0
19.99,-1.285,0.0,17.0
19.994,-1.292,-0.109,32.0
20.015,-1.301,-0.22,31.0
20.043,-1.31,-0.33,25.0
20.061,-1.319,-0.44,28.0
20.007,-1.317,0.116,24.0
20.009,-1.324,0.007,11.0
19.998,-1.33,-0.102,25.0
20.018,-1.339,-0.213,24.0
20.043,-1.348,-0.323,17.0
20.077,-1.357,-0.433,6.0
20.026,-1.356,0.124,9.0
20.028,-1.363,0.014,2.0
20.025,-1.37,-0.094,13.0
20.038,-1.378,-0.205,3.0
0.0,0.0,0.0,0.0
29.604,-2.057,-0.626,0.0
102.826,-7.156,0.678,17.0
59.143,-4.136,0.068,1.0
48.567,-3.413,-0.208,1.0
0.0,0.0,0.0,0.0
35.23,-2.5,-0.538,0.0
30.187,-2.153,-0.626,0.0
20.039,-1.431,0.141,21.0
0.0,0.0,0.0,0.0
45.053,-3.248,-0.173,1.0
40.424,-2.929,-0.379,2.0
36.567,-2.662,-0.542,0.0
0.0,0.0,0.0,0.0
20.032,-1.467,0.15,16.0
63.915,-4.703,0.132,2.0
45.143,-3.338,-0.151,2.0
37.668,-2.798,-0.334,1.0
35.599,-2.657,-0.509,1.0
0.0,0.0,0.0,0.0
108.932,-8.175,0.874,6.0
67.72,-5.105,0.176,3.0
45.224,-3.424,-0.128,1.0
39.094,-2.973,-0.327,15.0
32.822,-2.507,-0.452,2.0
31.748,-2.437,-0.61,0.0
67.883,-5.215,0.581,78.0
67.844,-5.234,0.213,50.0
51.849,-4.018,-0.118,5.0
39.253,-3.055,-0.306,1.0
32.364,-2.53,-0.428,2.0
29.694,-2.331,-0.553,1.0
67.915,-5.337,0.621,30.0
67.892,-5.357,0.253,12.0
50.891,-4.032,-0.085,22.0
40.529,-3.224,-0.292,26.0
32.569,-2.602,-0.411,19.0
28.085,-2.253,-0.507,2.0
114.35,-9.182,1.116,6.0
72.216,-5.822,0.313,6.0
50.914,-4.122,-0.054,12.0
40.657,-3.304,-0.267,7.0
35.263,-2.877,-0.423,12.0
28.383,-2.325,-0.494,2.0
114.193,-9.362,1.187,8.0
81.123,-6.677,0.404,7.0
51.599,-4.263,-0.022,9.0
44.388,-3.682,-0.263,8.0
35.269,-2.937,-0.399,42.0
28.371,-2.372,-0.475,22.0
114.465,-9.575,1.266,8.0
83.433,-7.004,0.471,9.0
51.846,-4.369,0.012,4.0
44.322,-3.749,-0.232,19.0
35.652,-3.027,-0.38,20.0
28.66,-2.443,-0.46,25.0
119.288,-10.173,1.402,3.0
83.596,-7.155,0.532,4.0
57.857,-4.969,0.055,2.0
0.0,0.0,0.0,0.0
35.648,-3.085,-0.354,0.0
29.809,-2.589,-0.457,55.0
119.126,-10.352,1.489,12.0
86.232,-7.519,0.612,12.0
56.004,-4.9,0.094,3.0
45.178,-3.967,-0.171,14.0
39.025,-3.439,-0.358,1.0
29.723,-2.628,-0.433,30.0
119.135,-10.541,1.578,12.0
89.33,-7.929,0.702,9.0
60.628,-5.4,0.149,1.0
46.766,-4.179,-0.141,21.0
30.002,-2.69,-0.252,1.0
29.844,-2.685,-0.412,18.0
119.142,-10.723,1.672,16.0
94.286,-8.514,0.815,3.0
67.445,-6.109,0.219,6.0
47.594,-4.325,-0.106,22.0
0.0,0.0,0.0,0.0
29.853,-2.731,-0.388,27.0
135.584,-12.407,2.012,138.0
111.249,-10.212,1.051,7.0
71.928,-6.623,0.292,4.0
47.788,-4.414,-0.067,21.0
0.0,0.0,0.0,0.0
29.875,-2.777,-0.364,15.0
135.567,-12.603,2.123,65.0
111.273,-10.375,1.143,16.0
81.512,-7.624,0.4,5.0
0.0,0.0,0.0,0.0
41.075,-3.865,-0.244,16.0
36.009,-3.399,-0.408,2.0
119.22,-11.255,1.97,17.0
111.618,-10.568,1.243,11.0
84.504,-8.023,0.487,3.0
51.052,-4.861,0.015,25.0
0.0,0.0,0.0,0.0
35.441,-3.395,-0.37,19.0
119.225,-11.424,2.076,30.0
111.851,-10.746,1.346,7.0
85.353,-8.223,0.568,13.0
51.132,-4.94,0.061,17.0
43.7,-4.234,-0.182,18.0
35.887,-3.487,-0.342,12.0
135.523,-13.173,2.483,108.0
114.985,-11.205,1.49,8.0
85.472,-8.351,0.648,10.0
54.531,-5.342,0.115,2.0
44.558,-4.377,-0.144,19.0
37.176,-3.662,-0.319,16.0
119.206,-11.746,2.296,81.0
119.066,-11.76,1.654,12.0
87.884,-8.703,0.75,5.0
77.364,-7.682,0.238,2.0
45.855,-4.565,-0.105,21.0
38.171,-3.81,-0.292,18.0
74.824,-7.471,1.514,9.0
135.455,-13.557,2.013,107.0
98.462,-9.878,0.935,4.0
78.824,-7.927,0.319,5.0
46.97,-4.736,-0.061,21.0
38.723,-3.914,-0.258,14.0
74.805,-7.563,1.586,21.0
135.398,-13.721,2.146,151.0
104.698,-10.635,1.098,5.0
80.974,-8.244,0.407,8.0
47.953,-4.894,-0.015,21.0
41.578,-4.254,-0.235,2.0
74.867,-7.662,1.663,6.0
104.617,-10.73,1.763,8.0
104.681,-10.76,1.204,16.0
83.723,-8.625,0.506,4.0
48.466,-5.004,0.033,5.0
33.127,-3.428,-0.154,62.0
104.353,-10.803,2.425,7.0
119.183,-12.364,2.13,21.0
113.956,-11.847,1.427,10.0
33.126,-3.451,0.234,26.0
33.127,-3.459,0.057,68.0
33.096,-3.463,-0.119,72.0
78.844,-8.253,1.914,23.0
33.175,-3.479,0.627,2.0
33.137,-3.482,0.45,69.0
33.124,-3.488,0.269,72.0
33.102,-3.493,0.092,80.0
33.095,-3.5,-0.084,83.0
33.163,-3.508,0.84,28.0
33.16,-3.514,0.663,73.0
33.127,-3.517,0.485,74.0
33.116,-3.523,0.304,80.0
33.107,-3.529,0.127,81.0
33.092,-3.535,-0.049,77.0
33.155,-3.542,0.876,74.0
33.125,-3.546,0.698,82.0
33.122,-3.552,0.521,80.0
33.114,-3.558,0.34,77.0
33.124,-3.565,0.163,65.0
33.128,-3.573,-0.012,44.0
33.135,-3.574,0.911,88.0
33.139,-3.581,0.734,81.0
33.136,-3.587,0.557,79.0
33.114,-3.591,0.377,45.0
33.139,-3.6,0.2,26.0
48.325,-5.259,0.034,19.0
33.147,-3.608,0.948,86.0
33.149,-3.614,0.771,66.0
33.15,-3.62,0.594,41.0
33.153,-3.626,0.414,2.0
85.202,-9.337,0.61,12.0
0.0,0.0,0.0,0.0
33.156,-3.64,0.986,46.0
33.166,-3.647,0.809,28.0
33.135,-3.649,0.631,0.0
114.201,-12.597,1.555,17.0
90.525,-10.002,0.75,4.0
51.284,-5.675,0.151,4.0
33.163,-3.671,1.024,2.0
75.02,-8.317,1.917,41.0
75.298,-8.36,1.521,10.0
118.845,-13.214,1.755,11.0
98.165,-10.932,0.926,3.0
63.177,-7.046,0.259,2.0
74.821,-8.347,2.397,16.0
74.493,-8.321,1.989,40.0
75.188,-8.41,1.606,25.0
75.288,-8.433,1.198,11.0
110.402,-12.384,1.168,7.0
75.366,-8.467,0.396,3.0
75.379,-8.471,2.502,12.0
74.469,-8.379,2.074,31.0
74.971,-8.445,1.688,39.0
75.234,-8.486,1.285,26.0
75.305,-8.505,0.884,22.0
75.357,-8.523,0.483,19.0
75.099,-8.497,2.581,37.0
74.487,-8.437,2.163,19.0
74.365,-8.433,1.762,32.0
74.897,-8.504,1.366,34.0
75.211,-8.55,0.972,26.0
75.251,-8.565,0.572,22.0
72.951,-8.307,2.592,20.0
75.05,-8.555,2.267,27.0
74.533,-8.505,1.853,25.0
73.29,-8.372,1.424,34.0
75.208,-8.601,1.061,31.0
75.223,-8.612,0.659,27.0
72.714,-8.329,2.67,25.0
0.0,0.0,0.0,0.0
73.222,-8.403,1.908,10.0
73.378,-8.43,1.514,13.0
75.206,-8.649,1.15,30.0
75.199,-8.657,0.749,30.0
72.584,-8.36,2.753,23.0
74.365,-8.573,2.424,11.0
73.628,-8.496,2.006,4.0
73.461,-8.484,1.602,10.0
75.221,-8.695,1.24,19.0
75.226,-8.705,0.839,28.0
72.525,-8.396,2.837,10.0
74.538,-8.636,2.518,10.0
78.203,-9.068,2.224,12.0
189.023,-21.936,4.35,16.0
73.283,-8.512,1.296,8.0
75.231,-8.746,0.929,24.0
73.123,-8.505,2.949,11.0
74.767,-8.702,2.616,15.0
78.539,-9.148,2.328,12.0
73.412,-8.557,1.777,11.0
73.325,-8.553,1.384,11.0
114.077,-13.318,1.544,8.0
73.088,-8.537,3.036,15.0
74.824,-8.745,2.708,7.0
78.682,-9.202,2.427,6.0
73.32,-8.58,1.864,14.0
73.409,-8.597,1.474,12.0
73.172,-8.575,1.079,10.0
73.712,-8.644,3.15,15.0
73.274,-8.596,2.74,12.0
78.523,-9.217,2.518,15.0
73.293,-8.608,1.952,9.0
73.4,-8.626,1.563,8.0
73.208,-8.609,1.168,19.0
73.653,-8.667,3.237,36.0
73.234,-8.621,2.827,19.0
78.544,-9.25,2.612,11.0
74.387,-8.765,2.07,8.0
72.892,-8.593,1.64,23.0
73.255,-8.64,1.258,7.0
73.321,-8.654,3.311,45.0
73.125,-8.634,2.912,16.0
74.864,-8.842,2.581,11.0
78.666,-9.295,2.284,12.0
72.93,-8.621,1.729,10.0
189.386,-22.397,3.48,18.0
73.286,-8.673,3.398,43.0
73.519,-8.703,3.016,21.0
75.357,-8.923,2.689,11.0
78.63,-9.313,2.377,24.0
73.005,-8.649,1.818,15.0
72.946,-8.646,1.428,20.0
73.317,-8.697,3.488,26.0
73.334,-8.7,3.097,17.0
75.407,-8.947,2.782,13.0
75.123,-8.916,2.363,18.0
73.105,-8.678,1.909,18.0
72.856,-8.651,1.514,31.0
0.0,0.0,0.0,0.0
73.852,-8.777,3.209,23.0
73.407,-8.725,2.798,16.0
75.064,-8.923,2.452,19.0
72.999,-8.679,1.995,11.0
72.898,-8.669,1.603,22.0
72.11,-8.583,3.605,29.0
73.933,-8.799,3.301,29.0
73.501,-8.748,2.888,30.0
78.281,-9.317,2.65,10.0
78.717,-9.37,2.245,8.0
72.962,-8.686,1.69,20.0
72.37,-8.623,3.705,28.0
73.732,-8.784,3.381,36.0
73.436,-8.748,2.974,14.0
78.375,-9.336,2.747,15.0
74.98,-8.932,2.227,9.0
73.024,-8.699,1.78,15.0
72.707,-8.669,3.81,13.0
73.49,-8.761,3.457,29.0
73.319,-8.739,3.057,16.0
78.341,-9.336,2.84,9.0
75.044,-8.943,2.318,19.0
73.201,-8.723,1.87,17.0
72.793,-8.682,3.901,9.0
73.227,-8.732,3.532,32.0
73.863,-8.805,3.167,30.0
73.425,-8.751,2.747,8.0
75.104,-8.95,2.409,19.0
73.098,-8.71,1.954,19.0
70.063,-8.356,3.837,13.0
72.186,-8.606,3.566,26.0
73.991,-8.819,3.259,29.0
73.468,-8.754,2.835,24.0
75.07,-8.942,2.495,9.0
72.894,-8.681,2.033,8.0
70.005,-8.346,3.916,15.0
72.225,-8.606,3.653,36.0
73.817,-8.793,3.338,31.0
73.527,-8.755,2.924,26.0
78.5,-9.344,2.701,11.0
78.69,-9.363,2.287,14.0
69.867,-8.322,3.991,9.0
72.474,-8.628,3.75,18.0
73.523,-8.749,3.41,32.0
73.314,-8.72,3.0,14.0
78.596,-9.344,2.795,8.0
78.685,-9.351,2.377,17.0
74.419,-8.854,4.336,9.0
72.292,-8.596,3.823,16.0
73.353,-8.717,3.486,27.0
73.268,-8.702,3.081,20.0
75.404,-8.951,2.767,13.0
75.145,-8.916,2.355,16.0
71.898,-8.54,4.271,12.0
69.975,-8.306,3.781,8.0
73.103,-8.672,3.556,36.0
73.695,-8.737,3.182,24.0
73.182,-8.67,2.768,10.0
75.065,-8.889,2.437,14.0
71.854,-8.519,4.349,17.0
69.938,-8.285,3.857,17.0
0.0,0.0,0.0,0.0
73.492,-8.693,3.255,52.0
73.018,-8.631,2.842,11.0
74.796,-8.836,2.51,12.0
72.01,-8.517,4.438,11.0
70.008,-8.273,3.938,10.0
72.256,-8.532,3.676,18.0
73.186,-8.635,3.322,40.0
73.298,-8.642,2.933,17.0
74.808,-8.813,2.592,11.0
75.001,-8.847,4.705,9.0
69.95,-8.243,4.012,20.0
72.886,-8.581,3.788,10.0
0.0,0.0,0.0,0.0
73.144,-8.597,3.006,10.0
73.228,-8.6,2.616,3.0
33.371,-3.924,2.129,1.0
70.054,-8.229,4.092,7.0
70.229,-8.242,3.724,8.0
71.773,-8.415,3.412,15.0
73.639,-8.626,3.105,14.0
77.734,-9.098,2.859,3.0
33.344,-3.907,2.163,2.0
72.188,-8.45,4.293,15.0
70.182,-8.206,3.795,8.0
71.788,-8.385,3.488,8.0
73.556,-8.583,3.178,39.0
74.806,-8.721,2.83,4.0
74.003,-8.638,4.879,16.0
72.439,-8.446,4.384,25.0
70.153,-8.17,3.867,12.0
71.92,-8.366,3.57,11.0
73.409,-8.53,3.247,39.0
72.573,-8.424,2.819,9.0
74.213,-8.626,4.969,13.0
72.551,-8.422,4.465,15.0
70.16,-8.134,3.938,8.0
71.934,-8.33,3.642,12.0
73.316,-8.48,3.317,28.0
72.751,-8.406,2.898,26.0
74.544,-8.624,5.065,23.0
72.527,-8.38,4.536,11.0
71.843,-8.29,4.104,12.0
72.001,-8.297,3.717,9.0
73.417,-8.45,3.394,38.0
73.068,-8.4,2.983,14.0
76.593,-8.816,5.281,5.0
72.386,-8.32,4.599,11.0
71.725,-8.233,4.168,29.0
72.285,-8.286,3.802,8.0
73.09,-8.368,3.449,32.0
73.102,-8.358,3.055,16.0
69.703,-7.98,4.873,6.0
33.363,-3.814,2.151,2.0
71.78,-8.193,4.24,21.0
72.303,-8.241,3.871,15.0
73.21,-8.333,3.525,32.0
73.571,-8.362,3.144,13.0
69.692,-7.932,4.938,19.0
33.281,-3.782,2.177,2.0
69.685,-7.907,4.181,8.0
70.178,-7.951,3.822,12.0
72.563,-8.209,3.559,12.0
73.017,-8.248,3.187,25.0
33.223,-3.758,2.384,51.0
33.216,-3.751,2.203,36.0
33.206,-3.744,2.022,32.0
33.219,-3.739,1.839,18.0
33.21,-3.733,1.658,2.0
72.732,-8.163,3.238,20.0
33.229,-3.734,2.414,83.0
33.223,-3.727,2.233,79.0
33.211,-3.719,2.051,77.0
33.205,-3.712,1.867,69.0
33.186,-3.704,1.686,47.0
33.19,-3.699,1.506,40.0
33.218,-3.707,2.442,85.0
33.216,-3.7,2.261,80.0
33.199,-3.691,2.079,80.0
33.19,-3.684,1.894,78.0
33.188,-3.677,1.714,76.0
33.176,-3.67,1.533,77.0
33.242,-3.682,2.472,73.0
33.222,-3.673,2.289,69.0
33.213,-3.665,2.107,70.0
33.194,-3.657,1.922,74.0
33.175,-3.648,1.74,78.0
33.168,-3.641,1.56,82.0
70.236,-7.72,5.28,9.0
33.239,-3.646,2.317,6.0
33.202,-3.635,2.133,27.0
33.211,-3.629,1.949,58.0
33.212,-3.622,1.768,67.0
33.188,-3.613,1.586,67.0
70.432,-7.679,5.35,11.0
75.59,-8.225,5.328,6.0
70.43,-7.648,4.579,15.0
69.854,-7.57,4.153,17.0
70.075,-7.578,3.785,13.0
33.204,-3.584,1.612,5.0
33.314,-3.601,2.555,55.0
33.317,-3.593,2.373,48.0
33.296,-3.584,2.189,48.0
70.01,-7.52,4.214,10.0
70.16,-7.521,3.84,25.0
72.72,-7.779,3.584,10.0
33.307,-3.568,2.579,51.0
33.294,-3.558,2.395,42.0
33.289,-3.55,2.212,48.0
70.229,-7.474,4.277,17.0
70.286,-7.465,3.895,34.0
69.55,-7.371,3.475,11.0
33.291,-3.533,2.6,51.0
33.302,-3.526,2.418,63.0
33.287,-3.516,2.235,50.0
70.275,-7.407,4.327,19.0
70.119,-7.375,3.933,26.0
69.609,-7.305,3.524,20.0
33.281,-3.497,2.622,55.0
33.288,-3.49,2.439,53.0
33.279,-3.481,2.256,52.0
69.088,-7.21,4.297,16.0
69.688,-7.257,3.952,11.0
71.442,-7.423,3.661,9.0
33.278,-3.462,2.642,53.0
33.272,-3.453,2.458,51.0
33.277,-3.445,2.276,51.0
69.19,-7.146,4.345,26.0
69.368,-7.148,3.976,19.0
71.357,-7.336,3.699,10.0
33.263,-3.424,2.661,53.0
33.257,-3.414,2.477,50.0
33.271,-3.407,2.295,53.0
69.317,-7.082,4.393,26.0
68.898,-7.022,3.988,18.0
71.289,-7.248,3.735,16.0
33.255,-3.385,2.679,52.0
33.252,-3.376,2.495,48.0
33.268,-3.369,2.313,53.0
69.333,-7.004,4.431,28.0
68.89,-6.941,4.024,17.0
71.483,-7.184,3.784,9.0
33.248,-3.346,2.696,53.0
33.245,-3.336,2.512,50.0
33.25,-3.328,2.329,52.0
69.543,-6.942,4.48,26.0
69.054,-6.876,4.068,20.0
72.074,-7.158,3.85,20.0
33.245,-3.305,2.712,53.0
33.241,-3.296,2.527,53.0
33.248,-3.288,2.344,52.0
69.561,-6.86,4.514,16.0
69.11,-6.798,4.103,12.0
71.146,-6.98,3.833,11.0
33.228,-3.263,2.726,55.0
33.23,-3.254,2.541,53.0
33.24,-3.246,2.358,54.0
33.212,-3.234,2.169,25.0
0.0,0.0,0.0,0.0
73.921,-7.161,4.013,6.0
33.212,-3.22,2.738,53.0
33.222,-3.212,2.554,53.0
33.23,-3.203,2.371,53.0
33.226,-3.194,2.183,36.0
70.18,-6.728,4.224,20.0
73.744,-7.05,4.032,5.0
33.212,-3.178,2.75,53.0
33.215,-3.169,2.566,54.0
33.229,-3.16,2.383,54.0
33.216,-3.15,2.194,39.0
70.008,-6.621,4.239,27.0
70.401,-6.639,3.873,9.0
75.979,-7.172,6.319,4.0
70.719,-6.655,5.488,22.0
69.978,-6.565,5.042,24.0
33.193,-3.104,2.204,2.0
70.057,-6.533,4.264,25.0
71.423,-6.641,3.951,5.0
74.062,-6.893,6.182,22.0
71.113,-6.597,5.54,19.0
70.379,-6.508,5.091,40.0
70.226,-6.475,4.683,12.0
74.784,-6.873,4.572,8.0
69.964,-6.411,3.89,12.0
73.683,-6.758,6.17,8.0
71.077,-6.496,5.556,19.0
70.476,-6.421,5.116,39.0
70.721,-6.423,4.733,19.0
71.346,-6.459,4.379,16.0
70.748,-6.385,3.95,40.0
74.293,-6.711,6.238,10.0
70.777,-6.372,5.548,26.0
70.355,-6.312,5.123,35.0
70.665,-6.32,4.744,16.0
71.056,-6.335,4.375,12.0
70.761,-6.288,3.964,17.0
74.338,-6.611,6.256,28.0
70.879,-6.282,5.568,21.0
73.364,-6.48,5.354,7.0
70.68,-6.221,4.757,28.0
71.066,-6.234,4.387,25.0
70.688,-6.181,3.971,27.0
71.419,-6.249,6.021,12.0
70.84,-6.177,5.575,11.0
70.398,-6.117,5.147,28.0
70.459,-6.101,4.751,18.0
71.709,-6.188,4.436,9.0
70.874,-6.096,3.989,27.0
71.267,-6.133,6.015,21.0
70.923,-6.081,5.589,18.0
70.657,-6.037,5.173,28.0
70.321,-5.987,4.748,40.0
71.603,-6.075,4.435,22.0
71.345,-6.033,4.021,29.0
72.982,-6.174,6.165,9.0
70.464,-5.939,5.557,13.0
70.674,-5.934,5.177,25.0
70.205,-5.874,4.743,38.0
71.646,-5.974,4.44,15.0
71.381,-5.931,4.025,12.0
70.61,-5.87,5.967,6.0
73.014,-6.046,5.759,19.0
70.628,-5.827,5.175,23.0
71.412,-5.87,4.825,23.0
71.944,-5.892,4.458,11.0
71.525,-5.837,4.032,18.0
70.546,-5.758,5.96,8.0
73.1,-5.944,5.765,13.0
70.618,-5.721,5.173,9.0
71.021,-5.732,4.796,48.0
71.883,-5.78,4.451,12.0
71.418,-5.722,4.023,25.0
73.335,-5.876,6.192,8.0
70.942,-5.662,5.59,8.0
70.725,-5.624,5.175,10.0
70.923,-5.617,4.784,14.0
71.756,-5.661,4.438,17.0
67.966,-5.342,3.823,26.0
70.776,-5.564,5.969,17.0
68.013,-5.325,5.352,24.0
67.981,-5.302,4.967,71.0
67.96,-5.279,4.576,83.0
67.967,-5.258,4.195,75.0
67.97,-5.239,3.814,50.0
68.006,-5.241,5.726,68.0
67.972,-5.217,5.339,10.0
74.616,-5.704,5.44,11.0
71.145,-5.416,4.78,29.0
72.189,-5.474,4.444,11.0
71.611,-5.408,4.006,18.0
70.532,-5.326,5.925,18.0
73.486,-5.526,5.758,11.0
78.887,-5.907,5.736,10.0
75.68,-5.643,5.069,4.0
72.01,-5.348,4.417,20.0
71.476,-5.286,3.983,27.0
73.923,-5.466,6.193,2.0
73.619,-5.419,5.751,8.0
79.168,-5.803,5.737,12.0
71.812,-5.241,4.792,10.0
71.743,-5.214,4.383,22.0
71.211,-5.154,3.949,23.0
0.0,0.0,0.0,0.0
74.113,-5.34,5.77,30.0
76.234,-5.468,5.503,9.0
76.617,-5.472,5.091,4.0
71.582,-5.091,4.352,16.0
71.436,-5.06,3.941,34.0
72.636,-5.142,6.044,23.0
72.882,-5.136,5.651,19.0
72.225,-5.067,5.191,9.0
71.615,-5.002,4.735,28.0
71.645,-4.982,4.332,16.0
70.63,-4.89,3.872,10.0
72.41,-5.01,6.0,17.0
72.11,-4.967,5.565,20.0
72.214,-4.952,5.164,5.0
71.646,-4.891,4.711,28.0
71.443,-4.855,4.293,24.0
70.544,-4.772,3.84,34.0
72.91,-4.928,6.011,27.0
71.899,-4.837,5.52,5.0
72.058,-4.826,5.123,8.0
71.69,-4.779,4.683,24.0
70.968,-4.709,4.234,26.0
70.529,-4.658,3.81,31.0
70.877,-4.676,5.813,9.0
71.769,-4.712,5.478,10.0
72.122,-4.713,5.095,10.0
71.82,-4.671,4.658,10.0
71.005,-4.596,4.203,11.0
70.403,-4.536,3.769,23.0
71.054,-4.572,5.793,19.0
72.02,-4.611,5.461,8.0
74.778,-4.765,5.246,6.0
71.528,-4.536,4.604,30.0
71.343,-4.502,4.187,47.0
70.97,-4.458,3.763,21.0
8.924,-0.405,-0.91,0.0
8.595,-0.392,-0.925,0.0
8.193,-0.375,-0.928,0.0
7.795,-0.359,-0.928,0.0
7.529,-0.349,-0.939,0.0
7.259,-0.338,-0.946,0.0
8.949,-0.417,-0.913,0.0
8.556,-0.4,-0.921,0.0
8.186,-0.385,-0.927,0.0
7.843,-0.371,-0.933,0.0
7.506,-0.356,-0.936,0.0
7.256,-0.346,-0.946,0.0
8.933,-0.427,-0.911,0.0
8.561,-0.411,-0.921,0.0
8.195,-0.395,-0.927,0.0
7.837,-0.38,-0.932,0.0
7.539,-0.367,-0.939,0.0
7.256,-0.355,-0.945,0.0
8.923,-0.437,-0.909,0.0
8.573,-0.421,-0.921,0.0
8.183,-0.404,-0.925,0.0
7.892,-0.391,-0.938,0.0
7.547,-0.376,-0.939,0.0
7.298,-0.365,-0.949,0.0
8.958,-0.449,-0.911,0.0
8.564,-0.431,-0.919,0.0
8.21,-0.415,-0.927,0.0
7.856,-0.399,-0.932,0.0
7.583,-0.387,-0.942,0.0
7.274,-0.373,-0.945,0.0
8.994,-0.461,-0.913,0.0
8.628,-0.444,-0.924,0.0
8.186,-0.423,-0.923,0.0
7.931,-0.411,-0.939,0.0
7.577,-0.395,-0.94,0.0
7.312,-0.383,-0.948,0.0
8.941,-0.468,-0.906,0.0
8.61,-0.453,-0.92,0.0
8.235,-0.435,-0.926,0.0
7.895,-0.419,-0.933,0.0
7.56,-0.403,-0.936,0.0
7.287,-0.39,-0.943,0.0
8.994,-0.481,-0.909,0.0
8.619,-0.463,-0.919,0.0
8.281,-0.446,-0.929,0.0
7.882,-0.427,-0.929,0.0
7.584,-0.412,-0.937,0.0
7.328,-0.4,-0.946,0.0
9.07,-0.495,-0.914,0.0
8.671,-0.475,-0.922,0.0
8.27,-0.455,-0.925,0.0
7.942,-0.439,-0.934,0.0
7.624,-0.423,-0.939,0.0
7.287,-0.406,-0.938,0.0
9.079,-0.505,-0.911,0.0
8.7,-0.486,-0.922,0.0
8.306,-0.466,-0.926,0.0
7.926,-0.446,-0.929,0.0
7.68,-0.434,-0.943,0.0
7.374,-0.419,-0.947,0.0
9.087,-0.515,-0.909,0.0
8.633,-0.491,-0.911,0.0
8.325,-0.476,-0.925,0.0
7.945,-0.456,-0.928,0.0
7.621,-0.439,-0.932,0.0
7.353,-0.425,-0.941,0.0
9.104,-0.526,-0.906,0.0
8.756,-0.508,-0.92,0.0
8.379,-0.488,-0.927,0.0
8.004,-0.467,-0.931,0.0
0.0,0.0,0.0,0.0
7.406,-0.436,-0.944,0.0
9.185,-0.54,-0.91,0.0
8.808,-0.52,-0.921,0.0
8.366,-0.495,-0.921,0.0
8.067,-0.479,-0.934,0.0
0.0,0.0,0.0,0.0
7.401,-0.443,-0.939,0.0
9.26,-0.554,-0.912,0.0
8.811,-0.529,-0.917,0.0
8.438,-0.508,-0.925,0.0
8.027,-0.485,-0.925,0.0
0.0,0.0,0.0,0.0
7.48,-0.455,-0.945,0.0
9.269,-0.563,-0.908,0.0
8.825,-0.538,-0.913,0.0
8.475,-0.518,-0.924,0.0
8.121,-0.498,-0.931,0.0
7.823,-0.482,-0.94,0.0
7.494,-0.463,-0.942,0.0
9.308,-0.575,-0.906,0.0
8.925,-0.553,-0.918,0.0
8.475,-0.527,-0.919,0.0
8.193,-0.511,-0.934,0.0
7.853,-0.491,-0.939,0.0
7.532,-0.473,-0.942,0.0
99.268,7.656,0.819,8.0
45.844,3.546,0.119,3.0
45.119,3.501,-0.136,19.0
40.592,3.159,-0.356,8.0
35.878,2.801,-0.517,1.0
30.035,2.352,-0.603,0.0
45.92,3.617,0.341,33.0
45.737,3.613,0.082,24.0
44.832,3.552,-0.172,19.0
40.365,3.208,-0.387,6.0
34.797,2.773,-0.531,1.0
29.355,2.346,-0.614,0.0
45.808,3.683,0.302,35.0
45.632,3.678,0.043,29.0
44.347,3.585,-0.208,19.0
40.242,3.262,-0.421,5.0
33.835,2.75,-0.545,1.0
28.531,2.325,-0.621,0.0
45.765,3.752,0.262,29.0
45.487,3.738,0.003,28.0
43.341,3.571,-0.242,19.0
40.078,3.312,-0.455,9.0
32.862,2.723,-0.559,1.0
27.908,2.318,-0.632,0.0
45.737,3.82,0.22,18.0
45.342,3.797,-0.037,20.0
41.514,3.485,-0.269,17.0
39.935,3.361,-0.489,8.0
32.135,2.712,-0.576,0.0
27.117,2.294,-0.639,0.0
45.732,3.889,0.178,17.0
45.175,3.851,-0.079,19.0
40.65,3.474,-0.301,16.0
39.853,3.414,-0.525,0.0
31.074,2.668,-0.586,0.0
26.631,2.293,-0.653,0.0
45.746,3.958,0.135,15.0
45.039,3.906,-0.121,19.0
40.385,3.51,-0.338,15.0
36.568,3.186,-0.517,1.0
30.173,2.636,-0.598,0.0
26.02,2.278,-0.663,0.0
45.764,4.027,0.09,9.0
44.528,3.927,-0.164,19.0
39.897,3.526,-0.373,10.0
36.277,3.214,-0.549,0.0
29.225,2.595,-0.608,0.0
25.317,2.253,-0.671,0.0
45.72,4.088,0.045,29.0
43.616,3.907,-0.204,18.0
39.667,3.561,-0.411,6.0
33.054,2.974,-0.533,0.0
28.297,2.551,-0.617,0.0
24.701,2.232,-0.679,0.0
45.665,4.145,0.0,17.0
0.0,0.0,0.0,0.0
39.582,3.608,-0.45,8.0
32.37,2.956,-0.555,1.0
27.5,2.517,-0.628,0.0
24.143,2.214,-0.689,0.0
45.459,4.188,-0.048,15.0
40.919,3.776,-0.275,16.0
39.517,3.654,-0.491,5.0
31.489,2.918,-0.573,1.0
26.953,2.502,-0.644,0.0
23.503,2.186,-0.695,0.0
45.314,4.233,-0.095,20.0
40.231,3.765,-0.313,16.0
39.398,3.694,-0.531,2.0
30.616,2.876,-0.59,0.0
26.182,2.464,-0.653,0.0
22.837,2.154,-0.7,0.0
44.519,4.215,-0.141,20.0
39.773,3.772,-0.352,15.0
34.911,3.317,-0.508,0.0
29.515,2.809,-0.601,0.0
25.507,2.432,-0.664,0.0
22.349,2.135,-0.709,0.0
43.573,4.178,-0.186,19.0
39.422,3.787,-0.393,9.0
34.497,3.32,-0.54,2.0
28.606,2.758,-0.614,0.0
24.677,2.383,-0.67,0.0
21.776,2.107,-0.716,0.0
0.0,0.0,0.0,0.0
39.299,3.821,-0.435,8.0
34.4,3.35,-0.577,0.0
27.642,2.697,-0.624,0.0
24.252,2.37,-0.686,0.0
21.252,2.081,-0.723,0.0
40.624,3.99,-0.265,16.0
39.246,3.861,-0.479,8.0
31.307,3.085,-0.561,0.0
26.838,2.649,-0.636,0.0
23.53,2.326,-0.692,0.0
20.847,2.064,-0.732,0.0
16.267,0.566,-0.795,0.0
15.038,0.52,-0.815,0.0
13.958,0.479,-0.832,0.0
13.088,0.446,-0.851,0.0
12.067,0.409,-0.85,0.0
11.383,0.383,-0.863,0.0
16.604,0.555,-0.791,0.0
15.256,0.506,-0.808,0.0
14.2,0.468,-0.828,0.0
13.236,0.433,-0.844,0.0
12.311,0.4,-0.851,0.0
11.491,0.371,-0.856,0.0
16.911,0.542,-0.784,0.0
15.62,0.497,-0.807,0.0
14.479,0.457,-0.825,0.0
13.517,0.424,-0.844,0.0
12.48,0.388,-0.846,0.0
11.692,0.361,-0.855,0.0
17.243,0.529,-0.776,0.0
15.822,0.482,-0.796,0.0
14.725,0.445,-0.819,0.0
13.74,0.412,-0.839,0.0
12.77,0.38,-0.848,0.0
11.888,0.351,-0.853,0.0
17.645,0.517,-0.769,0.0
16.301,0.474,-0.798,0.0
14.987,0.432,-0.813,0.0
13.99,0.401,-0.835,0.0
13.025,0.37,-0.847,0.0
12.114,0.341,-0.852,0.0
18.186,0.509,-0.768,0.0
16.733,0.464,-0.795,0.0
15.261,0.42,-0.806,0.0
14.274,0.39,-0.831,0.0
13.304,0.36,-0.845,0.0
12.391,0.333,-0.854,0.0
18.603,0.496,-0.758,0.0
17.127,0.453,-0.789,0.0
15.824,0.415,-0.813,0.0
14.547,0.378,-0.826,0.0
13.585,0.35,-0.843,0.0
12.582,0.321,-0.848,0.0
19.151,0.486,-0.752,0.0
17.483,0.439,-0.779,0.0
16.057,0.4,-0.801,0.0
14.824,0.366,-0.819,0.0
13.85,0.339,-0.839,0.0
12.919,0.314,-0.851,0.0
19.755,0.476,-0.747,0.0
17.887,0.427,-0.77,0.0
16.503,0.39,-0.798,0.0
15.149,0.355,-0.814,0.0
14.127,0.328,-0.834,0.0
13.216,0.304,-0.85,0.0
20.288,0.463,-0.735,0.0
18.325,0.414,-0.76,0.0
16.963,0.38,-0.794,0.0
15.516,0.344,-0.81,0.0
14.447,0.318,-0.83,0.0
13.495,0.294,-0.847,0.0
20.91,0.452,-0.725,0.0
18.912,0.405,-0.755,0.0
17.378,0.368,-0.785,0.0
15.936,0.334,-0.806,0.0
14.784,0.307,-0.826,0.0
13.787,0.283,-0.843,0.0
21.426,0.437,-0.708,0.0
19.492,0.393,-0.746,0.0
17.728,0.354,-0.772,0.0
16.373,0.324,-0.801,0.0
15.113,0.296,-0.819,0.0
14.001,0.271,-0.833,0.0
22.686,0.436,-0.712,0.0
20.141,0.383,-0.738,0.0
18.357,0.345,-0.769,0.0
16.825,0.313,-0.795,0.0
15.488,0.285,-0.813,0.0
14.426,0.262,-0.834,0.0
23.275,0.42,-0.692,0.0
20.953,0.374,-0.733,0.0
18.826,0.332,-0.757,0.0
17.445,0.304,-0.795,0.0
15.875,0.274,-0.807,0.0
14.688,0.251,-0.824,0.0
24.348,0.412,-0.682,0.0
21.587,0.361,-0.718,0.0
19.485,0.322,-0.75,0.0
17.614,0.287,-0.772,2.0
16.27,0.262,-0.799,0.0
15.059,0.24,-0.818,0.0
25.115,0.397,-0.66,0.0
22.528,0.352,-0.71,0.0
20.033,0.309,-0.737,0.0
18.275,0.278,-0.769,1.0
16.755,0.252,-0.793,0.0
15.55,0.231,-0.818,0.0
26.4,0.389,-0.648,0.0
23.319,0.339,-0.694,0.0
21.008,0.301,-0.735,0.0
18.756,0.266,-0.756,0.0
17.263,0.241,-0.786,0.0
15.951,0.22,-0.81,0.0
27.482,0.376,-0.626,0.0
24.243,0.327,-0.678,0.0
21.737,0.289,-0.722,0.0
19.668,0.258,-0.758,0.0
17.823,0.231,-0.78,0.0
16.408,0.21,-0.804,0.0
29.289,0.37,-0.613,0.0
25.85,0.322,-0.676,0.0
22.513,0.277,-0.706,0.0
20.209,0.245,-0.741,0.0
18.392,0.22,-0.771,0.0
16.885,0.199,-0.796,0.0
30.768,0.358,-0.587,0.0
26.638,0.306,-0.648,0.0
23.224,0.263,-0.685,0.0
20.902,0.233,-0.728,0.0
18.978,0.208,-0.76,0.0
17.391,0.188,-0.787,0.0
32.643,0.349,-0.563,0.0
28.197,0.297,-0.633,0.0
24.469,0.253,-0.676,0.0
21.696,0.221,-0.715,0.0
19.759,0.198,-0.754,0.0
17.85,0.176,-0.774,0.0
0.0,0.0,0.0,0.0
0.0,0.0,0.0,0.0
26.194,0.247,-0.675,0.0
22.72,0.211,-0.706,0.0
20.344,0.185,-0.738,0.0
18.572,0.166,-0.77,0.0
37.185,0.329,-0.501,0.0
31.544,0.274,-0.588,0.0
27.077,0.231,-0.646,0.0
23.666,0.198,-0.69,0.0
21.076,0.173,-0.723,0.0
19.089,0.154,-0.755,0.0
0.0,0.0,0.0,0.0
33.46,0.262,-0.56,0.0
28.862,0.222,-0.632,0.0
24.974,0.188,-0.679,0.0
22.317,0.165,-0.723,0.0
20.014,0.145,-0.752,0.0
42.787,0.306,-0.411,0.0
0.0,0.0,0.0,0.0
30.329,0.208,-0.605,0.0
0.0,0.0,0.0,0.0
23.174,0.152,-0.705,0.0
20.639,0.133,-0.735,0.0
0.0,0.0,0.0,0.0
0.0,0.0,0.0,0.0
32.078,0.195,-0.577,0.0
27.708,0.164,-0.645,0.0
24.213,0.14,-0.689,0.0
21.651,0.123,-0.728,0.0
0.0,0.0,0.0,0.0
42.888,0.234,-0.465,1.0
34.397,0.183,-0.551,0.0
29.031,0.151,-0.618,0.0
25.76,0.13,-0.681,0.0
22.657,0.112,-0.717,0.0
0.0,0.0,0.0,0.0
46.003,0.217,-0.406,0.0
37.273,0.171,-0.522,0.0
0.0,0.0,0.0,0.0
26.534,0.115,-0.649,0.0
23.638,0.1,-0.7,0.0
0.0,0.0,0.0,0.0
49.886,0.2,-0.34,1.0
0.0,0.0,0.0,0.0
33.602,0.127,-0.579,0.0
28.331,0.104,-0.635,0.0
24.89,0.088,-0.686,0.0
0.0,0.0,0.0,0.0
0.0,0.0,0.0,0.0
42.855,0.139,-0.426,1.0
0.0,0.0,0.0,0.0
30.244,0.091,-0.616,0.0
26.173,0.076,-0.669,0.0
92.691,0.264,0.223,1.0
0.0,0.0,0.0,0.0
0.0,0.0,0.0,0.0
37.965,0.096,-0.5,0.0
0.0,0.0,0.0,0.0
27.818,0.064,-0.654,0.0
103.336,0.232,0.46,3.0
73.343,0.157,-0.05,0.0
0.0,0.0,0.0,0.0
42.848,0.083,-0.476,1.0
35.269,0.065,-0.573,0.0
28.643,0.05,-0.613,0.0
110.675,0.186,0.722,10.0
0.0,0.0,0.0,0.0
0.0,0.0,0.0,0.0
45.464,0.064,-0.41,2.0
0.0,0.0,0.0,0.0
31.156,0.038,-0.602,0.0
0.0,0.0,0.0,0.0
95.509,0.102,0.33,4.0
0.0,0.0,0.0,0.0
49.779,0.044,-0.345,0.0
0.0,0.0,0.0,0.0
33.415,0.024,-0.576,0.0
111.132,0.074,1.189,14.0
110.595,0.064,0.615,5.0
0.0,0.0,0.0,0.0
55.034,0.023,-0.266,0.0
45.113,0.015,-0.45,2.0
35.769,0.01,-0.541,0.0
111.094,0.023,1.422,14.0
111.136,0.015,0.851,10.0
95.435,0.006,0.238,2.0
0.0,0.0,0.0,0.0
0.0,0.0,0.0,0.0
0.0,0.0,0.0,0.0
111.168,-0.022,1.656,14.0
117.318,-0.032,1.145,14.0
0.0,0.0,0.0,0.0
0.0,0.0,0.0,0.0
0.0,0.0,0.0,0.0
44.845,-0.023,-0.49,0.0
112.462,-0.065,1.912,34.0
117.376,-0.075,1.392,16.0
111.151,-0.077,0.744,14.0
0.0,0.0,0.0,0.0
0.0,0.0,0.0,0.0
45.33,-0.039,-0.4,1.0
112.734,-0.104,2.153,12.0
112.385,-0.109,1.567,28.0
117.421,-0.12,1.034,15.0
99.137,-0.106,0.352,2.0
0.0,0.0,0.0,0.0
0.0,0.0,0.0,0.0
114.138,-0.141,2.422,9.0
112.545,-0.144,1.81,28.0
119.708,-0.158,1.308,13.0
110.712,-0.151,0.63,13.0
0.0,0.0,0.0,0.0
0.0,0.0,0.0,0.0
115.386,-0.173,2.696,1.0
112.74,-0.174,2.054,9.0
112.503,-0.177,1.472,23.0
114.459,-0.185,0.897,10.0
100.056,-0.164,0.269,1.0
0.0,0.0,0.0,0.0
119.818,-0.208,3.056,31.0
113.985,-0.202,2.322,9.0
112.612,-0.202,1.714,25.0
119.711,-0.218,1.195,16.0
110.697,-0.205,0.537,5.0
0.0,0.0,0.0,0.0
194.782,-0.377,5.385,12.0
115.088,-0.225,2.59,2.0
112.763,-0.223,1.957,9.0
112.565,-0.225,1.363,13.0
114.488,-0.231,0.797,83.0
0.0,0.0,0.0,0.0
70.139,-0.147,2.09,18.0
194.392,-0.41,4.789,18.0
114.038,-0.242,2.222,8.0
112.626,-0.24,1.605,25.0
114.491,-0.245,1.042,150.0
101.738,-0.219,0.404,1.0
117.466,-0.26,3.75,21.0
119.844,-0.266,3.207,10.0
114.868,-0.256,2.484,6.0
112.767,-0.252,1.848,11.0
119.709,-0.267,1.344,16.0
111.133,-0.249,0.677,11.0
117.438,-0.27,4.001,33.0
70.161,-0.161,2.028,8.0
194.215,-0.446,4.613,20.0
113.72,-0.261,2.104,4.0
112.591,-0.258,1.504,25.0
114.488,-0.261,0.94,150.0
117.39,-0.275,4.248,37.0
70.153,-0.163,2.177,16.0
119.819,-0.278,3.1,17.0
114.453,-0.265,2.36,9.0
112.72,-0.26,1.742,16.0
119.728,-0.274,1.236,16.0
117.347,-0.275,4.493,32.0
117.426,-0.274,3.889,27.0
194.854,-0.452,5.451,11.0
193.986,-0.447,4.41,14.0
112.935,-0.258,1.987,5.0
112.586,-0.255,1.399,19.0
117.345,-0.272,4.742,23.0
117.429,-0.27,4.14,32.0
70.16,-0.159,2.111,22.0
119.791,-0.269,2.976,8.0
114.132,-0.254,2.248,11.0
112.629,-0.248,1.638,22.0
95.338,-0.214,4.054,16.0
117.351,-0.26,4.386,33.0
117.455,-0.257,3.785,24.0
194.639,-0.421,5.248,19.0
114.846,-0.244,2.504,6.0
112.785,-0.236,1.88,10.0
103.659,-0.222,4.628,3.0
117.32,-0.247,4.631,26.0
117.428,-0.243,4.03,35.0
70.108,-0.142,2.038,14.0
119.838,-0.239,2.865,12.0
113.296,-0.221,2.125,4.0
80.904,-0.162,3.782,10.0
117.388,-0.23,4.881,23.0
117.387,-0.225,4.274,27.0
70.196,-0.131,2.187,9.0
119.807,-0.218,3.115,28.0
114.219,-0.203,2.381,9.0
80.953,-0.147,3.953,12.0
95.315,-0.169,4.162,13.0
117.333,-0.202,4.515,26.0
117.417,-0.196,3.9,30.0
117.545,-0.19,3.298,8.0
119.939,-0.187,2.748,1.0
81.38,-0.13,4.143,11.0
80.739,-0.125,3.693,11.0
117.416,-0.175,4.764,23.0
117.379,-0.168,4.142,26.0
70.163,-0.096,2.113,16.0
119.839,-0.157,2.992,13.0
60.293,-0.081,3.193,10.0
80.692,-0.104,3.857,10.0
95.341,-0.117,4.064,17.0
117.44,-0.136,4.386,22.0
117.412,-0.128,3.781,22.0
117.507,-0.12,3.175,22.0
60.218,-0.064,3.314,20.0
80.573,-0.08,4.016,21.0
117.417,-0.108,5.245,7.0
117.451,-0.1,4.627,8.0
70.037,-0.054,2.397,10.0
70.187,-0.049,2.039,15.0
60.395,-0.044,3.447,19.0
77.902,-0.051,4.043,11.0
80.748,-0.047,3.772,3.0
189.838,-0.096,7.868,17.0
70.097,-0.029,2.542,12.0
70.042,-0.023,2.178,21.0
60.59,-0.022,3.583,5.0
77.962,-0.022,4.205,13.0
80.328,-0.016,3.915,16.0
226.993,-0.027,9.866,7.0
70.09,-0.002,2.683,13.0
69.925,0.003,2.314,21.0
60.618,0.001,3.706,9.0
