X,Y,Z,Reflectivity
41.302,-0.597,4.871,41.0
41.224,-0.587,4.635,40.0
43.561,-0.612,4.658,9.0
42.757,-0.6,5.789,38.0
44.189,-0.611,5.738,19.0
47.741,-0.651,5.935,9.0
41.347,-0.556,4.907,25.0
41.092,-0.544,4.65,45.0
41.445,-0.541,4.462,25.0
42.785,-0.557,5.824,38.0
43.947,-0.563,5.738,19.0
47.813,-0.603,5.978,9.0
41.253,-0.513,4.925,39.0
41.068,-0.502,4.676,43.0
41.317,-0.497,4.477,38.0
42.748,-0.513,5.849,43.0
43.587,-0.514,5.721,18.0
41.22,-0.478,5.181,21.0
41.337,-0.471,4.963,24.0
41.004,-0.459,4.696,46.0
41.196,-0.453,4.491,41.0
42.744,-0.468,5.877,46.0
43.577,-0.468,5.748,36.0
41.186,-0.434,5.204,33.0
41.224,-0.426,4.975,21.0
41.02,-0.416,4.723,46.0
41.178,-0.409,4.514,41.0
42.343,-0.418,5.847,48.0
42.927,-0.415,5.688,34.0
41.203,-0.39,5.23,38.0
40.944,-0.379,4.965,16.0
41.134,-0.372,4.76,43.0
41.206,-0.365,4.541,36.0
42.632,-0.375,5.911,39.0
42.616,-0.366,5.671,19.0
41.161,-0.345,5.247,33.0
43.056,-0.352,5.245,5.0
40.868,-0.326,4.751,43.0
41.256,-0.321,4.567,27.0
42.259,-0.325,5.882,43.0
42.729,-0.321,5.708,22.0
41.129,-0.3,5.264,35.0
43.102,-0.306,5.271,22.0
40.926,-0.282,4.777,40.0
41.539,-0.279,4.618,37.0
42.08,-0.278,5.877,36.0
42.184,-0.27,5.654,38.0
41.152,-0.255,5.285,38.0
41.072,-0.246,5.041,36.0
40.988,-0.238,4.802,42.0
41.599,-0.233,4.643,30.0
42.049,-0.231,5.89,28.0
42.092,-0.223,5.659,35.0
41.116,-0.21,5.298,37.0
41.029,-0.201,5.053,42.0
41.039,-0.193,4.824,42.0
41.573,-0.187,4.656,16.0
42.76,-0.187,6.006,31.0
42.1,-0.176,5.676,41.0
41.2,-0.164,5.323,26.0
41.198,-0.156,5.088,39.0
41.058,-0.147,4.841,41.0
41.336,-0.14,4.643,35.0
42.238,-0.138,5.947,28.0
42.173,-0.129,5.7,28.0
48.252,-0.138,6.25,22.0
41.115,-0.11,5.09,40.0
41.133,-0.102,4.862,44.0
41.397,-0.094,4.662,33.0
42.077,-0.09,5.936,35.0
42.08,-0.082,5.699,44.0
48.121,-0.084,6.246,11.0
41.088,-0.063,5.097,33.0
41.068,-0.055,4.865,30.0
41.536,-0.048,4.688,16.0
42.071,-0.042,5.945,35.0
42.055,-0.034,5.705,40.0
48.062,-0.03,6.249,8.0
41.022,-0.017,5.098,41.0
41.054,-0.009,4.871,38.0
41.429,-0.001,4.684,14.0
42.174,0.005,5.968,23.0
42.139,0.014,5.724,47.0
0.0,0.0,0.0,0.0
41.069,0.028,5.111,40.0
40.985,0.037,4.87,31.0
41.194,0.044,4.663,23.0
42.63,0.053,6.039,18.0
42.137,0.061,5.73,47.0
41.973,0.068,5.47,23.0
41.062,0.075,5.115,41.0
40.943,0.083,4.869,30.0
41.047,0.091,4.651,32.0
42.412,0.102,6.012,7.0
42.123,0.109,5.732,52.0
41.886,0.116,5.462,23.0
41.168,0.122,5.131,34.0
41.033,0.129,4.883,28.0
51.82,0.173,5.875,6.0
53.103,0.188,7.53,5.0
42.188,0.157,5.742,31.0
42.365,0.165,5.526,41.0
41.004,0.168,5.112,41.0
41.08,0.176,4.889,25.0
41.265,0.184,4.679,41.0
42.159,0.197,5.979,13.0
42.231,0.205,5.748,37.0
42.329,0.213,5.521,39.0
40.844,0.214,5.091,38.0
41.068,0.222,4.887,15.0
41.199,0.231,4.67,27.0
42.239,0.246,5.988,35.0
42.239,0.253,5.747,38.0
42.318,0.262,5.517,28.0
40.693,0.259,5.07,38.0
41.219,0.27,4.902,35.0
41.181,0.277,4.665,25.0
42.522,0.295,6.025,13.0
42.191,0.301,5.737,34.0
41.704,0.305,5.433,18.0
40.679,0.305,5.063,43.0
40.762,0.313,4.843,45.0
41.086,0.323,4.649,26.0
42.532,0.344,6.02,2.0
41.913,0.346,5.693,37.0
40.752,0.344,5.302,14.0
40.641,0.351,5.052,46.0
40.687,0.358,4.827,43.0
41.016,0.368,4.634,36.0
41.5,0.383,5.866,17.0
41.516,0.39,5.631,48.0
40.876,0.391,5.31,16.0
40.646,0.396,5.045,44.0
40.788,0.404,4.83,45.0
41.322,0.417,4.659,43.0
41.389,0.428,5.841,45.0
41.107,0.432,5.566,22.0
41.043,0.439,5.322,20.0
40.594,0.44,5.028,41.0
40.797,0.449,4.821,41.0
41.396,0.463,4.657,40.0
41.178,0.472,5.8,40.0
40.558,0.472,5.48,41.0
40.735,0.48,5.27,38.0
40.573,0.485,5.014,46.0
40.826,0.495,4.812,43.0
41.451,0.51,4.65,38.0
41.162,0.517,5.785,41.0
40.654,0.518,5.479,39.0
40.663,0.525,5.248,39.0
40.749,0.532,5.021,50.0
40.949,0.542,4.812,36.0
41.0,0.549,4.585,34.0
40.92,0.559,5.735,39.0
40.701,0.563,5.47,41.0
0.0,0.0,0.0,0.0
40.639,0.575,4.992,39.0
40.543,0.58,4.748,37.0
40.723,0.59,4.537,36.0
40.577,0.599,5.671,39.0
40.524,0.605,5.43,46.0
41.465,0.625,5.317,18.0
40.525,0.618,4.96,44.0
40.474,0.623,4.723,49.0
40.623,0.632,4.508,40.0
40.512,0.642,5.643,44.0
40.591,0.65,5.42,42.0
41.492,0.671,5.301,18.0
40.559,0.662,4.945,39.0
40.472,0.667,4.703,43.0
40.576,0.675,4.483,41.0
40.582,0.687,5.632,45.0
40.541,0.692,5.392,41.0
41.427,0.714,5.271,31.0
40.636,0.706,4.933,32.0
40.485,0.709,4.683,42.0
40.643,0.718,4.469,41.0
40.869,0.735,5.649,43.0
40.518,0.734,5.367,42.0
40.69,0.743,5.155,44.0
40.95,0.754,4.948,38.0
40.546,0.752,4.667,36.0
40.776,0.762,4.46,43.0
40.581,0.772,5.585,48.0
40.677,0.779,5.363,48.0
40.656,0.785,5.126,34.0
40.798,0.793,4.905,38.0
40.446,0.792,4.63,42.0
40.559,0.8,4.411,51.0
40.912,0.82,5.605,39.0
41.064,0.829,5.388,34.0
40.339,0.82,5.06,45.0
40.402,0.826,4.831,42.0
40.516,0.834,4.611,37.0
40.631,0.842,4.392,43.0
40.865,0.86,5.57,47.0
40.858,0.866,5.333,34.0
40.454,0.862,5.046,37.0
40.349,0.865,4.796,37.0
40.698,0.878,4.604,31.0
40.712,0.884,4.372,41.0
41.106,0.906,5.573,17.0
40.869,0.906,5.304,34.0
40.376,0.9,5.007,37.0
40.337,0.904,4.765,39.0
40.512,0.914,4.552,39.0
40.648,0.922,4.334,43.0
40.688,0.936,5.485,45.0
40.756,0.943,5.258,37.0
40.31,0.938,4.967,43.0
40.26,0.941,4.724,30.0
40.437,0.951,4.512,45.0
40.749,0.963,4.313,39.0
40.917,0.981,5.483,38.0
40.356,0.972,5.174,38.0
40.488,0.98,4.956,32.0
40.296,0.981,4.695,38.0
40.611,0.993,4.498,42.0
40.842,1.003,4.289,40.0
40.823,1.017,5.436,43.0
40.281,1.008,5.129,41.0
40.338,1.014,4.903,35.0
40.265,1.017,4.657,33.0
40.805,1.035,4.484,35.0
40.915,1.043,4.26,38.0
40.93,1.057,5.413,41.0
40.412,1.048,5.11,37.0
40.254,1.048,4.856,35.0
40.327,1.054,4.627,33.0
40.686,1.068,4.434,40.0
40.974,1.08,4.229,34.0
41.024,1.096,5.387,38.0
40.37,1.082,5.067,42.0
40.381,1.087,4.834,39.0
40.479,1.094,4.607,32.0
40.753,1.105,4.403,41.0
41.066,1.118,4.2,35.0
40.681,1.122,5.303,42.0
40.395,1.118,5.03,42.0
40.415,1.122,4.798,40.0
40.519,1.129,4.572,39.0
40.964,1.146,4.385,37.0
41.016,1.152,4.154,40.0
40.705,1.157,5.265,36.0
40.364,1.151,4.985,31.0
40.561,1.161,4.774,32.0
40.744,1.17,4.555,25.0
40.891,1.178,4.335,38.0
40.787,1.179,4.089,37.0
40.721,1.191,5.224,37.0
40.379,1.184,4.945,43.0
40.499,1.192,4.724,38.0
40.609,1.198,4.497,30.0
40.938,1.212,4.296,37.0
41.6,1.236,4.126,47.0
40.898,1.229,5.202,33.0
41.0,1.235,4.976,16.0
40.752,1.231,4.709,38.0
40.611,1.23,4.453,41.0
40.835,1.241,4.241,33.0
41.227,1.256,4.043,35.0
41.019,1.264,5.171,33.0
40.652,1.256,4.888,16.0
40.541,1.255,4.638,28.0
40.697,1.263,4.416,35.0
40.721,1.268,4.182,37.0
41.177,1.285,3.991,43.0
40.654,1.283,5.078,38.0
40.604,1.284,4.834,37.0
41.265,1.308,4.673,23.0
40.768,1.296,4.375,37.0
40.659,1.295,4.128,42.0
40.988,1.309,3.925,33.0
40.977,1.322,5.069,43.0
40.618,1.314,4.787,48.0
41.673,1.35,4.669,28.0
41.118,1.335,4.364,38.0
40.928,1.332,4.106,44.0
45.471,1.483,4.299,3.0
41.055,1.353,5.028,37.0
40.987,1.353,4.78,39.0
41.226,1.364,4.568,41.0
41.028,1.36,4.303,39.0
40.727,1.353,4.035,39.0
40.335,1.342,3.763,41.0
41.069,1.381,4.977,19.0
41.034,1.382,4.733,35.0
40.953,1.381,4.485,42.0
40.708,1.376,4.217,37.0
40.628,1.376,3.973,41.0
40.363,1.369,3.714,45.0
41.19,1.411,4.938,28.0
41.502,1.424,4.733,53.0
40.859,1.403,4.422,16.0
40.723,1.401,4.166,39.0
40.534,1.397,3.911,39.0
40.336,1.392,3.658,39.0
41.173,1.435,4.881,22.0
41.581,1.451,4.686,31.0
40.53,1.416,4.331,43.0
40.675,1.423,4.106,40.0
40.51,1.419,3.854,32.0
40.361,1.416,3.606,39.0
41.159,1.457,4.823,11.0
41.418,1.468,4.611,18.0
40.707,1.445,4.295,39.0
40.546,1.441,4.037,36.0
40.414,1.438,3.789,40.0
40.562,1.445,3.568,40.0
41.177,1.48,4.767,22.0
40.755,1.466,4.48,35.0
40.82,1.47,4.249,17.0
40.51,1.461,3.977,40.0
40.389,1.458,3.73,38.0
40.342,1.457,3.492,42.0
41.041,1.496,4.693,25.0
40.665,1.483,4.412,37.0
40.843,1.491,4.193,34.0
40.427,1.477,3.91,39.0
40.218,1.471,3.657,42.0
40.334,1.477,3.433,49.0
40.707,1.502,4.595,30.0
40.584,1.499,4.343,39.0
41.038,1.517,4.153,16.0
40.373,1.493,3.846,38.0
40.26,1.49,3.601,39.0
40.551,1.502,3.392,34.0
40.745,1.522,4.539,32.0
40.498,1.513,4.274,41.0
40.845,1.527,4.072,16.0
40.35,1.509,3.783,40.0
40.306,1.509,3.545,42.0
40.748,1.526,3.347,26.0
40.754,1.538,4.477,35.0
40.546,1.531,4.218,35.0
40.587,1.533,3.985,38.0
40.462,1.529,3.733,37.0
40.701,1.539,3.518,32.0
40.452,1.53,3.262,40.0
40.524,1.544,4.39,36.0
40.831,1.556,4.185,16.0
40.371,1.539,3.901,47.0
40.341,1.538,3.659,40.0
40.585,1.548,3.445,20.0
40.424,1.543,3.197,41.0
40.579,1.56,4.332,38.0
40.675,1.563,4.105,26.0
40.476,1.556,3.848,35.0
40.325,1.55,3.595,38.0
40.471,1.556,3.372,35.0
40.519,1.558,3.14,38.0
40.524,1.57,4.262,38.0
40.54,1.57,4.026,34.0
40.354,1.563,3.772,43.0
40.205,1.557,3.519,46.0
40.405,1.565,3.302,39.0
40.658,1.574,3.087,28.0
40.526,1.58,4.196,44.0
40.505,1.579,3.957,35.0
40.374,1.573,3.708,42.0
40.566,1.581,3.485,23.0
40.395,1.574,3.235,43.0
40.626,1.582,3.018,39.0
40.954,1.606,4.173,21.0
40.435,1.585,3.883,39.0
40.544,1.588,3.658,38.0
40.426,1.583,3.407,39.0
40.43,1.583,3.172,42.0
40.669,1.592,2.955,40.0
40.608,1.599,4.07,25.0
40.359,1.589,3.809,40.0
40.27,1.585,3.565,40.0
40.35,1.587,3.333,43.0
40.662,1.598,3.122,37.0
40.765,1.602,2.893,36.0
40.415,1.597,3.983,40.0
40.54,1.601,3.758,34.0
40.431,1.596,3.511,35.0
40.41,1.594,3.27,38.0
40.715,1.605,3.058,41.0
41.055,1.618,2.844,37.0
40.383,1.601,3.911,43.0
40.523,1.605,3.687,36.0
40.479,1.602,3.447,35.0
40.388,1.597,3.2,46.0
40.66,1.607,2.985,45.0
44.794,1.769,3.028,9.0
40.385,1.603,3.842,42.0
40.328,1.599,3.6,37.0
40.366,1.599,3.368,39.0
40.534,1.605,3.141,42.0
40.721,1.611,2.919,35.0
44.877,1.774,2.957,6.0
40.509,1.609,3.784,31.0
40.448,1.605,3.541,38.0
40.43,1.603,3.304,37.0
40.694,1.611,3.084,40.0
41.046,1.624,2.872,33.0
41.076,1.624,2.635,33.0
40.538,1.609,3.716,37.0
40.54,1.608,3.479,35.0
40.401,1.6,3.231,43.0
40.664,1.609,3.011,42.0
44.817,1.772,3.058,5.0
41.082,1.622,2.564,8.0
40.398,1.602,3.631,38.0
40.384,1.6,3.394,40.0
40.475,1.601,3.166,45.0
40.683,1.607,2.941,41.0
44.762,1.766,2.975,11.0
64.901,2.558,3.937,21.0
40.32,1.595,3.552,42.0
40.388,1.596,3.322,39.0
40.692,1.606,3.11,38.0
40.864,1.61,2.881,38.0
41.08,1.616,2.657,27.0
65.652,2.58,3.865,40.0
40.498,1.597,3.495,30.0
40.385,1.59,3.25,43.0
40.657,1.598,3.034,42.0
41.121,1.614,2.825,31.0
41.077,1.609,2.583,2.0
65.668,2.57,3.748,40.0
40.419,1.587,3.415,43.0
40.455,1.585,3.182,42.0
40.658,1.591,2.96,41.0
44.717,1.747,2.991,35.0
64.911,2.531,3.965,16.0
64.695,2.519,3.575,10.0
40.36,1.576,3.336,46.0
40.664,1.585,3.124,31.0
40.767,1.586,2.895,41.0
44.736,1.737,2.911,24.0
65.445,2.537,3.879,40.0
72.76,2.816,3.889,6.0
40.435,1.569,3.269,42.0
40.618,1.573,3.047,36.0
41.077,1.587,2.841,41.0
80.393,3.1,5.085,14.0
65.838,2.534,3.781,15.0
66.065,2.538,3.411,14.0
40.473,1.558,3.197,46.0
40.684,1.563,2.977,36.0
44.718,1.714,3.011,28.0
65.246,2.496,4.007,13.0
64.637,2.467,3.594,24.0
66.15,2.52,3.294,30.0
40.626,1.551,3.135,29.0
40.754,1.552,2.906,41.0
44.748,1.7,2.931,10.0
65.444,2.481,3.899,31.0
0.0,0.0,0.0,0.0
66.25,2.5,3.177,24.0
40.61,1.535,3.058,40.0
40.911,1.543,2.842,45.0
71.957,2.706,4.58,9.0
66.249,2.485,3.825,17.0
66.247,2.48,3.44,27.0
66.289,2.475,3.057,19.0
40.655,1.52,2.986,40.0
44.711,1.667,3.023,7.0
65.77,2.446,4.064,23.0
0.0,0.0,0.0,0.0
66.249,2.45,3.316,26.0
72.519,2.676,3.21,22.0
40.736,1.504,2.916,41.0
71.9,2.648,4.728,16.0
65.882,2.419,3.948,29.0
66.294,2.427,3.58,24.0
72.483,2.647,3.494,9.0
72.466,2.639,3.072,23.0
40.957,1.492,2.855,16.0
66.306,2.408,4.235,12.0
66.361,2.403,3.853,21.0
66.318,2.394,3.458,22.0
72.417,2.606,3.356,26.0
72.441,2.6,2.937,28.0
44.713,1.605,3.034,26.0
65.741,2.352,4.077,23.0
66.353,2.367,3.73,27.0
72.34,2.572,3.638,17.0
72.38,2.565,3.22,34.0
72.407,2.558,2.801,33.0
66.499,2.349,4.388,18.0
66.299,2.334,3.989,22.0
72.177,2.532,3.923,34.0
72.339,2.529,3.504,37.0
72.393,2.522,3.086,37.0
72.395,2.514,2.666,37.0
65.894,2.287,4.225,13.0
66.437,2.298,3.873,17.0
72.235,2.489,3.791,32.0
72.337,2.483,3.369,37.0
72.401,2.477,2.953,37.0
72.387,2.467,2.532,33.0
65.68,2.237,4.09,14.0
72.432,2.458,4.088,26.0
72.305,2.444,3.661,24.0
72.38,2.436,3.237,42.0
72.433,2.429,2.819,34.0
72.417,2.419,2.399,31.0
72.143,2.407,4.357,13.0
72.235,2.4,3.943,26.0
72.399,2.396,3.531,19.0
72.432,2.387,3.104,34.0
72.458,2.378,2.685,32.0
72.468,2.368,2.265,28.0
72.486,2.365,4.243,8.0
65.587,2.13,3.457,20.0
72.411,2.342,3.396,27.0
72.507,2.334,2.972,21.0
190.7,6.115,6.712,16.0
72.447,2.312,2.13,1.0
0.0,0.0,0.0,0.0
0.0,0.0,0.0,0.0
0.0,0.0,0.0,0.0
0.0,0.0,0.0,0.0
0.0,0.0,0.0,0.0
0.0,0.0,0.0,0.0
0.0,0.0,0.0,0.0
0.0,0.0,0.0,0.0
46.772,-0.622,-0.332,0.0
0.0,0.0,0.0,0.0
30.981,-0.431,-0.576,0.0
26.449,-0.376,-0.643,0.0
0.0,0.0,0.0,0.0
0.0,0.0,0.0,0.0
46.679,-0.704,-0.384,1.0
36.105,-0.556,-0.507,0.0
30.165,-0.474,-0.595,0.0
0.0,0.0,0.0,0.0
0.0,0.0,0.0,0.0
0.0,0.0,0.0,0.0
0.0,0.0,0.0,0.0
35.06,-0.604,-0.53,2.0
29.31,-0.514,-0.61,0.0
24.902,-0.444,-0.66,0.0
0.0,0.0,0.0,0.0
0.0,0.0,0.0,0.0
0.0,0.0,0.0,0.0
0.0,0.0,0.0,0.0
28.569,-0.553,-0.625,0.0
24.371,-0.48,-0.672,0.0
0.0,0.0,0.0,0.0
50.899,-1.032,-0.293,0.0
0.0,0.0,0.0,0.0
32.077,-0.67,-0.552,0.0
0.0,0.0,0.0,0.0
18.162,-0.391,-0.519,4.0
0.0,0.0,0.0,0.0
0.0,0.0,0.0,0.0
0.0,0.0,0.0,0.0
31.026,-0.707,-0.566,0.0
26.979,-0.623,-0.645,0.0
18.152,-0.425,-0.537,150.0
0.0,0.0,0.0,0.0
47.223,-1.135,-0.366,0.0
37.856,-0.922,-0.508,0.0
30.364,-0.749,-0.583,0.0
21.916,-0.548,-0.545,152.0
21.889,-0.555,-0.669,21.0
0.0,0.0,0.0,0.0
43.842,-1.136,-0.381,1.0
35.31,-0.927,-0.507,0.0
21.911,-0.582,-0.441,29.0
21.861,-0.588,-0.564,210.0
21.861,-0.595,-0.688,78.0
0.0,0.0,0.0,0.0
43.791,-1.218,-0.42,2.0
34.737,-0.977,-0.529,0.0
21.91,-0.624,-0.46,9.0
21.902,-0.631,-0.584,154.0
21.837,-0.636,-0.706,14.0
0.0,0.0,0.0,0.0
41.255,-1.226,-0.431,2.0
34.267,-1.029,-0.552,0.0
0.0,0.0,0.0,0.0
24.21,-0.744,-0.666,0.0
21.878,-0.679,-0.726,3.0
50.227,-1.571,-0.281,0.0
41.448,-1.31,-0.466,1.0
0.0,0.0,0.0,0.0
27.681,-0.894,-0.627,0.0
23.881,-0.779,-0.676,0.0
21.206,-0.699,-0.721,0.0
0.0,0.0,0.0,0.0
38.227,-1.282,-0.46,0.0
0.0,0.0,0.0,0.0
0.0,0.0,0.0,0.0
23.508,-0.812,-0.684,0.0
20.781,-0.725,-0.722,0.0
46.872,-1.647,-0.335,0.0
37.956,-1.347,-0.486,0.0
0.0,0.0,0.0,0.0
0.0,0.0,0.0,0.0
23.133,-0.845,-0.69,0.0
20.498,-0.756,-0.728,0.0
48.365,-1.793,-0.381,0.0
0.0,0.0,0.0,0.0
30.774,-1.162,-0.589,0.0
26.014,-0.991,-0.647,0.0
22.831,-0.878,-0.697,0.0
20.304,-0.787,-0.734,0.0
45.259,-1.766,-0.387,0.0
0.0,0.0,0.0,0.0
0.0,0.0,0.0,0.0
25.892,-1.037,-0.661,0.0
22.6,-0.913,-0.705,0.0
19.992,-0.815,-0.736,0.0
44.964,-1.842,-0.413,0.0
0.0,0.0,0.0,0.0
0.0,0.0,0.0,0.0
24.887,-1.045,-0.651,0.0
22.043,-0.934,-0.701,0.0
19.703,-0.841,-0.738,0.0
43.153,-1.851,-0.422,0.0
0.0,0.0,0.0,0.0
0.0,0.0,0.0,0.0
24.7,-1.085,-0.661,0.0
21.862,-0.968,-0.708,0.0
19.544,-0.872,-0.743,0.0
20.033,-0.898,-0.207,2.0
20.015,-0.904,-0.319,0.0
28.509,-1.298,-0.615,0.0
24.563,-1.127,-0.67,0.0
21.617,-1.0,-0.712,0.0
19.594,-0.913,-0.755,0.0
20.006,-0.936,-0.217,28.0
20.028,-0.944,-0.33,25.0
20.062,-0.952,-0.443,20.0
20.065,-0.96,-0.558,2.0
20.03,-0.965,-0.669,1.0
19.485,-0.946,-0.761,0.0
19.998,-0.974,-0.227,37.0
20.007,-0.982,-0.339,29.0
20.044,-0.991,-0.452,28.0
20.073,-1.0,-0.567,24.0
20.021,-1.004,-0.678,10.0
19.829,-1.002,-0.783,0.0
20.012,-1.014,-0.236,29.0
20.025,-1.022,-0.348,24.0
20.04,-1.03,-0.461,29.0
20.07,-1.038,-0.576,28.0
20.047,-1.045,-0.688,11.0
19.241,-1.009,-0.768,0.0
20.09,-1.057,-0.245,0.0
20.025,-1.061,-0.356,0.0
20.048,-1.069,-0.469,0.0
23.567,-1.265,-0.685,1.0
20.16,-1.089,-0.699,2.0
18.666,-1.016,-0.752,0.0
0.0,0.0,0.0,0.0
0.0,0.0,0.0,0.0
26.617,-1.471,-0.632,0.0
23.605,-1.313,-0.695,1.0
19.991,-1.119,-0.7,0.0
18.604,-1.048,-0.756,0.0
38.561,-2.178,-0.497,0.0
0.0,0.0,0.0,0.0
19.992,-1.143,-0.481,0.0
20.002,-1.151,-0.595,2.0
19.951,-1.156,-0.705,4.0
18.503,-1.078,-0.757,0.0
20.003,-1.168,-0.263,150.0
19.994,-1.175,-0.375,150.0
19.982,-1.181,-0.486,150.0
19.982,-1.188,-0.599,150.0
19.968,-1.195,-0.711,21.0
0.0,0.0,0.0,0.0
19.983,-1.205,-0.268,150.0
19.992,-1.213,-0.379,80.0
19.992,-1.22,-0.491,2.0
20.003,-1.228,-0.605,0.0
19.979,-1.234,-0.715,4.0
18.323,-1.138,-0.758,0.0
20.075,-1.249,-0.273,19.0
20.097,-1.258,-0.385,27.0
20.107,-1.265,-0.497,26.0
20.128,-1.274,-0.612,25.0
20.009,-1.273,-0.72,4.0
20.135,-1.289,-0.837,0.0
20.053,-1.286,-0.276,29.0
20.06,-1.293,-0.388,30.0
20.087,-1.302,-0.5,31.0
20.119,-1.312,-0.615,27.0
19.987,-1.31,-0.722,3.0
20.163,-1.329,-0.841,0.0
20.05,-1.324,-0.279,29.0
20.07,-1.332,-0.391,22.0
20.08,-1.34,-0.502,18.0
20.138,-1.351,-0.618,2.0
19.921,-1.344,-0.722,2.0
18.313,-1.242,-0.765,0.0
20.055,-1.362,-0.28,13.0
30.423,-2.077,-0.595,1.0
0.0,0.0,0.0,0.0
22.843,-1.576,-0.702,0.0
19.916,-1.381,-0.723,2.0
18.152,-1.265,-0.76,0.0
35.725,-2.493,-0.502,0.0
30.271,-2.122,-0.593,0.0
26.236,-1.849,-0.659,0.0
22.788,-1.614,-0.701,0.0
19.769,-1.407,-0.718,1.0
18.245,-1.305,-0.764,0.0
0.0,0.0,0.0,0.0
30.445,-2.191,-0.596,0.0
25.521,-1.846,-0.641,0.0
22.835,-1.659,-0.703,0.0
19.981,-1.459,-0.726,0.0
18.056,-1.325,-0.756,0.0
38.09,-2.798,-0.535,0.0
0.0,0.0,0.0,0.0
26.071,-1.933,-0.654,0.0
22.57,-1.681,-0.694,0.0
20.468,-1.532,-0.742,0.0
18.199,-1.369,-0.761,0.0
34.573,-2.602,-0.483,1.0
30.309,-2.292,-0.591,0.0
0.0,0.0,0.0,0.0
22.982,-1.754,-0.704,0.0
20.829,-1.597,-0.754,0.0
18.31,-1.41,-0.764,0.0
31.981,-2.465,-0.443,2.0
30.975,-2.398,-0.6,0.0
26.204,-2.038,-0.653,0.0
22.841,-1.784,-0.697,0.0
0.0,0.0,0.0,0.0
18.222,-1.436,-0.758,0.0
31.531,-2.487,-0.432,2.0
29.097,-2.305,-0.56,1.0
26.262,-2.089,-0.65,0.0
22.725,-1.815,-0.69,0.0
20.578,-1.651,-0.738,0.0
18.495,-1.49,-0.766,0.0
0.0,0.0,0.0,0.0
27.144,-2.198,-0.517,2.0
26.549,-2.158,-0.652,0.0
22.792,-1.861,-0.688,1.0
20.656,-1.693,-0.737,0.0
18.576,-1.53,-0.765,0.0
29.977,-2.469,-0.399,25.0
26.542,-2.195,-0.5,2.0
24.981,-2.074,-0.608,1.0
22.866,-1.907,-0.685,0.0
20.582,-1.723,-0.73,0.0
18.493,-1.555,-0.758,0.0
29.852,-2.51,-0.391,3.0
27.032,-2.282,-0.502,7.0
23.681,-2.007,-0.57,3.0
23.16,-1.971,-0.687,0.0
20.763,-1.774,-0.73,0.0
18.595,-1.595,-0.756,0.0
29.89,-2.565,-0.382,37.0
26.309,-2.266,-0.481,25.0
23.37,-2.02,-0.555,4.0
22.202,-1.927,-0.652,1.0
21.786,-1.898,-0.76,0.0
18.825,-1.647,-0.76,0.0
29.878,-2.614,-0.372,100.0
26.143,-2.296,-0.469,22.0
23.53,-2.074,-0.552,8.0
21.032,-1.861,-0.61,1.0
20.757,-1.843,-0.717,0.0
0.0,0.0,0.0,0.0
29.864,-2.662,-0.362,10.0
26.871,-2.404,-0.473,24.0
23.211,-2.084,-0.535,20.0
20.559,-1.853,-0.589,2.0
19.828,-1.793,-0.677,1.0
19.504,-1.771,-0.773,0.0
29.877,-2.713,-0.35,7.0
27.43,-2.499,-0.472,19.0
22.693,-2.075,-0.514,19.0
20.762,-1.905,-0.586,2.0
18.942,-1.744,-0.639,1.0
18.703,-1.728,-0.733,0.0
29.869,-2.76,-0.337,6.0
28.948,-2.684,-0.485,3.0
22.817,-2.122,-0.507,16.0
20.832,-1.944,-0.579,8.0
18.581,-1.74,-0.618,2.0
17.934,-1.685,-0.695,1.0
36.244,-3.406,-0.393,1.0
29.211,-2.754,-0.476,1.0
23.127,-2.188,-0.503,16.0
20.364,-1.933,-0.556,17.0
18.64,-1.775,-0.611,3.0
17.307,-1.653,-0.662,1.0
35.466,-3.388,-0.367,12.0
29.263,-2.804,-0.462,4.0
23.281,-2.238,-0.495,19.0
20.034,-1.932,-0.537,18.0
18.876,-1.826,-0.609,8.0
17.062,-1.656,-0.644,2.0
35.528,-3.449,-0.349,21.0
23.713,-2.309,-0.362,3.0
23.395,-2.285,-0.485,26.0
20.43,-2.001,-0.537,18.0
18.716,-1.839,-0.594,16.0
17.21,-1.697,-0.64,2.0
35.723,-3.521,-0.331,18.0
23.728,-2.346,-0.349,1.0
23.501,-2.33,-0.473,26.0
20.905,-2.079,-0.537,19.0
18.553,-1.851,-0.578,16.0
17.439,-1.745,-0.638,4.0
36.041,-3.605,-0.312,13.0
29.856,-2.995,-0.421,17.0
23.545,-2.369,-0.46,23.0
21.255,-2.145,-0.533,19.0
18.82,-1.905,-0.575,17.0
17.308,-1.757,-0.623,15.0
36.964,-3.751,-0.298,16.0
29.858,-3.038,-0.403,23.0
23.55,-2.403,-0.445,23.0
21.37,-2.187,-0.523,24.0
18.944,-1.944,-0.566,18.0
17.233,-1.773,-0.609,18.0
33.12,-3.407,-0.245,26.0
30.092,-3.104,-0.386,28.0
23.544,-2.435,-0.43,11.0
21.494,-2.229,-0.511,23.0
19.242,-2.001,-0.562,19.0
17.554,-1.831,-0.609,17.0
33.097,-3.45,-0.222,75.0
30.276,-3.164,-0.368,24.0
23.548,-2.468,-0.414,0.0
21.777,-2.288,-0.503,17.0
19.377,-2.041,-0.553,21.0
17.716,-1.871,-0.601,19.0
33.101,-3.495,-0.199,81.0
31.166,-3.299,-0.356,10.0
25.642,-2.721,-0.432,5.0
22.11,-2.352,-0.495,24.0
19.498,-2.08,-0.542,18.0
17.872,-1.911,-0.594,19.0
33.112,-3.54,-0.175,58.0
31.773,-3.405,-0.339,20.0
25.297,-2.717,-0.407,16.0
22.099,-2.38,-0.478,18.0
19.746,-2.132,-0.534,18.0
17.976,-1.945,-0.583,21.0
41.28,-4.466,-0.186,4.0
32.17,-3.488,-0.319,17.0
0.0,0.0,0.0,0.0
22.552,-2.457,-0.47,21.0
19.768,-2.159,-0.519,18.0
18.176,-1.989,-0.576,19.0
41.376,-4.527,-0.154,17.0
35.554,-3.899,-0.325,9.0
0.0,0.0,0.0,0.0
22.893,-2.521,-0.459,23.0
20.427,-2.255,-0.52,29.0
18.316,-2.027,-0.565,18.0
42.009,-4.647,-0.122,17.0
35.822,-3.971,-0.297,20.0
28.347,-3.149,-0.388,18.0
23.073,-2.569,-0.443,20.0
20.525,-2.29,-0.505,23.0
18.562,-2.075,-0.557,18.0
42.552,-4.756,-0.088,17.0
36.24,-4.059,-0.27,13.0
28.921,-3.246,-0.372,26.0
23.391,-2.63,-0.43,21.0
20.795,-2.343,-0.494,18.0
18.757,-2.118,-0.547,19.0
0.0,0.0,0.0,0.0
37.155,-4.203,-0.245,15.0
29.677,-3.363,-0.356,26.0
23.914,-2.716,-0.418,24.0
20.995,-2.389,-0.48,18.0
18.964,-2.162,-0.536,21.0
46.288,-5.276,-0.014,21.0
38.038,-4.344,-0.217,22.0
30.441,-3.483,-0.338,27.0
24.245,-2.779,-0.402,19.0
21.435,-2.462,-0.471,20.0
19.19,-2.208,-0.525,30.0
47.152,-5.424,0.027,22.0
38.646,-4.453,-0.185,16.0
30.965,-3.574,-0.315,15.0
24.573,-2.842,-0.385,18.0
21.795,-2.525,-0.459,20.0
19.364,-2.248,-0.512,22.0
48.735,-5.654,0.073,23.0
39.076,-4.541,-0.151,15.0
35.382,-4.119,-0.327,8.0
25.112,-2.928,-0.37,19.0
22.191,-2.592,-0.446,20.0
19.794,-2.316,-0.505,17.0
50.812,-5.944,0.125,25.0
0.0,0.0,0.0,0.0
35.53,-4.17,-0.294,20.0
0.0,0.0,0.0,0.0
22.652,-2.667,-0.433,19.0
20.136,-2.375,-0.494,18.0
51.767,-6.104,0.177,15.0
42.577,-5.028,-0.082,17.0
35.979,-4.255,-0.263,15.0
28.327,-3.355,-0.362,16.0
22.991,-2.728,-0.418,20.0
20.445,-2.429,-0.481,19.0
77.972,-9.262,0.343,3.0
46.018,-5.474,-0.043,20.0
37.111,-4.421,-0.234,16.0
29.117,-3.474,-0.343,17.0
23.599,-2.82,-0.405,21.0
20.967,-2.509,-0.472,21.0
83.497,-9.989,0.453,4.0
46.424,-5.561,0.002,21.0
37.94,-4.551,-0.201,24.0
29.847,-3.585,-0.322,20.0
24.149,-2.905,-0.39,21.0
21.308,-2.567,-0.459,21.0
0.0,0.0,0.0,0.0
46.866,-5.651,0.05,18.0
38.527,-4.651,-0.165,14.0
30.599,-3.699,-0.298,12.0
24.836,-3.006,-0.375,21.0
21.641,-2.623,-0.443,21.0
84.842,-10.281,0.634,12.0
49.557,-6.012,0.104,23.0
38.826,-4.716,-0.126,14.0
35.413,-4.306,-0.309,10.0
25.254,-3.075,-0.355,18.0
22.003,-2.682,-0.428,23.0
87.019,-10.606,0.741,3.0
52.182,-6.367,0.165,26.0
41.485,-5.067,-0.091,16.0
35.803,-4.378,-0.274,22.0
26.215,-3.209,-0.341,7.0
22.62,-2.772,-0.416,20.0
90.564,-11.098,0.869,7.0
52.635,-6.457,0.222,4.0
0.0,0.0,0.0,0.0
36.536,-4.491,-0.24,15.0
0.0,0.0,0.0,0.0
23.077,-2.843,-0.399,21.0
93.997,-11.578,1.003,8.0
66.807,-8.236,0.355,3.0
46.248,-5.707,-0.001,20.0
37.541,-4.637,-0.206,20.0
0.0,0.0,0.0,0.0
23.755,-2.94,-0.385,22.0
73.233,-9.062,0.862,12.0
83.735,-10.37,0.536,10.0
46.901,-5.813,0.049,21.0
38.338,-4.756,-0.169,17.0
30.531,-3.791,-0.298,9.0
24.341,-3.025,-0.368,23.0
73.279,-9.106,0.942,13.0
85.086,-10.582,0.638,2.0
50.848,-6.329,0.109,5.0
0.0,0.0,0.0,0.0
35.495,-4.425,-0.307,9.0
25.043,-3.124,-0.351,23.0
76.61,-9.558,1.07,18.0
76.628,-9.566,0.66,23.0
0.0,0.0,0.0,0.0
40.742,-5.093,-0.089,16.0
35.822,-4.481,-0.27,26.0
0.0,0.0,0.0,0.0
76.62,-9.593,1.155,19.0
76.59,-9.594,0.745,22.0
62.676,-7.856,0.274,7.0
43.149,-5.412,-0.046,7.0
36.637,-4.598,-0.236,13.0
29.241,-3.672,-0.344,18.0
76.604,-9.621,1.242,20.0
76.576,-9.622,0.831,20.0
76.541,-9.622,0.42,11.0
46.187,-5.809,0.002,21.0
37.642,-4.737,-0.199,21.0
29.515,-3.717,-0.314,20.0
76.623,-9.649,1.329,15.0
76.574,-9.647,0.917,22.0
76.542,-9.647,0.507,25.0
47.046,-5.932,0.055,21.0
38.347,-4.838,-0.16,16.0
30.553,-3.857,-0.291,9.0
76.693,-9.681,1.416,10.0
76.587,-9.671,1.005,17.0
76.551,-9.67,0.594,27.0
50.549,-6.388,0.116,6.0
0.0,0.0,0.0,0.0
35.622,-4.505,-0.299,8.0
87.118,-11.019,1.707,11.0
76.591,-9.69,1.091,11.0
76.544,-9.687,0.682,23.0
52.129,-6.599,0.179,15.0
43.136,-5.462,-0.082,4.0
36.059,-4.568,-0.261,14.0
86.866,-11.005,1.802,11.0
76.674,-9.715,1.179,3.0
76.565,-9.704,0.766,19.0
65.572,-8.312,0.3,6.0
46.006,-5.833,-0.036,14.0
36.974,-4.689,-0.226,14.0
86.721,-11.001,1.898,12.0
117.553,-14.913,1.942,6.0
76.571,-9.715,0.854,14.0
76.496,-9.707,0.437,13.0
46.481,-5.899,0.016,21.0
37.839,-4.803,-0.189,23.0
87.004,-11.047,2.002,5.0
118.993,-15.108,2.102,9.0
76.591,-9.725,0.942,11.0
76.514,-9.716,0.523,22.0
47.228,-5.997,0.071,21.0
38.474,-4.886,-0.148,14.0
69.618,-8.844,1.682,3.0
119.02,-15.119,2.237,7.0
76.645,-9.735,1.03,4.0
76.519,-9.719,0.611,23.0
0.0,0.0,0.0,0.0
0.0,0.0,0.0,0.0
69.592,-8.842,1.76,4.0
119.022,-15.12,2.372,7.0
113.046,-14.359,1.648,7.0
76.54,-9.721,0.698,20.0
52.341,-6.647,0.197,6.0
43.126,-5.477,-0.068,5.0
69.617,-8.843,1.84,4.0
86.673,-11.007,1.826,8.0
117.496,-14.919,1.845,7.0
76.551,-9.718,0.784,16.0
76.519,-9.713,0.375,8.0
46.044,-5.844,-0.02,20.0
69.572,-8.833,1.917,4.0
86.822,-11.019,1.928,12.0
118.955,-15.093,2.003,5.0
76.538,-9.709,0.871,15.0
76.525,-9.705,0.46,16.0
46.752,-5.928,0.031,21.0
69.672,-8.837,1.998,4.0
87.031,-11.035,2.03,5.0
76.677,-9.718,1.377,3.0
76.58,-9.703,0.957,15.0
76.544,-9.695,0.546,24.0
47.777,-6.05,0.085,19.0
69.825,-8.845,2.081,4.0
69.841,-8.843,1.707,4.0
87.104,-11.024,1.662,5.0
76.606,-9.691,1.044,12.0
76.543,-9.679,0.632,26.0
50.693,-6.408,0.147,8.0
69.903,-8.84,2.162,4.0
70.021,-8.85,1.791,4.0
87.041,-10.996,1.758,33.0
76.627,-9.675,1.13,16.0
76.572,-9.664,0.718,25.0
52.592,-6.634,0.211,4.0
70.106,-8.848,2.247,3.0
70.292,-8.866,1.875,4.0
86.727,-10.932,1.849,13.0
76.608,-9.651,1.214,16.0
76.589,-9.643,0.803,22.0
76.555,-9.634,0.392,11.0
70.471,-8.873,2.335,3.0
70.726,-8.898,1.965,3.0
86.53,-10.879,1.939,6.0
76.598,-9.624,1.296,19.0
76.577,-9.615,0.886,19.0
76.577,-9.61,0.476,16.0
78.288,-9.83,2.681,3.0
75.704,-9.498,2.185,19.0
73.013,-9.153,1.715,7.0
76.622,-9.598,1.38,21.0
76.632,-9.593,0.97,14.0
76.613,-9.584,0.559,18.0
75.038,-9.392,2.65,21.0
75.697,-9.466,2.266,11.0
75.559,-9.441,1.855,6.0
76.632,-9.567,1.462,21.0
76.638,-9.56,1.052,17.0
76.64,-9.553,0.64,12.0
75.163,-9.375,2.734,32.0
78.848,-9.825,2.445,29.0
72.995,-9.087,1.87,8.0
76.665,-9.536,1.544,24.0
76.659,-9.527,1.132,17.0
90.819,-11.277,0.854,4.0
0.0,0.0,0.0,0.0
75.296,-9.346,2.414,8.0
75.235,-9.329,2.006,14.0
76.639,-9.493,1.624,10.0
76.69,-9.49,1.213,9.0
93.997,-11.622,0.981,14.0
75.416,-9.331,2.901,11.0
75.244,-9.299,2.49,29.0
0.0,0.0,0.0,0.0
73.243,-9.032,1.628,14.0
76.726,-9.452,1.292,6.0
73.234,-9.013,0.839,7.0
75.548,-9.304,2.983,11.0
75.181,-9.248,2.565,21.0
72.922,-8.959,2.094,9.0
76.754,-9.419,1.783,6.0
76.797,-9.414,1.371,2.0
107.672,-13.185,1.343,16.0
0.0,0.0,0.0,0.0
75.162,-9.199,2.639,28.0
72.938,-8.915,2.168,10.0
76.834,-9.38,1.862,3.0
100.856,-12.297,1.901,6.0
107.824,-13.132,1.452,3.0
75.473,-9.199,3.133,23.0
75.404,-9.178,2.723,21.0
75.032,-9.12,2.305,16.0
73.092,-8.872,1.844,9.0
73.22,-8.876,1.452,12.0
73.269,-8.872,1.058,13.0
73.989,-8.966,3.143,10.0
75.774,-9.169,2.81,17.0
75.096,-9.074,2.379,11.0
72.985,-8.807,1.911,12.0
73.097,-8.808,1.519,31.0
73.259,-8.816,1.128,9.0
73.908,-8.901,3.21,24.0
73.435,-8.831,2.793,10.0
75.025,-9.008,2.448,11.0
73.112,-8.765,1.983,6.0
73.445,-8.793,1.596,7.0
73.134,-8.744,1.194,12.0
73.99,-8.853,3.283,27.0
73.253,-8.751,2.855,16.0
75.008,-8.946,2.517,11.0
78.728,-9.376,2.207,5.0
73.534,-8.744,1.665,7.0
73.16,-8.686,1.261,7.0
73.445,-8.727,3.326,29.0
73.301,-8.696,2.923,12.0
74.841,-8.863,2.579,11.0
78.629,-9.297,2.276,12.0
101.51,-11.983,2.39,10.0
73.299,-8.639,1.329,6.0
73.248,-8.641,3.382,34.0
73.128,-8.611,2.981,16.0
74.685,-8.779,2.64,9.0
78.645,-9.229,2.345,9.0
73.462,-8.606,1.793,11.0
73.268,-8.569,1.393,19.0
73.486,-8.602,3.457,30.0
73.012,-8.531,3.039,24.0
72.674,-8.476,2.631,9.0
74.583,-8.682,2.289,7.0
101.418,-11.786,2.563,6.0
73.406,-8.516,1.458,31.0
73.121,-8.491,3.502,34.0
73.331,-8.499,3.114,25.0
72.64,-8.402,2.691,28.0
80.108,-9.248,2.525,7.0
73.204,-8.436,1.91,10.0
73.22,-8.422,1.514,14.0
72.999,-8.405,3.556,32.0
73.263,-8.418,3.17,28.0
72.933,-8.363,2.761,21.0
75.317,-8.62,2.434,36.0
74.907,-8.557,2.015,16.0
75.152,-8.569,1.613,26.0
72.984,-8.329,3.613,33.0
73.259,-8.342,3.228,13.0
73.345,-8.335,2.834,23.0
75.28,-8.537,2.492,37.0
74.525,-8.434,2.062,17.0
75.014,-8.473,1.669,34.0
70.811,-8.006,3.561,15.0
69.622,-7.854,3.121,29.0
72.236,-8.131,2.846,22.0
74.055,-8.318,2.507,14.0
74.625,-8.365,2.121,32.0
75.169,-8.409,1.728,25.0
33.201,-3.717,1.694,42.0
33.182,-3.706,1.512,36.0
33.181,-3.698,1.331,30.0
33.19,-3.691,1.148,14.0
33.181,-3.682,0.967,3.0
75.216,-8.328,1.783,12.0
33.181,-3.677,1.717,82.0
33.175,-3.668,1.536,80.0
33.175,-3.659,1.354,79.0
33.165,-3.65,1.17,79.0
33.157,-3.64,0.989,74.0
33.155,-3.632,0.809,65.0
33.192,-3.639,1.74,75.0
33.18,-3.629,1.558,77.0
33.162,-3.619,1.376,82.0
33.146,-3.608,1.191,88.0
33.145,-3.6,1.011,82.0
33.136,-3.59,0.83,82.0
33.202,-3.601,1.763,7.0
33.189,-3.59,1.58,30.0
33.194,-3.582,1.399,56.0
33.177,-3.571,1.214,72.0
33.164,-3.561,1.032,69.0
33.154,-3.552,0.851,67.0
69.908,-7.495,3.756,27.0
74.857,-8.005,3.612,7.0
72.371,-7.719,3.096,24.0
72.375,-7.7,2.693,25.0
87.74,-9.311,2.786,13.0
78.713,-8.332,2.07,26.0
69.815,-7.396,3.793,23.0
71.618,-7.567,3.498,17.0
78.041,-8.224,3.385,11.0
74.876,-7.87,2.829,28.0
78.205,-8.198,2.528,11.0
78.571,-8.216,2.11,24.0
71.781,-7.511,3.94,9.0
72.406,-7.555,3.577,29.0
77.956,-8.112,3.424,16.0
74.696,-7.751,2.865,12.0
78.325,-8.106,2.575,10.0
78.521,-8.105,2.151,11.0
69.05,-7.133,3.828,24.0
72.359,-7.453,3.614,50.0
72.074,-7.402,3.204,23.0
72.748,-7.45,2.828,8.0
74.456,-7.604,2.485,29.0
78.452,-7.989,2.19,26.0
71.293,-7.267,3.988,15.0
72.188,-7.336,3.641,45.0
74.73,-7.572,3.359,9.0
72.481,-7.323,2.852,23.0
74.258,-7.481,2.514,9.0
73.91,-7.425,2.097,12.0
68.906,-6.927,3.887,11.0
71.406,-7.156,3.634,20.0
71.062,-7.1,3.226,19.0
77.912,-7.762,3.101,10.0
78.839,-7.83,2.705,10.0
73.91,-7.32,2.13,10.0
71.237,-7.06,4.05,24.0
70.753,-6.99,3.632,17.0
71.106,-7.003,3.258,9.0
78.146,-7.673,3.143,18.0
78.723,-7.705,2.733,40.0
103.886,-10.138,3.036,10.0
71.535,-6.985,4.094,41.0
71.102,-6.92,3.678,24.0
71.19,-6.906,3.29,9.0
78.346,-7.577,3.181,40.0
74.287,-7.162,2.607,10.0
103.686,-9.966,3.068,7.0
0.0,0.0,0.0,0.0
71.455,-6.849,3.722,15.0
71.11,-6.794,3.311,19.0
77.96,-7.424,3.192,48.0
74.28,-7.05,2.632,10.0
104.191,-9.858,3.119,13.0
70.332,-6.657,4.075,15.0
70.382,-6.64,3.688,9.0
71.187,-6.693,3.337,9.0
74.646,-6.995,3.08,10.0
78.353,-7.317,2.8,22.0
74.552,-6.94,2.254,3.0
69.687,-6.49,4.058,27.0
71.228,-6.61,3.753,24.0
71.112,-6.577,3.354,13.0
102.822,-9.477,4.271,9.0
72.416,-6.652,2.607,8.0
104.181,-9.537,3.176,11.0
69.739,-6.386,4.079,31.0
70.952,-6.474,3.756,17.0
71.339,-6.486,3.382,10.0
71.102,-6.441,2.97,6.0
72.363,-6.532,2.623,7.0
104.435,-9.394,3.208,14.0
71.442,-6.429,4.194,12.0
71.35,-6.396,3.792,32.0
71.322,-6.371,3.396,13.0
70.928,-6.312,2.977,15.0
67.94,-6.025,2.475,19.0
103.776,-9.171,3.207,8.0
70.894,-6.267,4.174,15.0
71.151,-6.266,3.795,8.0
67.969,-5.963,3.247,47.0
67.973,-5.941,2.864,44.0
67.954,-5.917,2.486,43.0
102.831,-8.923,3.193,11.0
71.687,-6.222,4.231,9.0
71.359,-6.169,3.815,20.0
67.981,-5.854,3.257,50.0
67.969,-5.831,2.872,46.0
67.941,-5.806,2.494,43.0
71.773,-6.111,2.237,11.0
71.487,-6.086,4.227,17.0
71.325,-6.049,3.821,10.0
67.953,-5.74,3.262,51.0
67.963,-5.718,2.877,53.0
67.935,-5.694,2.499,46.0
72.081,-6.018,2.252,10.0
71.57,-5.976,4.236,8.0
71.344,-5.933,3.826,24.0
67.948,-5.627,3.265,50.0
67.954,-5.604,2.88,44.0
67.926,-5.579,2.501,45.0
72.481,-5.93,2.267,13.0
71.637,-5.86,4.243,27.0
71.467,-5.821,3.834,27.0
71.455,-5.796,3.434,25.0
71.422,-5.769,3.028,22.0
74.717,-6.011,2.752,9.0
72.501,-5.809,2.267,14.0
71.404,-5.719,4.228,26.0
71.385,-5.693,3.828,29.0
70.722,-5.616,3.398,29.0
72.616,-5.742,3.076,26.0
67.924,-5.348,2.499,36.0
67.904,-5.325,2.12,74.0
67.965,-5.328,4.021,40.0
67.949,-5.303,3.639,84.0
67.929,-5.278,3.259,87.0
67.923,-5.254,2.873,71.0
67.928,-5.231,2.494,32.0
102.813,-7.884,3.201,19.0
71.877,-5.509,4.245,11.0
71.254,-5.437,3.81,7.0
67.925,-5.159,3.252,43.0
67.923,-5.135,2.865,54.0
67.889,-5.11,2.485,47.0
71.944,-5.391,2.231,9.0
71.203,-5.333,4.196,20.0
71.099,-5.3,3.791,15.0
67.915,-5.038,3.241,67.0
67.913,-5.016,2.854,58.0
67.891,-4.991,2.474,50.0
20.028,-1.465,0.617,2.0
71.254,-5.212,4.187,15.0
71.405,-5.197,3.795,9.0
67.909,-4.919,3.228,60.0
67.9,-4.896,2.841,57.0
67.873,-4.871,2.46,39.0
20.005,-1.428,0.613,9.0
71.29,-5.088,4.173,20.0
71.613,-5.086,3.79,10.0
67.896,-4.798,3.212,57.0
67.892,-4.774,2.824,56.0
20.02,-1.401,0.72,6.0
20.003,-1.393,0.608,9.0
71.66,-4.987,4.177,11.0
67.877,-4.7,3.574,16.0
67.883,-4.677,3.194,18.0
72.422,-4.965,2.993,15.0
20.014,-1.365,0.714,10.0
20.032,-1.359,0.603,9.0
71.054,-4.817,4.121,42.0
70.652,-4.766,3.699,20.0
70.818,-4.752,3.309,15.0
72.195,-4.82,2.961,29.0
20.002,-1.328,0.708,10.0
19.969,-1.319,0.594,14.0
70.911,-4.681,4.088,23.0
70.872,-4.654,3.687,8.0
73.309,-4.788,3.401,9.0
20.013,-1.3,0.814,4.0
19.949,-1.289,0.699,15.0
19.943,-1.282,0.586,24.0
70.924,-4.553,4.062,27.0
70.944,-4.53,3.663,31.0
73.272,-4.653,3.37,29.0
20.012,-1.264,0.805,8.0
19.954,-1.253,0.691,17.0
19.939,-1.246,0.578,24.0
70.866,-4.421,4.029,29.0
20.03,-1.242,1.025,11.0
20.018,-1.235,0.912,10.0
20.009,-1.227,0.796,11.0
19.956,-1.217,0.682,18.0
19.946,-1.21,0.569,23.0
71.048,-4.303,4.006,24.0
19.975,-1.203,1.013,20.0
19.98,-1.196,0.901,19.0
19.986,-1.19,0.786,18.0
19.949,-1.181,0.672,18.0
19.942,-1.174,0.56,21.0
20.0,-1.175,1.117,2.0
19.973,-1.166,1.003,25.0
19.971,-1.159,0.89,24.0
19.992,-1.154,0.776,19.0
19.96,-1.145,0.662,18.0
19.951,-1.138,0.549,23.0
19.988,-1.138,1.106,7.0
19.953,-1.129,0.991,20.0
19.972,-1.124,0.879,17.0
19.992,-1.118,0.765,18.0
19.962,-1.109,0.651,18.0
19.967,-1.103,0.538,23.0
20.0,-1.102,1.095,8.0
19.977,-1.094,0.98,20.0
20.031,-1.09,0.87,6.0
20.003,-1.082,0.753,14.0
19.96,-1.073,0.639,18.0
19.975,-1.067,0.526,21.0
20.01,-1.066,1.083,3.0
20.009,-1.059,0.97,7.0
83.783,-4.409,3.586,36.0
20.016,-1.046,0.741,11.0
19.966,-1.037,0.626,15.0
19.981,-1.031,0.514,13.0
73.392,-3.779,3.926,20.0
73.582,-3.764,3.518,15.0
83.625,-4.249,3.523,18.0
20.06,-1.012,0.729,12.0
20.103,-1.008,0.617,20.0
20.128,-1.003,0.504,23.0
73.396,-3.646,3.874,13.0
83.455,-4.117,3.931,23.0
84.905,-4.161,3.517,22.0
20.063,-0.976,0.715,17.0
20.108,-0.972,0.602,22.0
20.122,-0.966,0.489,18.0
79.68,-3.814,4.147,22.0
83.421,-3.965,3.867,15.0
94.647,-4.467,3.849,21.0
20.08,-0.941,0.7,18.0
20.108,-0.936,0.587,16.0
20.158,-0.931,0.474,5.0
73.264,-3.373,3.755,18.0
90.119,-4.118,4.106,4.0
95.164,-4.317,3.794,23.0
20.105,-0.905,0.685,3.0
193.346,-8.647,5.492,18.0
194.293,-8.626,4.415,13.0
80.751,-3.57,4.071,33.0
94.574,-4.151,4.23,16.0
104.197,-4.539,4.068,9.0
117.167,-5.068,3.897,13.0
193.401,-8.302,5.332,19.0
193.822,-8.258,4.241,22.0
80.908,-3.431,4.01,32.0
100.315,-4.221,4.399,5.0
104.093,-4.346,3.971,16.0
193.784,-8.03,6.272,20.0
192.94,-7.934,5.147,22.0
194.082,-7.919,4.073,16.0
81.12,-3.294,3.947,33.0
95.552,-3.849,4.104,15.0
104.044,-4.158,3.875,18.0
193.835,-7.686,6.097,26.0
192.71,-7.582,4.964,27.0
194.531,-7.592,3.903,5.0
81.279,-3.156,3.879,29.0
103.848,-3.999,4.363,19.0
104.404,-3.986,3.79,2.0
193.465,-7.325,5.899,23.0
192.801,-7.242,4.782,25.0
193.568,-7.211,3.698,7.0
94.359,-3.495,4.41,14.0
104.113,-3.824,4.272,19.0
0.0,0.0,0.0,0.0
193.066,-6.969,5.696,21.0
193.417,-6.921,4.602,17.0
204.525,-7.255,3.701,8.0
94.217,-3.322,4.307,20.0
101.226,-3.537,4.049,25.0
119.61,-4.142,4.1,10.0
187.423,-6.434,5.337,49.0
187.452,-6.377,4.266,27.0
193.263,-6.515,3.295,13.0
94.536,-3.165,4.221,18.0
101.142,-3.356,3.937,27.0
0.0,0.0,0.0,0.0
193.399,-6.297,5.298,18.0
193.996,-6.257,4.204,24.0
193.274,-6.178,3.087,7.0
81.312,-2.581,3.542,4.0
101.793,-3.199,3.851,14.0
120.268,-3.743,3.861,3.0
193.888,-5.978,5.098,23.0
194.511,-5.937,4.001,19.0
138.618,-4.191,2.059,9.0
119.86,-0.573,2.378,22.0
0.0,0.0,0.0,0.0
119.714,-0.517,0.99,7.0
0.0,0.0,0.0,0.0
0.0,0.0,0.0,0.0
45.167,-0.164,-0.413,1.0
119.856,-0.407,2.177,20.0
119.737,-0.381,1.484,12.0
111.061,-0.328,0.734,8.0
0.0,0.0,0.0,0.0
0.0,0.0,0.0,0.0
40.728,-0.092,-0.442,0.0
113.492,-0.233,1.87,1.0
117.442,-0.215,1.256,13.0
0.0,0.0,0.0,0.0
0.0,0.0,0.0,0.0
0.0,0.0,0.0,0.0
0.0,0.0,0.0,0.0
111.111,-0.082,1.642,10.0
111.272,-0.058,1.0,7.0
95.682,-0.029,0.306,1.0
0.0,0.0,0.0,0.0
45.537,0.005,-0.385,3.0
35.892,0.011,-0.511,0.0
111.13,0.06,1.449,22.0
110.649,0.084,0.801,10.0
0.0,0.0,0.0,0.0
0.0,0.0,0.0,0.0
42.853,0.058,-0.437,1.0
0.0,0.0,0.0,0.0
111.147,0.198,1.256,16.0
103.766,0.207,0.571,6.0
0.0,0.0,0.0,0.0
49.582,0.119,-0.305,0.0
40.045,0.104,-0.479,0.0
32.087,0.089,-0.569,0.0
111.121,0.334,1.059,10.0
94.779,0.304,0.354,1.0
0.0,0.0,0.0,0.0
45.95,0.165,-0.364,0.0
0.0,0.0,0.0,0.0
0.0,0.0,0.0,0.0
110.815,0.464,0.859,6.0
87.95,0.386,0.171,4.0
0.0,0.0,0.0,0.0
42.966,0.205,-0.418,1.0
0.0,0.0,0.0,0.0
28.98,0.149,-0.618,0.0
98.064,0.525,0.581,3.0
0.0,0.0,0.0,0.0
0.0,0.0,0.0,0.0
40.435,0.24,-0.468,0.0
0.0,0.0,0.0,0.0
27.286,0.172,-0.632,0.0
85.783,0.556,0.35,3.0
0.0,0.0,0.0,0.0
48.638,0.333,-0.365,0.0
0.0,0.0,0.0,0.0
30.562,0.22,-0.587,0.0
26.309,0.195,-0.658,0.0
84.236,0.638,0.189,2.0
0.0,0.0,0.0,0.0
43.022,0.341,-0.402,0.0
0.0,0.0,0.0,0.0
0.0,0.0,0.0,0.0
24.72,0.209,-0.664,0.0
0.0,0.0,0.0,0.0
0.0,0.0,0.0,0.0
41.065,0.368,-0.46,0.0
32.404,0.296,-0.555,0.0
27.381,0.255,-0.627,0.0
23.89,0.227,-0.686,0.0
0.0,0.0,0.0,0.0
46.594,0.457,-0.339,0.0
0.0,0.0,0.0,0.0
30.631,0.311,-0.582,0.0
26.273,0.271,-0.652,0.0
22.731,0.238,-0.696,0.0
0.0,0.0,0.0,0.0
0.0,0.0,0.0,0.0
35.137,0.385,-0.527,0.0
0.0,0.0,0.0,0.0
0.0,0.0,0.0,0.0
21.907,0.251,-0.713,0.0
51.734,0.6,-0.273,0.0
40.986,0.481,-0.454,0.0
0.0,0.0,0.0,0.0
27.475,0.331,-0.627,0.0
23.585,0.288,-0.675,0.0
21.082,0.261,-0.726,0.0
0.0,0.0,0.0,0.0
37.651,0.477,-0.49,0.0
30.776,0.394,-0.579,0.0
26.275,0.341,-0.65,0.0
22.751,0.298,-0.695,0.0
20.188,0.268,-0.734,0.0
43.98,0.589,-0.402,1.0
0.0,0.0,0.0,0.0
29.062,0.398,-0.603,0.0
24.925,0.345,-0.665,0.0
21.837,0.305,-0.709,0.0
19.472,0.275,-0.746,0.0
41.2,0.586,-0.457,0.0
32.518,0.468,-0.55,0.0
0.0,0.0,0.0,0.0
23.816,0.349,-0.682,0.0
20.723,0.307,-0.714,0.0
18.598,0.278,-0.749,0.0
0.0,0.0,0.0,0.0
30.65,0.465,-0.577,0.0
26.273,0.402,-0.648,0.0
22.564,0.348,-0.69,0.0
20.06,0.313,-0.73,0.0
17.927,0.282,-0.757,0.0
0.0,0.0,0.0,0.0
29.326,0.467,-0.61,0.0
25.211,0.405,-0.671,0.0
21.812,0.353,-0.71,0.0
19.422,0.317,-0.745,0.0
17.62,0.29,-0.779,2.0
0.0,0.0,0.0,0.0
0.0,0.0,0.0,0.0
23.982,0.403,-0.685,0.0
20.93,0.354,-0.722,0.0
18.682,0.318,-0.753,0.0
17.064,0.293,-0.787,0.0
30.625,0.528,-0.579,0.0
26.171,0.454,-0.647,0.0
22.579,0.394,-0.69,0.0
20.106,0.353,-0.733,0.0
17.818,0.315,-0.754,0.0
16.443,0.293,-0.791,0.0
28.878,0.516,-0.603,0.0
24.835,0.447,-0.663,0.0
21.788,0.394,-0.708,0.0
19.294,0.351,-0.742,0.0
17.559,0.322,-0.777,0.0
15.984,0.295,-0.801,0.0
27.243,0.504,-0.623,0.0
23.754,0.442,-0.681,0.0
20.891,0.391,-0.721,0.0
18.635,0.351,-0.753,0.0
16.934,0.32,-0.783,0.0
15.521,0.296,-0.809,0.0
26.112,0.498,-0.649,0.0
22.655,0.434,-0.695,0.0
19.997,0.385,-0.73,0.0
17.861,0.346,-0.758,0.0
16.488,0.321,-0.796,0.0
15.038,0.295,-0.814,0.0
24.617,0.483,-0.661,0.0
21.358,0.421,-0.698,0.0
19.151,0.379,-0.737,0.0
17.273,0.344,-0.767,0.0
15.832,0.317,-0.796,0.0
14.622,0.294,-0.82,0.0
23.691,0.477,-0.683,0.0
20.818,0.421,-0.722,0.0
18.588,0.377,-0.753,0.0
16.912,0.345,-0.785,0.0
15.41,0.316,-0.805,0.0
14.286,0.294,-0.83,0.0
22.541,0.464,-0.695,0.0
20.049,0.414,-0.735,0.0
17.87,0.371,-0.759,0.0
16.306,0.34,-0.789,0.0
15.024,0.314,-0.815,0.0
13.854,0.291,-0.832,0.0
21.555,0.452,-0.707,0.0
19.255,0.406,-0.744,0.0
17.377,0.368,-0.772,0.0
15.822,0.336,-0.797,0.0
14.632,0.312,-0.822,0.0
13.546,0.29,-0.841,0.0
20.714,0.443,-0.72,0.0
18.434,0.395,-0.748,0.0
16.8,0.362,-0.78,0.0
15.343,0.331,-0.803,0.0
14.237,0.309,-0.828,0.0
13.248,0.288,-0.848,0.0
19.981,0.434,-0.734,0.0
17.807,0.388,-0.758,0.0
16.318,0.357,-0.79,0.0
14.976,0.328,-0.814,0.0
13.83,0.304,-0.832,0.0
12.817,0.283,-0.846,0.0
19.122,0.421,-0.74,0.0
17.383,0.384,-0.774,0.0
15.816,0.35,-0.796,0.0
14.604,0.324,-0.822,0.0
13.491,0.301,-0.838,0.0
12.461,0.278,-0.847,0.0
18.399,0.41,-0.748,0.0
16.884,0.377,-0.785,0.0
15.312,0.343,-0.801,0.0
14.178,0.318,-0.826,0.0
13.206,0.297,-0.846,0.0
12.159,0.275,-0.85,0.0
17.792,0.4,-0.758,0.0
16.309,0.368,-0.79,0.0
14.939,0.338,-0.811,0.0
13.771,0.312,-0.829,0.0
12.664,0.288,-0.836,0.0
11.781,0.268,-0.847,0.0
17.228,0.391,-0.768,0.0
15.846,0.36,-0.798,0.0
14.512,0.331,-0.816,0.0
13.558,0.31,-0.842,0.0
12.471,0.285,-0.848,0.0
11.514,0.264,-0.85,0.0
16.885,0.386,-0.785,0.0
15.373,0.352,-0.804,0.0
14.181,0.325,-0.825,0.0
13.123,0.301,-0.841,0.0
12.128,0.279,-0.848,0.0
11.363,0.262,-0.861,0.0
16.274,0.373,-0.788,0.0
14.952,0.344,-0.811,0.0
13.809,0.318,-0.829,0.0
12.742,0.294,-0.841,0.0
11.765,0.272,-0.845,0.0
11.162,0.258,-0.867,0.0
15.84,0.364,-0.797,0.0
14.498,0.334,-0.814,0.0
13.511,0.312,-0.837,0.0
12.459,0.288,-0.846,0.0
11.518,0.266,-0.849,0.0
10.954,0.254,-0.872,0.0
15.416,0.355,-0.805,0.0
14.144,0.326,-0.821,0.0
13.144,0.304,-0.84,0.0
12.144,0.281,-0.848,0.0
11.364,0.263,-0.86,0.0
10.727,0.249,-0.875,0.0
14.986,0.345,-0.811,0.0
13.805,0.318,-0.827,0.0
12.816,0.296,-0.843,0.0
11.755,0.272,-0.843,0.0
11.162,0.258,-0.866,1.0
10.471,0.242,-0.874,0.0
14.559,0.335,-0.815,0.0
13.501,0.311,-0.835,0.0
12.476,0.287,-0.844,0.0
11.532,0.266,-0.849,0.0
10.959,0.253,-0.871,0.0
10.307,0.238,-0.879,0.0
14.223,0.326,-0.823,0.0
13.199,0.302,-0.841,0.0
12.138,0.278,-0.844,0.0
11.373,0.261,-0.858,1.0
10.765,0.247,-0.875,0.0
10.191,0.234,-0.888,0.0
13.846,0.315,-0.827,0.0
13.004,0.296,-0.852,0.0
11.809,0.269,-0.843,0.0
11.181,0.255,-0.864,0.0
10.471,0.239,-0.871,0.0
10.005,0.228,-0.891,0.0
13.538,0.306,-0.833,0.0
12.489,0.282,-0.841,0.0
11.592,0.262,-0.848,0.0
10.992,0.249,-0.87,0.0
10.31,0.233,-0.876,0.0
9.824,0.222,-0.892,0.0
13.268,0.298,-0.84,0.0
12.215,0.274,-0.845,0.0
11.398,0.255,-0.855,1.0
10.77,0.241,-0.872,0.0
10.174,0.228,-0.883,0.0
9.703,0.217,-0.899,0.0
12.979,0.288,-0.845,0.0
11.869,0.263,-0.842,0.0
11.24,0.249,-0.863,1.0
10.542,0.234,-0.872,0.0
10.033,0.222,-0.888,0.0
9.582,0.212,-0.905,0.0
12.547,0.275,-0.839,0.0
11.637,0.255,-0.846,0.0
11.062,0.242,-0.869,0.0
10.372,0.227,-0.876,0.0
9.874,0.216,-0.892,0.0
9.409,0.206,-0.905,0.0
12.268,0.265,-0.842,0.0
11.413,0.247,-0.85,0.0
10.833,0.234,-0.87,0.0
10.228,0.221,-0.882,0.0
9.775,0.211,-0.9,0.0
9.257,0.199,-0.906,0.0
11.946,0.254,-0.84,0.0
11.287,0.24,-0.86,1.0
10.619,0.225,-0.871,0.0
10.066,0.213,-0.885,0.0
9.628,0.204,-0.903,0.0
9.153,0.194,-0.912,0.0
11.7,0.245,-0.843,0.0
11.122,0.232,-0.866,0.0
10.445,0.218,-0.874,0.0
9.904,0.206,-0.888,0.0
9.475,0.197,-0.905,0.0
9.028,0.187,-0.915,0.0
11.472,0.235,-0.846,0.0
10.913,0.223,-0.868,0.0
10.305,0.21,-0.88,0.0
9.756,0.199,-0.891,0.0
9.331,0.19,-0.907,0.0
8.85,0.18,-0.912,0.0
11.369,0.228,-0.857,1.0
10.687,0.214,-0.868,0.0
10.168,0.203,-0.885,0.0
9.659,0.192,-0.898,0.0
9.227,0.184,-0.912,0.0
8.793,0.174,-0.92,0.0
11.211,0.22,-0.863,0.0
10.456,0.204,-0.866,0.0
9.998,0.195,-0.886,0.0
9.569,0.186,-0.905,0.0
9.052,0.176,-0.909,0.0
8.644,0.167,-0.919,0.0
11.016,0.21,-0.866,0.0
10.351,0.197,-0.874,0.0
9.849,0.187,-0.888,0.0
9.404,0.178,-0.904,0.0
8.979,0.169,-0.916,0.0
8.538,0.161,-0.921,0.0
10.776,0.2,-0.864,0.0
10.252,0.189,-0.881,0.0
9.752,0.18,-0.895,0.0
9.251,0.17,-0.904,0.0
8.816,0.161,-0.913,0.0
8.457,0.154,-0.925,0.0
10.637,0.191,-0.869,0.0
10.121,0.181,-0.885,0.0
9.621,0.172,-0.898,0.0
9.117,0.162,-0.905,0.0
8.698,0.154,-0.914,0.0
8.358,0.148,-0.927,0.0
10.447,0.181,-0.869,0.0
9.948,0.172,-0.885,0.0
9.464,0.163,-0.897,0.0
0.0,0.0,0.0,0.0
8.625,0.147,-0.919,0.0
8.241,0.14,-0.927,0.0
10.32,0.173,-0.874,0.0
9.837,0.164,-0.89,0.0
9.383,0.156,-0.903,0.0
0.0,0.0,0.0,0.0
8.562,0.141,-0.925,0.0
8.166,0.134,-0.93,0.0
10.244,0.165,-0.882,0.0
9.755,0.156,-0.896,0.0
9.2,0.146,-0.899,0.0
0.0,0.0,0.0,0.0
8.475,0.134,-0.928,0.0
8.082,0.127,-0.932,0.0
10.089,0.155,-0.883,0.0
9.643,0.148,-0.9,0.0
9.193,0.14,-0.911,0.0
0.0,0.0,0.0,0.0
8.346,0.126,-0.925,0.0
7.981,0.119,-0.932,0.0
9.988,0.147,-0.888,0.0
9.538,0.139,-0.903,0.0
9.038,0.131,-0.908,0.0
8.614,0.124,-0.917,0.0
8.235,0.118,-0.924,0.0
7.891,0.112,-0.932,0.0
9.866,0.137,-0.89,0.0
9.366,0.13,-0.899,0.0
0.0,0.0,0.0,0.0
0.0,0.0,0.0,0.0
0.0,0.0,0.0,0.0
7.837,0.106,-0.936,0.0
9.782,0.129,-0.895,0.0
9.253,0.121,-0.9,0.0
8.855,0.115,-0.913,0.0
8.462,0.109,-0.923,0.0
0.0,0.0,0.0,0.0
7.754,0.098,-0.936,0.0
9.639,0.119,-0.895,0.0
9.168,0.112,-0.904,0.0
8.778,0.107,-0.916,0.0
0.0,0.0,0.0,0.0
8.007,0.096,-0.93,0.0
7.654,0.091,-0.934,0.0
8.463,-0.036,-0.917,0.0
8.128,-0.036,-0.928,0.0
7.807,-0.036,-0.936,0.0
0.0,0.0,0.0,0.0
0.0,0.0,0.0,0.0
0.0,0.0,0.0,0.0
8.436,-0.045,-0.919,0.0
8.106,-0.045,-0.929,0.0
7.761,-0.044,-0.934,0.0
0.0,0.0,0.0,0.0
0.0,0.0,0.0,0.0
0.0,0.0,0.0,0.0
8.413,-0.054,-0.921,0.0
8.082,-0.054,-0.93,0.0
0.0,0.0,0.0,0.0
0.0,0.0,0.0,0.0
0.0,0.0,0.0,0.0
0.0,0.0,0.0,0.0
8.389,-0.064,-0.922,0.0
8.037,-0.062,-0.929,0.0
7.678,-0.061,-0.931,0.0
0.0,0.0,0.0,0.0
7.156,-0.059,-0.951,0.0
0.0,0.0,0.0,0.0
8.347,-0.073,-0.92,0.0
8.009,-0.071,-0.929,0.0
7.685,-0.07,-0.935,0.0
0.0,0.0,0.0,0.0
0.0,0.0,0.0,0.0
0.0,0.0,0.0,0.0
8.332,-0.082,-0.922,0.0
7.99,-0.08,-0.929,0.0
7.647,-0.078,-0.933,0.0
0.0,0.0,0.0,0.0
7.096,-0.075,-0.948,0.0
0.0,0.0,0.0,0.0
8.309,-0.091,-0.922,0.0
7.977,-0.089,-0.93,0.0
0.0,0.0,0.0,0.0
0.0,0.0,0.0,0.0
0.0,0.0,0.0,0.0
6.779,-0.081,-0.946,0.0
8.302,-0.101,-0.923,0.0
7.991,-0.099,-0.934,0.0
7.647,-0.096,-0.937,0.0
0.0,0.0,0.0,0.0
7.046,-0.091,-0.944,0.0
6.785,-0.089,-0.948,0.0
8.274,-0.11,-0.922,0.0
7.941,-0.107,-0.93,0.0
7.657,-0.105,-0.94,0.0
0.0,0.0,0.0,0.0
0.0,0.0,0.0,0.0
6.786,-0.097,-0.95,0.0
8.312,-0.12,-0.927,0.0
7.966,-0.117,-0.934,0.0
7.668,-0.114,-0.942,0.0
0.0,0.0,0.0,0.0
0.0,0.0,0.0,0.0
6.742,-0.104,-0.944,0.0
8.235,-0.129,-0.92,0.0
7.966,-0.126,-0.935,0.0
7.602,-0.122,-0.935,0.0
0.0,0.0,0.0,0.0
0.0,0.0,0.0,0.0
6.814,-0.113,-0.955,0.0
8.281,-0.139,-0.925,0.0
7.933,-0.134,-0.931,0.0
7.647,-0.131,-0.941,0.0
0.0,0.0,0.0,0.0
0.0,0.0,0.0,0.0
0.0,0.0,0.0,0.0
8.235,-0.147,-0.92,0.0
7.949,-0.144,-0.933,0.0
7.606,-0.139,-0.936,0.0
0.0,0.0,0.0,0.0
0.0,0.0,0.0,0.0
0.0,0.0,0.0,0.0
8.274,-0.158,-0.925,0.0
7.969,-0.153,-0.935,0.0
7.632,-0.149,-0.939,0.0
0.0,0.0,0.0,0.0
0.0,0.0,0.0,0.0
0.0,0.0,0.0,0.0
8.259,-0.167,-0.923,0.0
7.921,-0.162,-0.929,0.0
7.632,-0.157,-0.938,0.0
0.0,0.0,0.0,0.0
0.0,0.0,0.0,0.0
0.0,0.0,0.0,0.0
8.269,-0.176,-0.923,0.0
7.962,-0.171,-0.933,0.0
0.0,0.0,0.0,0.0
0.0,0.0,0.0,0.0
0.0,0.0,0.0,0.0
0.0,0.0,0.0,0.0
8.306,-0.186,-0.925,0.0
7.951,-0.18,-0.931,0.0
0.0,0.0,0.0,0.0
0.0,0.0,0.0,0.0
7.071,-0.164,-0.948,0.0
0.0,0.0,0.0,0.0
8.285,-0.195,-0.921,0.0
7.982,-0.19,-0.932,0.0
0.0,0.0,0.0,0.0
0.0,0.0,0.0,0.0
7.072,-0.172,-0.946,0.0
0.0,0.0,0.0,0.0
8.324,-0.205,-0.924,0.0
8.009,-0.199,-0.933,0.0
0.0,0.0,0.0,0.0
0.0,0.0,0.0,0.0
0.0,0.0,0.0,0.0
0.0,0.0,0.0,0.0
8.38,-0.216,-0.928,0.0
8.006,-0.208,-0.931,0.0
0.0,0.0,0.0,0.0
0.0,0.0,0.0,0.0
0.0,0.0,0.0,0.0
0.0,0.0,0.0,0.0
8.376,-0.225,-0.924,0.0
8.021,-0.217,-0.93,0.0
0.0,0.0,0.0,0.0
0.0,0.0,0.0,0.0
0.0,0.0,0.0,0.0
0.0,0.0,0.0,0.0
8.391,-0.234,-0.923,0.0
8.017,-0.225,-0.926,0.0
0.0,0.0,0.0,0.0
0.0,0.0,0.0,0.0
0.0,0.0,0.0,0.0
0.0,0.0,0.0,0.0
8.43,-0.244,-0.923,0.0
8.091,-0.236,-0.931,0.0
0.0,0.0,0.0,0.0
0.0,0.0,0.0,0.0
0.0,0.0,0.0,0.0
6.881,-0.206,-0.946,0.0
8.442,-0.253,-0.921,0.0
8.123,-0.245,-0.931,0.0
0.0,0.0,0.0,0.0
0.0,0.0,0.0,0.0
0.0,0.0,0.0,0.0
6.952,-0.216,-0.952,0.0
8.478,-0.263,-0.92,0.0
8.151,-0.254,-0.93,0.0
0.0,0.0,0.0,0.0
0.0,0.0,0.0,0.0
0.0,0.0,0.0,0.0
6.974,-0.223,-0.951,0.0
8.527,-0.273,-0.921,0.0
8.193,-0.264,-0.93,0.0
7.9,-0.256,-0.941,0.0
0.0,0.0,0.0,0.0
7.24,-0.238,-0.943,0.0
7.029,-0.232,-0.955,0.0
8.608,-0.284,-0.924,0.0
8.242,-0.274,-0.931,0.0
7.876,-0.263,-0.933,0.0
7.588,-0.255,-0.941,0.0
7.242,-0.245,-0.939,0.0
7.036,-0.239,-0.951,0.0
8.649,-0.294,-0.923,0.0
8.236,-0.282,-0.924,0.0
7.904,-0.272,-0.931,0.0
7.626,-0.264,-0.941,0.0
0.0,0.0,0.0,0.0
7.047,-0.246,-0.948,0.0
8.654,-0.302,-0.918,0.0
8.326,-0.293,-0.929,0.0
7.96,-0.281,-0.932,0.0
0.0,0.0,0.0,0.0
7.341,-0.262,-0.941,0.0
7.096,-0.255,-0.949,0.0
8.745,-0.314,-0.921,0.0
8.347,-0.301,-0.925,0.0
8.017,-0.291,-0.932,0.0
7.635,-0.278,-0.931,0.0
0.0,0.0,0.0,0.0
7.163,-0.264,-0.953,0.0
8.794,-0.324,-0.92,0.0
8.416,-0.311,-0.926,0.0
8.018,-0.298,-0.926,0.0
0.0,0.0,0.0,0.0
7.451,-0.28,-0.944,0.0
7.156,-0.27,-0.946,0.0
8.813,-0.332,-0.914,0.0
8.407,-0.319,-0.918,0.0
8.069,-0.307,-0.926,0.0
7.837,-0.3,-0.943,0.0
7.465,-0.287,-0.939,0.0
7.21,-0.279,-0.947,0.0
