X,Y,Z,Reflectivity
40.618,1.508,3.062,37.0
40.888,1.517,2.844,40.0
40.417,1.509,3.925,43.0
40.211,1.5,3.67,44.0
40.333,1.504,3.445,46.0
40.512,1.509,3.22,38.0
40.628,1.513,2.993,39.0
44.702,1.664,3.033,5.0
40.362,1.51,3.85,44.0
40.252,1.505,3.604,40.0
40.584,1.516,3.397,32.0
40.554,1.514,3.154,41.0
40.769,1.521,2.934,36.0
71.898,2.681,4.756,18.0
40.401,1.514,3.784,44.0
40.367,1.512,3.545,37.0
40.605,1.519,3.328,29.0
40.618,1.518,3.088,39.0
40.846,1.525,2.868,43.0
71.886,2.682,4.629,22.0
40.251,1.509,3.699,46.0
40.338,1.511,3.47,40.0
40.452,1.513,3.244,41.0
40.587,1.517,3.014,40.0
40.878,1.527,2.797,37.0
65.905,2.459,4.127,9.0
40.232,1.508,3.625,40.0
40.482,1.515,3.411,32.0
40.528,1.515,3.178,40.0
40.724,1.521,2.952,34.0
71.888,2.682,4.793,10.0
65.744,2.45,4.002,25.0
40.357,1.51,3.564,39.0
40.659,1.519,3.353,28.0
40.603,1.515,3.112,41.0
40.835,1.522,2.888,40.0
71.89,2.676,4.665,24.0
65.932,2.451,3.896,28.0
40.316,1.504,3.488,46.0
40.539,1.51,3.27,37.0
40.612,1.511,3.039,37.0
40.886,1.519,2.818,42.0
66.049,2.45,4.167,9.0
66.338,2.458,3.801,17.0
40.436,1.503,3.426,50.0
40.537,1.504,3.197,42.0
40.686,1.508,2.971,39.0
71.872,2.659,4.823,11.0
65.766,2.429,4.031,26.0
66.308,2.445,3.678,10.0
40.667,1.505,3.37,39.0
40.555,1.498,3.124,40.0
40.754,1.502,2.901,31.0
71.877,2.645,4.691,17.0
65.933,2.422,3.92,27.0
66.305,2.432,3.557,20.0
40.554,1.491,3.286,39.0
40.613,1.491,3.054,41.0
40.861,1.497,2.835,29.0
66.163,2.419,4.198,10.0
66.356,2.422,3.825,19.0
66.293,2.415,3.436,26.0
40.545,1.481,3.211,41.0
40.649,1.482,2.982,45.0
44.668,1.624,3.016,20.0
65.724,2.385,4.049,24.0
66.31,2.402,3.699,23.0
66.178,2.392,3.308,10.0
40.634,1.472,3.143,36.0
40.759,1.473,2.915,27.0
66.492,2.398,4.368,14.0
66.123,2.379,3.952,28.0
66.35,2.381,3.579,22.0
72.386,2.593,3.485,26.0
40.72,1.461,3.074,41.0
44.83,1.605,3.123,5.0
66.118,2.361,4.22,13.0
66.38,2.365,3.843,24.0
72.256,2.568,3.764,24.0
72.386,2.566,3.35,28.0
40.72,1.446,2.998,38.0
44.661,1.581,3.028,14.0
65.753,2.322,4.074,23.0
72.151,2.542,4.043,10.0
72.32,2.541,3.633,21.0
72.386,2.537,3.215,33.0
44.98,1.578,3.227,33.0
66.495,2.327,4.383,21.0
66.316,2.314,3.985,11.0
72.19,2.512,3.911,31.0
72.339,2.51,3.499,35.0
72.398,2.505,3.082,33.0
44.976,1.557,3.143,10.0
65.868,2.274,4.218,12.0
66.449,2.287,3.869,15.0
72.245,2.479,3.779,29.0
72.357,2.476,3.365,36.0
72.393,2.47,2.946,32.0
66.536,2.271,4.526,23.0
65.681,2.235,4.084,16.0
72.439,2.457,4.082,28.0
72.293,2.444,3.647,18.0
72.384,2.439,3.23,35.0
72.42,2.433,2.812,34.0
66.537,2.235,4.4,21.0
72.121,2.414,4.348,16.0
72.238,2.41,3.935,26.0
72.367,2.406,3.514,26.0
72.417,2.399,3.095,30.0
72.451,2.392,2.676,32.0
65.594,2.165,4.213,19.0
72.487,2.384,4.234,11.0
65.55,2.148,3.447,19.0
72.406,2.363,3.379,28.0
72.494,2.358,2.962,29.0
72.522,2.35,2.543,21.0
65.608,2.125,4.09,10.0
72.21,2.33,4.081,19.0
72.538,2.331,3.677,17.0
72.477,2.32,3.246,22.0
78.808,2.513,3.073,10.0
211.328,6.714,7.014,5.0
71.178,2.258,4.303,5.0
65.685,2.075,3.589,6.0
72.551,2.283,3.543,12.0
118.071,3.7,5.068,11.0
78.816,2.459,2.925,11.0
211.427,6.57,6.622,9.0
72.147,2.239,4.227,28.0
72.739,2.247,3.839,9.0
115.979,3.567,5.446,18.0
78.806,2.413,3.234,4.0
78.879,2.405,2.78,13.0
78.952,2.396,2.324,4.0
81.01,2.454,4.595,4.0
82.291,2.481,4.189,4.0
116.112,3.484,5.235,5.0
78.838,2.355,3.09,9.0
78.888,2.345,2.634,25.0
78.886,2.334,2.176,6.0
118.985,-15.12,2.228,8.0
76.666,-9.744,1.025,3.0
76.551,-9.73,0.613,21.0
50.439,-6.412,0.128,4.0
0.0,0.0,0.0,0.0
35.691,-4.539,-0.29,14.0
119.028,-15.141,2.363,11.0
112.894,-14.361,1.636,9.0
76.56,-9.74,0.699,16.0
52.247,-6.647,0.192,12.0
0.0,0.0,0.0,0.0
36.18,-4.604,-0.254,15.0
119.022,-15.15,2.498,19.0
117.517,-14.958,1.836,6.0
76.586,-9.748,0.786,12.0
76.469,-9.733,0.369,10.0
45.988,-5.854,-0.023,20.0
37.175,-4.732,-0.218,14.0
119.038,-15.157,2.634,11.0
118.924,-15.14,1.994,12.0
76.597,-9.751,0.874,8.0
76.494,-9.737,0.454,17.0
46.471,-5.915,0.028,21.0
37.998,-4.836,-0.18,21.0
69.495,-8.848,1.616,3.0
118.962,-15.143,2.13,20.0
76.629,-9.752,0.961,4.0
76.529,-9.738,0.542,18.0
47.399,-6.031,0.082,21.0
38.589,-4.909,-0.139,14.0
69.448,-8.838,1.695,4.0
119.009,-15.141,2.265,12.0
112.757,-14.341,1.544,9.0
76.522,-9.731,0.629,20.0
0.0,0.0,0.0,0.0
40.397,-5.135,-0.1,15.0
69.533,-8.841,1.775,4.0
118.93,-15.117,2.4,7.0
113.223,-14.387,1.677,3.0
76.558,-9.725,0.716,18.0
52.475,-6.664,0.209,5.0
43.18,-5.482,-0.058,7.0
69.595,-8.839,1.856,4.0
86.65,-11.0,1.846,10.0
117.511,-14.912,1.874,5.0
76.539,-9.709,0.802,14.0
76.555,-9.707,0.392,9.0
46.212,-5.858,-0.011,21.0
69.705,-8.839,1.937,5.0
86.902,-11.014,1.948,12.0
76.696,-9.716,1.308,8.0
76.588,-9.698,0.888,18.0
76.556,-9.689,0.476,20.0
46.992,-5.945,0.04,21.0
69.87,-8.843,2.018,5.0
69.968,-8.85,1.646,3.0
76.668,-9.692,1.392,9.0
76.563,-9.674,0.971,18.0
76.556,-9.668,0.562,25.0
50.766,-6.408,0.1,5.0
70.102,-8.852,2.103,5.0
70.23,-8.862,1.73,3.0
87.144,-10.99,1.679,14.0
76.627,-9.657,1.057,20.0
76.573,-9.645,0.646,25.0
0.0,0.0,0.0,0.0
70.442,-8.872,2.19,3.0
70.648,-8.891,1.817,3.0
86.892,-10.927,1.769,5.0
76.601,-9.626,1.142,21.0
76.59,-9.618,0.729,22.0
62.645,-7.862,0.261,7.0
78.496,-9.856,2.527,10.0
75.569,-9.481,2.026,17.0
76.701,-9.615,1.645,6.0
76.593,-9.594,1.224,20.0
76.619,-9.59,0.813,9.0
76.654,-9.587,0.401,7.0
78.438,-9.816,2.61,19.0
79.271,-9.911,2.211,10.0
73.041,-9.124,1.644,8.0
76.637,-9.564,1.306,24.0
73.294,-9.139,0.855,16.0
83.5,-10.404,0.526,6.0
75.055,-9.357,2.577,16.0
79.039,-9.844,2.289,11.0
72.995,-9.082,1.721,18.0
76.638,-9.526,1.386,27.0
73.278,-9.1,0.932,19.0
85.16,-10.566,0.626,3.0
75.142,-9.329,2.658,33.0
76.323,-9.465,2.289,10.0
72.915,-9.033,1.796,19.0
76.671,-9.489,1.467,20.0
73.435,-9.079,1.011,30.0
90.731,-11.207,0.762,2.0
11.705,0.272,-0.843,0.0
11.116,0.258,-0.865,0.0
10.422,0.241,-0.872,0.0
9.936,0.23,-0.89,0.0
9.441,0.218,-0.901,0.0
9.011,0.208,-0.913,0.0
11.466,0.262,-0.845,0.0
10.932,0.249,-0.869,0.0
10.293,0.234,-0.878,0.0
9.775,0.222,-0.892,0.0
9.318,0.212,-0.905,0.0
8.865,0.201,-0.913,0.0
11.368,0.255,-0.856,1.0
10.732,0.24,-0.871,0.0
10.146,0.227,-0.882,0.0
9.694,0.216,-0.901,0.0
9.232,0.206,-0.912,0.0
8.835,0.197,-0.924,0.0
11.201,0.246,-0.862,0.0
10.504,0.23,-0.869,0.0
10.046,0.22,-0.89,0.0
9.525,0.208,-0.9,0.0
9.095,0.198,-0.913,0.0
8.648,0.188,-0.919,0.0
11.02,0.237,-0.866,0.0
10.375,0.223,-0.875,0.0
9.872,0.211,-0.89,0.0
9.434,0.202,-0.907,0.0
8.991,0.192,-0.917,0.0
8.55,0.182,-0.922,0.0
10.839,0.228,-0.868,0.0
10.253,0.215,-0.881,0.0
9.75,0.204,-0.895,0.0
9.282,0.194,-0.907,0.0
8.802,0.183,-0.911,0.0
8.422,0.175,-0.921,0.0
10.642,0.218,-0.869,0.0
10.085,0.206,-0.882,0.0
9.632,0.196,-0.899,0.0
9.16,0.186,-0.909,0.0
8.798,0.178,-0.924,0.0
8.35,0.169,-0.926,0.0
10.463,0.208,-0.87,0.0
9.982,0.198,-0.888,0.0
9.505,0.188,-0.901,0.0
0.0,0.0,0.0,0.0
8.617,0.169,-0.918,0.0
8.287,0.162,-0.932,0.0
10.333,0.199,-0.875,0.0
9.847,0.189,-0.891,0.0
9.353,0.179,-0.9,0.0
0.0,0.0,0.0,0.0
8.516,0.162,-0.92,0.0
8.115,0.154,-0.924,0.0
10.242,0.191,-0.882,0.0
9.789,0.182,-0.9,0.0
9.269,0.172,-0.906,0.0
0.0,0.0,0.0,0.0
8.431,0.155,-0.923,0.0
8.056,0.147,-0.929,0.0
10.107,0.182,-0.885,0.0
9.621,0.172,-0.898,0.0
9.175,0.164,-0.91,0.0
0.0,0.0,0.0,0.0
8.339,0.148,-0.925,0.0
8.014,0.141,-0.936,0.0
9.955,0.172,-0.885,0.0
9.518,0.164,-0.901,0.0
9.08,0.156,-0.913,0.0
0.0,0.0,0.0,0.0
8.296,0.141,-0.931,0.0
7.929,0.134,-0.937,0.0
9.826,0.163,-0.887,0.0
9.387,0.155,-0.902,0.0
8.896,0.146,-0.906,0.0
0.0,0.0,0.0,0.0
0.0,0.0,0.0,0.0
7.78,0.126,-0.929,0.0
9.773,0.155,-0.895,0.0
9.305,0.147,-0.906,0.0
8.866,0.139,-0.915,0.0
8.509,0.132,-0.928,0.0
0.0,0.0,0.0,0.0
7.76,0.119,-0.937,0.0
9.646,0.145,-0.896,0.0
9.146,0.137,-0.902,0.0
8.762,0.13,-0.915,0.0
8.355,0.124,-0.922,0.0
7.992,0.117,-0.929,0.0
7.631,0.111,-0.931,0.0
9.581,0.137,-0.902,0.0
9.086,0.129,-0.908,0.0
0.0,0.0,0.0,0.0
0.0,0.0,0.0,0.0
7.921,0.11,-0.93,0.0
7.621,0.105,-0.939,0.0
23.301,-0.903,-0.694,0.0
20.736,-0.801,-0.725,0.0
18.841,-0.725,-0.756,0.0
17.367,-0.666,-0.789,0.0
16.031,-0.612,-0.812,0.0
14.882,-0.566,-0.831,0.0
24.453,-0.926,-0.685,0.0
21.756,-0.82,-0.722,0.0
19.557,-0.734,-0.751,0.0
17.747,-0.664,-0.775,0.0
16.45,-0.613,-0.804,0.0
15.205,-0.564,-0.823,0.0
25.285,-0.933,-0.664,0.0
22.508,-0.827,-0.708,0.0
20.227,-0.74,-0.741,0.0
18.376,-0.67,-0.771,0.0
16.915,-0.614,-0.797,0.0
15.595,-0.563,-0.816,0.0
26.609,-0.956,-0.652,0.0
23.528,-0.842,-0.699,0.0
20.96,-0.746,-0.732,0.0
18.842,-0.668,-0.757,0.0
17.442,-0.615,-0.792,0.0
16.042,-0.563,-0.812,0.0
27.909,-0.974,-0.636,0.0
24.562,-0.853,-0.687,0.0
21.636,-0.748,-0.718,0.0
19.668,-0.677,-0.757,0.0
17.916,-0.613,-0.782,0.0
16.462,-0.56,-0.805,0.0
0.0,0.0,0.0,0.0
25.692,-0.865,-0.674,0.0
22.448,-0.752,-0.706,0.0
20.364,-0.678,-0.748,0.0
18.442,-0.611,-0.774,0.0
16.932,-0.558,-0.799,0.0
30.877,-1.011,-0.597,0.0
26.714,-0.87,-0.655,0.0
23.46,-0.76,-0.697,0.0
21.541,-0.693,-0.755,0.0
19.104,-0.612,-0.769,0.0
17.448,-0.555,-0.793,0.0
0.0,0.0,0.0,0.0
27.773,-0.873,-0.634,0.0
21.854,-0.683,-0.613,0.0
21.866,-0.679,-0.729,9.0
19.621,-0.605,-0.756,0.0
17.828,-0.546,-0.78,0.0
35.191,-1.072,-0.561,0.0
0.0,0.0,0.0,0.0
21.902,-0.658,-0.577,23.0
21.861,-0.653,-0.692,17.0
0.0,0.0,0.0,0.0
18.192,-0.536,-0.766,2.0
0.0,0.0,0.0,0.0
30.755,-0.893,-0.599,0.0
21.873,-0.631,-0.54,157.0
21.883,-0.626,-0.656,77.0
21.856,-0.621,-0.769,8.0
21.908,-0.618,-0.886,71.0
38.313,-1.073,-0.483,0.0
0.0,0.0,0.0,0.0
21.906,-0.604,-0.504,156.0
21.861,-0.598,-0.619,157.0
21.829,-0.592,-0.732,20.0
21.872,-0.589,-0.848,9.0
41.264,-1.102,-0.452,1.0
0.0,0.0,0.0,0.0
21.894,-0.575,-0.468,12.0
21.849,-0.569,-0.583,161.0
21.855,-0.564,-0.698,29.0
18.143,-0.465,-0.674,150.0
44.062,-1.12,-0.412,1.0
0.0,0.0,0.0,0.0
30.454,-0.76,-0.602,0.0
21.899,-0.541,-0.549,13.0
18.152,-0.444,-0.55,67.0
18.101,-0.439,-0.643,174.0
0.0,0.0,0.0,0.0
0.0,0.0,0.0,0.0
32.012,-0.755,-0.582,0.0
27.689,-0.647,-0.65,0.0
18.161,-0.42,-0.521,60.0
18.109,-0.414,-0.615,171.0
0.0,0.0,0.0,0.0
0.0,0.0,0.0,0.0
34.162,-0.759,-0.567,0.0
29.341,-0.644,-0.643,0.0
18.189,-0.395,-0.494,0.0
18.157,-0.39,-0.588,151.0
0.0,0.0,0.0,0.0
44.831,-0.942,-0.439,2.0
0.0,0.0,0.0,0.0
0.0,0.0,0.0,0.0
26.002,-0.527,-0.665,0.0
23.099,-0.463,-0.712,0.0
0.0,0.0,0.0,0.0
46.099,-0.902,-0.381,1.0
0.0,0.0,0.0,0.0
0.0,0.0,0.0,0.0
27.376,-0.515,-0.659,0.0
23.847,-0.443,-0.698,0.0
0.0,0.0,0.0,0.0
50.54,-0.915,-0.34,0.0
0.0,0.0,0.0,0.0
33.391,-0.588,-0.578,0.0
28.829,-0.5,-0.65,0.0
24.744,-0.423,-0.688,0.0
0.0,0.0,0.0,0.0
0.0,0.0,0.0,0.0
0.0,0.0,0.0,0.0
0.0,0.0,0.0,0.0
29.902,-0.473,-0.63,0.0
25.853,-0.402,-0.68,0.0
0.0,0.0,0.0,0.0
0.0,0.0,0.0,0.0
46.751,-0.691,-0.421,1.0
0.0,0.0,0.0,0.0
30.948,-0.441,-0.607,0.0
26.475,-0.37,-0.658,0.0
0.0,0.0,0.0,0.0
0.0,0.0,0.0,0.0
0.0,0.0,0.0,0.0
0.0,0.0,0.0,0.0
32.165,-0.408,-0.585,0.0
27.573,-0.342,-0.646,0.0
0.0,0.0,0.0,0.0
0.0,0.0,0.0,0.0
0.0,0.0,0.0,0.0
40.341,-0.457,-0.464,0.0
33.542,-0.371,-0.563,0.0
29.162,-0.315,-0.642,0.0
119.752,-1.264,0.687,96.0
0.0,0.0,0.0,0.0
41.17,-0.411,-0.196,1.0
0.0,0.0,0.0,0.0
35.774,-0.337,-0.551,0.0
29.983,-0.274,-0.619,0.0
119.715,-1.067,0.852,8.0
0.0,0.0,0.0,0.0
0.0,0.0,0.0,0.0
46.274,-0.373,-0.406,0.0
37.761,-0.294,-0.531,0.0
0.0,0.0,0.0,0.0
119.725,-0.869,1.012,17.0
0.0,0.0,0.0,0.0
0.0,0.0,0.0,0.0
0.0,0.0,0.0,0.0
40.066,-0.245,-0.51,0.0
33.139,-0.193,-0.597,0.0
119.718,-0.667,1.169,16.0
106.614,-0.563,0.478,1.0
0.0,0.0,0.0,0.0
51.104,-0.24,-0.315,0.0
41.39,-0.183,-0.474,0.0
34.415,-0.142,-0.576,0.0
119.73,-0.462,1.323,11.0
111.118,-0.397,0.64,8.0
0.0,0.0,0.0,0.0
0.0,0.0,0.0,0.0
44.94,-0.121,-0.458,1.0
35.754,-0.085,-0.553,0.0
119.747,-0.254,1.474,7.0
111.129,-0.203,0.78,14.0
0.0,0.0,0.0,0.0
0.0,0.0,0.0,0.0
45.172,-0.042,-0.404,2.0
37.538,-0.024,-0.535,0.0
117.324,-0.043,1.588,10.0
111.209,-0.008,0.916,7.0
95.621,0.021,0.281,7.0
50.134,0.026,-0.123,1.0
47.598,0.038,-0.369,0.0
0.0,0.0,0.0,0.0
111.117,0.156,1.637,11.0
111.113,0.189,1.047,11.0
0.0,0.0,0.0,0.0
0.0,0.0,0.0,0.0
0.0,0.0,0.0,0.0
40.761,0.118,-0.485,0.0
119.896,0.385,1.906,150.0
111.168,0.391,1.177,11.0
104.147,0.397,0.55,6.0
0.0,0.0,0.0,0.0
0.0,0.0,0.0,0.0
42.915,0.202,-0.461,1.0
111.089,0.561,1.894,27.0
111.061,0.595,1.303,25.0
104.718,0.593,0.671,12.0
86.624,0.516,0.086,3.0
0.0,0.0,0.0,0.0
46.044,0.302,-0.444,0.0
104.868,0.722,1.903,11.0
0.0,0.0,0.0,0.0
104.774,0.786,0.786,18.0
84.735,0.661,0.175,5.0
0.0,0.0,0.0,0.0
46.759,0.394,-0.4,0.0
100.021,0.876,1.923,2.0
104.731,0.95,1.455,16.0
98.608,0.925,0.845,16.0
85.365,0.826,0.267,4.0
0.0,0.0,0.0,0.0
47.49,0.489,-0.357,0.0
98.648,1.049,1.998,28.0
98.554,1.078,1.47,25.0
98.515,1.107,0.943,24.0
85.378,0.986,0.353,14.0
78.662,0.933,-0.094,0.0
0.0,0.0,0.0,0.0
98.556,1.233,2.095,30.0
98.545,1.264,1.568,26.0
98.564,1.295,1.041,30.0
85.385,1.147,0.436,10.0
76.955,1.057,-0.017,0.0
0.0,0.0,0.0,0.0
119.927,1.729,2.665,67.0
99.172,1.461,1.673,19.0
92.029,1.384,1.06,26.0
91.815,1.409,0.556,11.0
74.768,1.171,0.053,1.0
0.0,0.0,0.0,0.0
91.93,1.501,2.128,30.0
91.886,1.529,1.635,30.0
87.477,1.483,1.087,29.0
91.784,1.584,0.639,24.0
73.875,1.299,0.119,4.0
0.0,0.0,0.0,0.0
0.0,0.0,0.0,0.0
87.192,1.621,1.63,20.0
91.939,1.738,1.225,22.0
85.566,1.645,0.672,11.0
77.916,1.522,0.194,6.0
0.0,0.0,0.0,0.0
85.44,1.729,2.13,10.0
85.361,1.754,1.669,29.0
85.29,1.779,1.209,32.0
85.262,1.805,0.741,29.0
72.102,1.55,0.239,4.0
68.709,1.498,-0.14,0.0
85.249,1.892,2.195,33.0
85.229,1.918,1.736,42.0
85.226,1.945,1.277,38.0
85.255,1.973,0.81,31.0
78.646,1.845,0.324,5.0
67.061,1.594,-0.084,5.0
85.282,2.062,2.264,27.0
85.339,2.089,1.805,25.0
120.02,2.975,1.892,22.0
78.992,1.983,0.811,21.0
78.736,2.001,0.384,10.0
65.66,1.69,-0.033,5.0
78.898,2.063,2.154,29.0
78.868,2.087,1.727,30.0
78.838,2.111,1.301,5.0
76.753,2.078,0.844,5.0
78.717,2.157,0.441,14.0
65.277,1.809,0.013,7.0
78.821,2.217,2.208,27.0
75.811,2.157,1.714,4.0
78.912,2.269,1.357,5.0
78.876,2.293,0.922,25.0
78.783,2.315,0.495,14.0
70.369,2.089,0.062,6.0
78.973,2.378,2.265,3.0
194.598,5.923,4.53,8.0
120.036,3.69,2.144,15.0
119.936,3.723,1.48,11.0
72.403,2.271,0.502,32.0
71.069,2.252,0.108,7.0
72.518,2.329,2.127,24.0
72.45,2.348,1.732,32.0
72.395,2.369,1.338,35.0
72.367,2.392,0.938,34.0
72.341,2.413,0.545,31.0
71.067,2.393,0.151,8.0
72.399,2.47,2.167,33.0
72.393,2.492,1.773,35.0
72.366,2.513,1.38,32.0
72.357,2.536,0.98,34.0
72.345,2.557,0.587,24.0
71.575,2.553,0.192,6.0
72.45,2.617,2.209,26.0
72.486,2.64,1.816,24.0
72.493,2.663,1.422,10.0
120.088,4.448,1.691,20.0
62.507,2.335,0.54,27.0
65.907,2.483,0.212,8.0
195.467,7.452,6.063,12.0
120.037,4.614,3.07,17.0
63.878,2.474,1.286,6.0
61.706,2.41,0.9,8.0
120.008,4.723,1.097,15.0
65.995,2.617,0.244,16.0
66.158,2.654,2.084,7.0
64.289,2.599,1.675,7.0
50.948,2.075,1.049,5.0
66.174,2.716,0.995,22.0
66.067,2.732,0.634,29.0
66.017,2.751,0.274,20.0
66.033,2.783,2.11,25.0
62.345,2.646,1.651,7.0
50.778,2.171,1.068,16.0
50.416,2.171,0.78,22.0
66.051,2.865,0.662,29.0
66.051,2.886,0.301,18.0
66.115,2.919,2.139,14.0
61.073,2.715,1.642,8.0
50.622,2.265,1.084,23.0
50.23,2.262,0.796,12.0
66.128,2.999,0.687,22.0
66.125,3.02,0.326,12.0
61.049,2.818,1.998,7.0
120.048,5.578,3.272,4.0
50.531,2.363,1.101,40.0
49.551,2.332,0.803,9.0
120.025,5.686,1.288,16.0
120.047,5.723,0.632,11.0
0.0,0.0,0.0,0.0
50.798,2.461,1.401,5.0
50.212,2.448,1.109,31.0
49.111,2.41,0.811,8.0
48.796,2.409,0.538,4.0
120.029,5.96,0.667,6.0
59.481,2.983,1.984,22.0
50.604,2.552,1.409,19.0
50.021,2.538,1.119,6.0
48.717,2.486,0.817,15.0
48.417,2.485,0.547,10.0
59.383,3.066,0.345,23.0
59.406,3.098,1.996,27.0
50.528,2.65,1.42,40.0
49.087,2.588,1.109,10.0
48.39,2.566,0.823,14.0
48.129,2.566,0.554,15.0
59.299,3.18,0.357,23.0
59.456,3.219,2.01,22.0
50.51,2.749,1.43,22.0
48.817,2.671,1.113,12.0
48.115,2.646,0.827,19.0
47.953,2.651,0.561,21.0
59.368,3.3,0.368,19.0
50.889,2.856,1.73,6.0
49.513,2.792,1.41,6.0
48.234,2.734,1.108,9.0
47.928,2.731,0.832,22.0
47.727,2.733,0.565,36.0
59.209,3.407,0.375,3.0
50.819,2.951,1.734,27.0
49.067,2.864,1.404,18.0
47.939,2.811,1.106,15.0
47.726,2.812,0.834,29.0
114.029,6.753,1.364,7.0
113.632,6.762,0.731,6.0
50.322,3.021,1.722,9.0
48.248,2.91,1.384,7.0
47.713,2.892,1.105,21.0
47.537,2.895,0.834,35.0
111.101,6.797,1.336,70.0
111.135,6.832,0.722,33.0
49.456,3.066,1.695,19.0
47.787,2.976,1.374,6.0
47.469,2.969,1.102,44.0
110.739,6.959,1.947,6.0
110.283,6.961,1.33,8.0
52.405,3.323,0.341,3.0
48.812,3.121,1.674,16.0
47.469,3.048,1.365,16.0
52.373,3.377,1.216,4.0
52.347,3.39,0.92,27.0
52.311,3.402,0.63,41.0
52.251,3.413,0.34,31.0
48.064,3.165,1.647,9.0
47.321,3.129,1.359,53.0
52.213,3.467,1.21,43.0
52.207,3.481,0.915,42.0
52.218,3.496,0.626,37.0
52.189,3.509,0.337,24.0
47.256,3.202,1.617,24.0
52.206,3.551,1.496,37.0
52.186,3.564,1.206,36.0
52.192,3.578,0.911,35.0
52.196,3.593,0.621,37.0
52.18,3.606,0.332,18.0
52.26,3.641,1.783,16.0
52.251,3.654,1.492,24.0
52.256,3.668,1.202,24.0
52.245,3.681,0.906,25.0
52.239,3.695,0.616,22.0
52.202,3.706,0.325,18.0
102.085,7.303,3.47,79.0
102.089,7.331,2.901,65.0
102.104,7.358,2.334,43.0
102.2,7.392,1.756,17.0
102.133,7.414,1.188,11.0
52.304,3.811,0.317,6.0
101.977,7.485,3.448,26.0
101.791,7.497,2.875,3.0
101.469,7.498,2.3,6.0
101.116,7.499,1.719,5.0
100.932,7.512,1.154,10.0
100.764,7.526,0.591,7.0
101.984,7.672,3.428,35.0
100.42,7.58,2.815,6.0
100.282,7.594,2.252,9.0
100.076,7.604,1.678,8.0
99.883,7.614,1.119,8.0
99.592,7.617,0.56,4.0
101.378,7.809,3.383,18.0
99.413,7.683,2.762,6.0
99.182,7.688,2.202,8.0
99.009,7.7,1.635,8.0
98.829,7.712,1.08,8.0
45.943,3.597,0.246,14.0
45.952,3.623,1.52,31.0
45.956,3.634,1.263,17.0
45.934,3.644,1.006,18.0
45.904,3.652,0.744,34.0
45.859,3.661,0.487,40.0
45.799,3.667,0.231,35.0
45.83,3.695,1.502,41.0
45.822,3.705,1.245,40.0
45.806,3.715,0.988,42.0
45.784,3.724,0.726,43.0
45.779,3.735,0.47,42.0
45.739,3.743,0.214,29.0
45.804,3.773,1.485,46.0
45.796,3.784,1.228,37.0
45.775,3.793,0.971,38.0
45.762,3.802,0.71,36.0
45.755,3.812,0.453,32.0
45.727,3.821,0.197,19.0
45.819,3.854,1.468,33.0
45.789,3.862,1.21,31.0
45.776,3.871,0.952,33.0
45.773,3.882,0.691,33.0
45.77,3.893,0.435,27.0
45.725,3.9,0.178,15.0
45.906,3.94,1.451,13.0
45.879,3.948,1.192,18.0
45.858,3.957,0.934,17.0
45.846,3.966,0.672,18.0
45.858,3.978,0.415,15.0
45.82,3.985,0.157,13.0
93.13,8.15,2.901,56.0
93.15,8.173,2.378,41.0
93.249,8.202,1.857,17.0
93.232,8.22,1.323,15.0
93.102,8.23,0.799,12.0
92.855,8.231,0.275,5.0
92.931,8.288,2.85,6.0
92.793,8.294,2.323,5.0
92.529,8.291,1.796,8.0
92.427,8.302,1.266,7.0
92.261,8.308,0.744,10.0
45.711,4.126,0.111,11.0
91.942,8.35,2.771,5.0
91.857,8.361,2.252,10.0
91.724,8.367,1.732,10.0
91.524,8.369,1.204,10.0
91.455,8.383,0.688,9.0
91.254,8.385,0.173,8.0
91.156,8.425,2.697,10.0
91.056,8.433,2.181,9.0
90.908,8.439,1.665,11.0
90.802,8.447,1.143,10.0
90.641,8.452,0.63,9.0
88.16,8.239,0.116,4.0
90.422,8.498,2.623,11.0
90.292,8.505,2.109,10.0
90.169,8.51,1.598,10.0
89.998,8.512,1.079,11.0
89.866,8.519,0.57,11.0
73.225,6.957,0.051,5.0
89.663,8.566,2.545,12.0
89.574,8.574,2.037,11.0
89.416,8.577,1.529,12.0
89.275,8.58,1.013,12.0
89.127,8.585,0.508,11.0
73.324,7.078,0.005,6.0
88.953,8.632,2.467,13.0
88.81,8.635,1.961,12.0
88.675,8.639,1.457,11.0
88.569,8.646,0.947,13.0
88.469,8.653,0.446,10.0
45.814,4.49,-0.027,1.0
88.29,8.699,2.389,5.0
88.133,8.699,1.887,7.0
88.007,8.703,1.386,11.0
87.853,8.705,0.878,11.0
87.731,8.709,0.381,11.0
45.785,4.555,-0.06,3.0
87.615,8.759,2.309,6.0
87.524,8.765,1.812,7.0
87.317,8.76,1.313,11.0
87.198,8.764,0.809,11.0
87.052,8.766,0.315,9.0
45.781,4.619,-0.093,12.0
86.95,8.816,2.228,11.0
86.843,8.819,1.733,10.0
86.735,8.823,1.24,10.0
86.604,8.826,0.739,10.0
86.468,8.827,0.248,8.0
45.493,4.653,-0.127,11.0
86.35,8.873,2.147,12.0
86.204,8.873,1.654,11.0
86.124,8.879,1.164,11.0
85.987,8.88,0.666,11.0
85.859,8.882,0.179,10.0
0.0,0.0,0.0,0.0
85.713,8.923,2.063,12.0
85.624,8.927,1.575,10.0
85.539,8.933,1.089,11.0
85.248,8.916,0.592,10.0
84.183,8.82,0.108,22.0
45.543,4.78,-0.199,3.0
84.189,8.873,1.958,35.0
84.18,8.886,1.48,57.0
84.166,8.898,1.002,108.0
84.155,8.911,0.516,150.0
84.157,8.926,0.037,14.0
0.0,0.0,0.0,0.0
84.161,8.978,1.887,41.0
84.206,8.996,1.41,27.0
84.322,9.021,0.932,20.0
84.253,9.028,0.444,14.0
76.067,8.163,-0.03,3.0
40.833,4.389,-0.248,16.0
84.104,9.077,1.812,8.0
84.005,9.078,1.332,6.0
81.194,8.787,0.826,4.0
83.776,9.079,0.368,5.0
70.316,7.631,-0.09,3.0
40.406,4.392,-0.281,16.0
83.592,9.121,1.727,8.0
83.472,9.12,1.251,10.0
81.226,8.886,0.754,7.0
79.946,8.758,0.28,6.0
65.715,7.209,-0.143,7.0
39.983,4.392,-0.314,18.0
83.093,9.162,1.642,11.0
83.022,9.166,1.167,11.0
82.837,9.157,0.694,6.0
82.722,9.156,0.213,4.0
45.721,5.068,-0.142,2.0
39.558,4.391,-0.348,30.0
82.613,9.203,1.555,12.0
82.524,9.204,1.083,11.0
82.395,9.2,0.612,10.0
80.66,9.017,0.132,15.0
45.436,5.086,-0.184,7.0
39.249,4.399,-0.382,16.0
82.175,9.242,1.468,11.0
82.1,9.244,0.999,11.0
82.007,9.243,0.53,9.0
67.171,7.58,0.045,8.0
42.703,4.825,-0.214,17.0
38.895,4.4,-0.416,11.0
81.746,9.278,1.381,12.0
81.702,9.283,0.915,10.0
81.59,9.28,0.448,6.0
67.082,7.638,-0.02,10.0
0.0,0.0,0.0,0.0
38.714,4.419,-0.453,8.0
81.413,9.321,1.295,10.0
81.267,9.314,0.828,10.0
81.238,9.32,0.365,6.0
64.515,7.409,-0.084,8.0
40.373,4.642,-0.283,15.0
38.685,4.453,-0.491,8.0
67.619,7.806,1.008,17.0
66.635,7.7,0.613,14.0
66.383,7.678,0.231,30.0
64.127,7.425,-0.148,7.0
39.838,4.617,-0.319,29.0
38.652,4.485,-0.531,9.0
66.34,7.719,0.92,55.0
66.339,7.726,0.541,62.0
66.348,7.734,0.163,69.0
45.623,5.323,-0.153,11.0
39.455,4.608,-0.357,34.0
38.634,4.517,-0.571,4.0
66.332,7.776,0.851,69.0
66.343,7.783,0.471,47.0
66.361,7.792,0.093,35.0
45.435,5.34,-0.2,7.0
39.111,4.601,-0.395,14.0
38.609,4.547,-0.611,0.0
66.459,7.845,0.782,21.0
66.53,7.86,0.403,16.0
66.509,7.864,0.023,9.0
41.3,4.887,-0.225,11.0
38.697,4.583,-0.432,10.0
0.0,0.0,0.0,0.0
66.367,7.886,0.71,16.0
66.286,7.882,0.331,13.0
66.241,7.883,-0.047,10.0
40.534,4.827,-0.264,16.0
38.584,4.599,-0.472,8.0
30.408,3.628,-0.546,1.0
66.075,7.899,0.637,17.0
65.992,7.895,0.258,14.0
65.963,7.897,-0.118,2.0
39.868,4.777,-0.303,26.0
38.554,4.623,-0.514,9.0
30.056,3.607,-0.573,12.0
65.813,7.914,0.561,15.0
65.766,7.913,0.185,10.0
45.571,5.487,-0.132,4.0
39.445,4.753,-0.344,19.0
38.536,4.647,-0.556,6.0
29.933,3.612,-0.603,15.0
65.561,7.926,0.487,19.0
65.5,7.923,0.111,9.0
45.591,5.518,-0.182,6.0
39.082,4.733,-0.384,15.0
30.162,3.656,-0.469,3.0
29.718,3.605,-0.632,2.0
65.326,7.937,0.412,19.0
65.253,7.932,0.037,11.0
42.197,5.132,-0.216,17.0
38.669,4.706,-0.423,13.0
29.987,3.652,-0.5,2.0
27.657,3.371,-0.619,0.0
65.117,7.948,0.338,17.0
65.055,7.944,-0.034,10.0
40.79,4.983,-0.255,16.0
38.497,4.706,-0.465,8.0
29.912,3.659,-0.532,2.0
27.04,3.31,-0.636,0.0
64.931,7.958,0.263,17.0
45.789,5.614,-0.075,4.0
40.13,4.923,-0.296,16.0
38.479,4.723,-0.508,7.0
29.796,3.659,-0.564,3.0
26.248,3.225,-0.648,1.0
64.733,7.964,0.189,10.0
45.76,5.632,-0.127,16.0
39.571,4.872,-0.337,15.0
38.49,4.741,-0.552,4.0
29.494,3.635,-0.592,4.0
25.667,3.165,-0.662,0.0
64.548,7.968,0.114,9.0
0.0,0.0,0.0,0.0
39.025,4.821,-0.377,20.0
29.752,3.677,-0.461,3.0
29.295,3.622,-0.622,4.0
24.97,3.089,-0.673,0.0
64.422,7.977,0.04,10.0
42.004,5.202,-0.214,17.0
38.671,4.791,-0.418,14.0
29.636,3.673,-0.493,2.0
29.249,3.627,-0.655,0.0
24.234,3.006,-0.681,0.0
64.298,7.982,-0.033,5.0
41.078,5.101,-0.256,17.0
38.467,4.778,-0.46,8.0
29.533,3.67,-0.526,2.0
26.915,3.346,-0.633,0.0
23.62,2.937,-0.692,0.0
64.155,7.983,-0.107,4.0
40.202,5.003,-0.297,17.0
38.442,4.785,-0.505,6.0
29.339,3.653,-0.556,7.0
26.227,3.267,-0.648,1.0
23.076,2.876,-0.702,0.0
45.662,5.692,-0.129,11.0
39.449,4.919,-0.337,37.0
30.222,3.769,-0.432,5.0
29.289,3.654,-0.589,14.0
25.585,3.193,-0.662,0.0
22.389,2.795,-0.707,0.0
0.0,0.0,0.0,0.0
39.009,4.871,-0.379,14.0
29.75,3.715,-0.46,4.0
29.23,3.651,-0.622,5.0
24.96,3.119,-0.674,0.0
21.803,2.725,-0.714,0.0
41.888,5.236,-0.215,17.0
38.613,4.827,-0.42,14.0
29.466,3.684,-0.489,2.0
27.347,3.419,-0.614,0.0
24.187,3.025,-0.681,0.0
21.328,2.668,-0.723,0.0
40.936,5.12,-0.258,17.0
38.455,4.81,-0.462,9.0
29.414,3.68,-0.522,3.0
26.743,3.346,-0.631,1.0
23.626,2.957,-0.693,0.0
20.676,2.588,-0.725,0.0
40.136,5.022,-0.299,21.0
38.463,4.813,-0.507,5.0
29.333,3.671,-0.555,6.0
26.196,3.278,-0.648,1.0
22.855,2.861,-0.697,0.0
20.265,2.537,-0.734,0.0
39.458,4.937,-0.34,16.0
30.323,3.794,-0.434,7.0
29.303,3.667,-0.588,7.0
25.517,3.193,-0.661,0.0
22.394,2.803,-0.709,0.0
19.852,2.485,-0.742,0.0
38.955,4.873,-0.38,15.0
29.656,3.709,-0.459,3.0
29.214,3.654,-0.62,4.0
24.787,3.1,-0.67,0.0
21.782,2.725,-0.714,0.0
19.474,2.436,-0.75,0.0
38.581,4.822,-0.42,12.0
29.489,3.686,-0.49,2.0
27.433,3.428,-0.613,0.0
24.073,3.008,-0.678,0.0
21.281,2.659,-0.722,0.0
18.88,2.36,-0.749,0.0
38.461,4.802,-0.462,8.0
29.446,3.676,-0.523,3.0
26.822,3.348,-0.629,1.0
23.53,2.937,-0.689,0.0
20.714,2.585,-0.726,0.0
18.623,2.324,-0.759,0.0
38.477,4.797,-0.505,6.0
29.331,3.656,-0.553,8.0
26.203,3.266,-0.644,1.0
22.919,2.856,-0.697,0.0
20.242,2.522,-0.732,0.0
18.317,2.282,-0.768,0.0
30.048,3.739,-0.428,3.0
29.307,3.646,-0.586,15.0
25.503,3.172,-0.655,0.0
22.388,2.784,-0.706,0.0
19.928,2.478,-0.743,0.0
17.885,2.224,-0.769,0.0
29.698,3.688,-0.456,3.0
29.274,3.634,-0.617,6.0
24.881,3.088,-0.667,0.0
21.873,2.714,-0.714,0.0
19.566,2.427,-0.751,0.0
17.491,2.17,-0.771,0.0
29.668,3.674,-0.487,2.0
27.538,3.409,-0.61,0.0
24.293,3.007,-0.677,0.0
21.29,2.634,-0.718,0.0
18.971,2.347,-0.749,0.0
17.212,2.129,-0.778,0.0
29.714,3.669,-0.521,2.0
27.012,3.334,-0.628,1.0
23.598,2.912,-0.683,0.0
20.733,2.558,-0.721,0.0
18.585,2.292,-0.753,0.0
16.931,2.088,-0.783,0.0
29.772,3.664,-0.553,2.0
26.341,3.241,-0.64,0.0
23.094,2.84,-0.693,0.0
20.405,2.509,-0.731,0.0
18.332,2.253,-0.762,0.0
16.66,2.047,-0.788,0.0
29.765,3.65,-0.584,5.0
25.73,3.154,-0.652,0.0
22.58,2.767,-0.701,0.0
19.975,2.446,-0.737,0.0
18.04,2.209,-0.769,0.0
16.353,2.002,-0.791,0.0
29.658,3.622,-0.612,2.0
25.082,3.062,-0.662,0.0
22.115,2.698,-0.71,0.0
19.53,2.382,-0.74,0.0
17.696,2.157,-0.772,0.0
16.176,1.971,-0.799,0.0
27.78,3.378,-0.602,0.0
24.522,2.98,-0.672,0.0
21.545,2.617,-0.713,0.0
19.192,2.33,-0.747,0.0
17.308,2.1,-0.773,0.0
15.905,1.929,-0.802,0.0
27.303,3.304,-0.619,0.0
23.902,2.891,-0.678,0.0
20.994,2.537,-0.716,0.0
18.802,2.271,-0.751,0.0
17.056,2.06,-0.778,0.0
15.677,1.892,-0.805,0.0
26.647,3.208,-0.63,1.0
23.254,2.798,-0.683,0.0
20.699,2.489,-0.726,0.0
18.437,2.216,-0.754,0.0
16.842,2.023,-0.785,0.0
15.4,1.849,-0.806,0.0
26.111,3.126,-0.643,0.0
22.946,2.745,-0.696,0.0
20.267,2.423,-0.73,0.0
18.107,2.163,-0.758,0.0
16.596,1.982,-0.789,0.0
15.175,1.811,-0.809,0.0
25.525,3.037,-0.653,0.0
22.455,2.67,-0.702,0.0
19.926,2.368,-0.737,0.0
17.842,2.119,-0.764,0.0
16.307,1.935,-0.791,0.0
15.034,1.783,-0.815,0.0
25.011,2.957,-0.662,0.0
21.745,2.569,-0.7,0.0
19.582,2.312,-0.742,0.0
17.62,2.079,-0.77,0.0
16.087,1.897,-0.795,0.0
14.85,1.75,-0.819,0.0
24.342,2.859,-0.667,0.0
21.52,2.525,-0.712,0.0
19.257,2.258,-0.747,0.0
17.39,2.038,-0.776,0.0
15.894,1.861,-0.8,0.0
14.668,1.716,-0.822,0.0
23.893,2.786,-0.675,0.0
21.152,2.465,-0.718,0.0
18.85,2.195,-0.748,0.0
17.047,1.983,-0.775,0.0
15.74,1.829,-0.806,0.0
14.431,1.676,-0.821,0.0
23.468,2.716,-0.684,0.0
20.661,2.389,-0.719,0.0
18.616,2.151,-0.754,0.0
16.887,1.949,-0.782,0.0
15.472,1.785,-0.805,0.0
14.314,1.65,-0.827,0.0
23.047,2.647,-0.69,0.0
20.376,2.337,-0.726,0.0
18.315,2.099,-0.757,0.0
16.622,1.903,-0.783,0.0
15.315,1.752,-0.809,0.0
14.168,1.62,-0.83,0.0
22.687,2.583,-0.698,0.0
20.062,2.282,-0.731,0.0
18.114,2.059,-0.763,0.0
16.416,1.864,-0.787,0.0
15.131,1.716,-0.812,0.0
14.006,1.587,-0.831,0.0
22.242,2.511,-0.701,0.0
19.894,2.244,-0.74,0.0
17.812,2.007,-0.764,0.0
16.326,1.837,-0.795,0.0
14.977,1.684,-0.815,0.0
13.876,1.559,-0.834,0.0
21.871,2.447,-0.706,0.0
19.538,2.183,-0.741,0.0
17.614,1.966,-0.769,0.0
16.108,1.796,-0.796,0.0
14.801,1.649,-0.816,0.0
13.781,1.534,-0.838,0.0
21.598,2.394,-0.712,0.0
19.182,2.123,-0.742,0.0
17.403,1.924,-0.772,0.0
15.836,1.749,-0.794,0.0
14.691,1.621,-0.82,0.0
13.678,1.507,-0.841,0.0
21.199,2.326,-0.714,0.0
18.985,2.081,-0.747,0.0
17.202,1.883,-0.775,0.0
15.82,1.73,-0.804,0.0
14.51,1.585,-0.82,0.0
13.537,1.477,-0.842,0.0
20.803,2.259,-0.714,0.0
18.761,2.035,-0.751,0.0
17.021,1.844,-0.777,0.0
15.635,1.692,-0.805,0.0
14.409,1.557,-0.823,0.0
13.38,1.444,-0.841,0.0
20.645,2.218,-0.722,0.0
18.459,1.981,-0.75,0.0
16.834,1.804,-0.78,0.0
15.447,1.653,-0.805,0.0
14.252,1.523,-0.823,0.0
13.273,1.417,-0.842,0.0
20.407,2.168,-0.726,0.0
18.317,1.943,-0.755,0.0
16.686,1.768,-0.782,0.0
15.356,1.625,-0.809,0.0
14.193,1.5,-0.828,0.0
13.258,1.399,-0.849,0.0
20.125,2.113,-0.727,0.0
18.216,1.91,-0.761,0.0
16.555,1.733,-0.786,0.0
15.238,1.593,-0.811,0.0
14.134,1.476,-0.832,0.0
13.074,1.363,-0.844,0.0
19.929,2.068,-0.731,0.0
18.036,1.868,-0.764,0.0
16.504,1.707,-0.792,0.0
15.201,1.57,-0.817,0.0
14.009,1.445,-0.832,0.0
13.002,1.339,-0.846,0.0
19.747,2.024,-0.734,0.0
17.837,1.825,-0.764,0.0
16.257,1.66,-0.788,0.0
15.012,1.531,-0.814,0.0
13.919,1.417,-0.834,0.0
12.94,1.316,-0.848,0.0
19.62,1.984,-0.739,0.0
17.683,1.785,-0.766,0.0
16.21,1.634,-0.793,0.0
14.895,1.499,-0.815,0.0
13.848,1.391,-0.836,0.0
12.893,1.293,-0.851,0.0
19.51,1.947,-0.743,0.0
17.656,1.759,-0.772,0.0
16.138,1.605,-0.797,0.0
14.86,1.475,-0.819,0.0
13.798,1.368,-0.838,0.0
12.862,1.273,-0.854,0.0
19.252,1.895,-0.741,0.0
17.499,1.719,-0.772,0.0
15.964,1.566,-0.794,0.0
14.744,1.443,-0.818,0.0
13.686,1.337,-0.837,0.0
12.824,1.251,-0.856,0.0
19.199,1.863,-0.746,0.0
17.436,1.688,-0.775,0.0
15.881,1.535,-0.796,0.0
14.663,1.415,-0.819,0.0
13.713,1.321,-0.843,0.0
12.771,1.228,-0.857,0.0
19.04,1.82,-0.746,0.0
17.302,1.651,-0.775,0.0
15.889,1.513,-0.801,0.0
14.583,1.386,-0.819,0.0
13.646,1.295,-0.843,0.0
12.617,1.195,-0.851,0.0
18.959,1.785,-0.748,0.0
17.206,1.617,-0.776,0.0
15.776,1.479,-0.8,0.0
14.45,1.352,-0.815,0.0
13.617,1.272,-0.845,0.0
12.56,1.171,-0.85,0.0
18.821,1.744,-0.748,0.0
17.15,1.586,-0.777,0.0
15.705,1.449,-0.8,0.0
14.465,1.332,-0.819,0.0
13.518,1.242,-0.842,0.0
12.494,1.146,-0.848,0.0
18.773,1.711,-0.75,0.0
17.085,1.554,-0.778,0.0
15.653,1.421,-0.801,0.0
14.429,1.307,-0.82,0.0
13.493,1.219,-0.843,0.0
12.449,1.123,-0.848,0.0
18.744,1.68,-0.752,0.0
17.01,1.521,-0.778,0.0
15.605,1.392,-0.801,0.0
14.386,1.281,-0.82,0.0
13.463,1.196,-0.843,0.0
12.433,1.102,-0.848,0.0
18.639,1.642,-0.75,0.0
17.012,1.495,-0.78,0.0
15.604,1.368,-0.803,0.0
14.344,1.255,-0.82,0.0
13.43,1.172,-0.843,0.0
12.481,1.087,-0.853,0.0
18.641,1.613,-0.752,0.0
16.94,1.462,-0.778,0.0
15.639,1.347,-0.806,0.0
14.376,1.235,-0.823,0.0
13.449,1.153,-0.845,0.0
12.457,1.065,-0.852,0.0
18.617,1.582,-0.753,0.0
16.938,1.435,-0.779,0.0
15.586,1.317,-0.804,0.0
14.385,1.213,-0.824,0.0
13.407,1.128,-0.843,0.0
12.442,1.044,-0.852,0.0
18.629,1.553,-0.753,0.0
16.932,1.407,-0.779,0.0
15.578,1.292,-0.804,0.0
14.386,1.19,-0.824,0.0
13.333,1.1,-0.838,0.0
12.567,1.034,-0.86,0.0
18.605,1.521,-0.752,0.0
16.995,1.385,-0.782,0.0
15.578,1.266,-0.803,0.0
14.392,1.167,-0.824,0.0
13.455,1.088,-0.845,0.0
12.474,1.006,-0.853,0.0
18.662,1.495,-0.753,0.0
17.019,1.359,-0.781,0.0
15.596,1.242,-0.803,0.0
14.384,1.142,-0.822,0.0
13.451,1.065,-0.844,0.0
12.496,0.987,-0.853,0.0
18.687,1.466,-0.753,0.0
16.994,1.329,-0.779,0.0
15.65,1.22,-0.804,0.0
14.384,1.118,-0.82,0.0
13.485,1.045,-0.844,0.0
12.579,0.972,-0.857,0.0
18.726,1.438,-0.752,0.0
17.109,1.309,-0.781,0.0
15.652,1.194,-0.802,0.0
14.376,1.094,-0.817,0.0
13.495,1.024,-0.842,0.0
12.561,0.95,-0.854,0.0
18.79,1.411,-0.751,0.0
17.149,1.284,-0.78,0.0
15.686,1.17,-0.8,0.0
14.426,1.073,-0.817,0.0
13.589,1.008,-0.845,0.0
12.611,0.932,-0.854,0.0
18.815,1.381,-0.747,0.0
17.242,1.262,-0.78,0.0
15.805,1.153,-0.803,0.0
14.519,1.055,-0.819,0.0
13.547,0.982,-0.839,0.0
12.686,0.916,-0.856,0.0
18.902,1.356,-0.746,0.0
17.242,1.232,-0.776,0.0
15.91,1.133,-0.804,0.0
14.524,1.031,-0.815,0.0
13.622,0.964,-0.84,0.0
12.719,0.897,-0.855,0.0
19.079,1.336,-0.747,0.0
17.38,1.213,-0.777,0.0
15.92,1.107,-0.799,0.0
14.651,1.015,-0.818,0.0
13.689,0.945,-0.84,0.0
12.707,0.874,-0.85,0.0
19.176,1.31,-0.745,0.0
17.485,1.19,-0.775,0.0
16.018,1.086,-0.798,0.0
14.672,0.991,-0.814,0.0
13.728,0.924,-0.837,0.0
12.809,0.859,-0.851,0.0
19.4,1.292,-0.746,0.0
17.619,1.169,-0.774,0.0
16.084,1.063,-0.795,0.0
14.774,0.972,-0.813,0.0
13.813,0.906,-0.836,0.0
12.927,0.845,-0.854,0.0
19.632,1.273,-0.746,0.0
17.788,1.149,-0.774,0.0
16.289,1.048,-0.798,0.0
14.963,0.959,-0.817,0.0
13.925,0.889,-0.837,0.0
12.966,0.825,-0.85,0.0
19.652,1.241,-0.738,0.0
17.848,1.122,-0.768,0.0
16.285,1.02,-0.79,0.0
15.067,0.94,-0.815,0.0
13.991,0.869,-0.834,0.0
13.08,0.809,-0.851,0.0
19.916,1.223,-0.738,0.0
18.031,1.102,-0.767,0.0
16.513,1.005,-0.792,0.0
15.105,0.916,-0.809,0.0
14.138,0.854,-0.835,0.0
13.144,0.79,-0.848,0.0
20.075,1.198,-0.733,0.0
18.151,1.078,-0.762,0.0
16.6,0.982,-0.787,0.0
15.253,0.898,-0.808,0.0
14.19,0.832,-0.83,0.0
13.241,0.773,-0.847,0.0
20.351,1.179,-0.731,0.0
18.338,1.057,-0.758,0.0
16.833,0.966,-0.788,0.0
15.411,0.88,-0.807,0.0
14.295,0.813,-0.827,0.0
13.391,0.758,-0.848,0.0
20.62,1.158,-0.727,0.0
18.58,1.039,-0.757,0.0
16.802,0.935,-0.776,0.0
15.517,0.859,-0.803,0.0
14.409,0.794,-0.824,0.0
13.531,0.742,-0.848,0.0
20.982,1.142,-0.726,0.0
18.888,1.023,-0.756,0.0
17.075,0.92,-0.777,0.0
15.735,0.844,-0.803,0.0
14.62,0.78,-0.826,0.0
13.616,0.723,-0.843,0.0
21.245,1.119,-0.72,0.0
19.177,1.005,-0.754,0.0
17.38,0.906,-0.778,0.0
15.986,0.829,-0.804,0.0
14.665,0.757,-0.817,0.0
13.703,0.704,-0.838,0.0
21.585,1.1,-0.715,0.0
19.43,0.985,-0.749,0.0
17.596,0.887,-0.774,0.0
16.053,0.805,-0.795,0.0
14.884,0.742,-0.818,0.0
13.813,0.685,-0.834,0.0
21.963,1.081,-0.71,0.0
19.749,0.966,-0.746,0.0
17.798,0.866,-0.768,0.0
16.197,0.784,-0.789,0.0
15.12,0.728,-0.818,0.0
14.016,0.671,-0.835,0.0
22.428,1.065,-0.707,0.0
20.016,0.945,-0.739,0.0
18.097,0.849,-0.766,0.0
16.523,0.771,-0.79,0.0
15.251,0.708,-0.812,0.0
14.185,0.655,-0.832,0.0
22.746,1.041,-0.697,0.0
20.408,0.928,-0.735,0.0
18.328,0.828,-0.759,0.0
16.772,0.754,-0.787,0.0
15.283,0.683,-0.8,0.0
14.337,0.637,-0.828,0.0
23.335,1.027,-0.694,0.0
20.764,0.909,-0.729,0.0
18.74,0.815,-0.759,0.0
17.111,0.74,-0.787,0.0
15.588,0.67,-0.801,0.0
14.53,0.62,-0.825,0.0
23.811,1.008,-0.685,0.0
21.206,0.892,-0.724,0.0
19.075,0.797,-0.754,0.0
17.264,0.717,-0.777,0.0
15.921,0.657,-0.803,0.0
14.754,0.605,-0.823,0.0
24.228,0.985,-0.673,0.0
21.672,0.875,-0.719,0.0
19.38,0.777,-0.747,0.0
17.5,0.697,-0.77,0.0
16.18,0.64,-0.799,0.0
14.945,0.587,-0.819,0.0
24.995,0.973,-0.669,0.0
22.19,0.858,-0.713,0.0
19.71,0.757,-0.739,0.0
17.953,0.685,-0.771,0.0
16.464,0.624,-0.796,0.0
14.973,0.563,-0.804,0.0
25.813,0.962,-0.663,0.0
22.533,0.833,-0.7,0.0
20.051,0.736,-0.73,0.0
18.266,0.666,-0.765,0.0
16.706,0.604,-0.789,0.0
15.475,0.556,-0.814,0.0
26.362,0.938,-0.648,0.0
23.382,0.826,-0.7,0.0
20.615,0.722,-0.727,0.0
18.518,0.644,-0.754,0.0
17.181,0.593,-0.792,0.0
15.601,0.534,-0.803,0.0
26.818,0.91,-0.629,0.0
23.833,0.802,-0.686,0.0
21.254,0.709,-0.725,0.0
18.98,0.628,-0.751,0.0
17.501,0.575,-0.786,0.0
15.931,0.519,-0.801,0.0
28.578,0.922,-0.636,1.0
24.643,0.788,-0.68,0.0
21.83,0.692,-0.719,0.0
19.451,0.612,-0.746,0.0
17.779,0.555,-0.777,0.0
16.389,0.507,-0.804,0.0
28.645,0.878,-0.603,2.0
25.211,0.766,-0.665,0.0
22.359,0.673,-0.709,0.0
19.974,0.596,-0.742,0.0
18.172,0.538,-0.772,0.0
16.613,0.487,-0.794,0.0
30.733,0.892,-0.609,0.0
26.258,0.755,-0.659,0.0
23.081,0.658,-0.702,0.0
20.378,0.575,-0.731,0.0
18.753,0.525,-0.772,0.0
17.029,0.472,-0.792,0.0
30.914,0.847,-0.572,0.0
26.83,0.729,-0.639,0.0
23.658,0.636,-0.689,0.0
21.04,0.56,-0.727,0.0
18.991,0.501,-0.757,0.0
17.475,0.457,-0.789,0.0
32.748,0.846,-0.563,0.0
28.271,0.723,-0.636,0.0
24.495,0.62,-0.681,0.0
21.643,0.542,-0.719,0.0
19.554,0.485,-0.753,0.0
17.779,0.437,-0.779,0.0
34.755,0.844,-0.551,0.0
29.22,0.702,-0.618,0.0
25.333,0.602,-0.67,0.0
22.382,0.526,-0.712,0.0
20.04,0.466,-0.744,0.0
18.128,0.417,-0.769,0.0
35.31,0.803,-0.511,0.0
0.0,0.0,0.0,0.0
26.244,0.584,-0.657,0.0
22.986,0.505,-0.699,0.0
20.569,0.447,-0.735,0.0
18.58,0.399,-0.762,0.0
37.808,0.802,-0.493,0.0
31.416,0.659,-0.576,0.0
27.175,0.563,-0.642,0.0
23.764,0.486,-0.689,0.0
21.059,0.426,-0.722,0.0
19.15,0.382,-0.758,0.0
39.571,0.78,-0.459,0.0
33.081,0.644,-0.558,0.0
0.0,0.0,0.0,0.0
24.811,0.471,-0.683,0.0
21.843,0.409,-0.716,0.0
19.746,0.365,-0.752,0.0
0.0,0.0,0.0,0.0
35.343,0.636,-0.544,0.0
0.0,0.0,0.0,0.0
25.748,0.451,-0.67,0.0
22.574,0.389,-0.706,0.0
20.151,0.343,-0.737,0.0
47.131,0.791,-0.406,0.0
0.0,0.0,0.0,0.0
0.0,0.0,0.0,0.0
26.42,0.424,-0.647,0.0
23.437,0.37,-0.697,0.0
20.995,0.327,-0.735,0.0
0.0,0.0,0.0,0.0
41.074,0.62,-0.506,0.0
32.283,0.48,-0.567,0.0
28.013,0.41,-0.642,0.0
24.334,0.35,-0.686,0.0
21.415,0.303,-0.716,0.0
0.0,0.0,0.0,0.0
44.043,0.603,-0.473,0.0
0.0,0.0,0.0,0.0
29.307,0.387,-0.625,0.0
25.384,0.329,-0.674,0.0
22.437,0.286,-0.714,0.0
0.0,0.0,0.0,0.0
46.336,0.57,-0.423,0.0
0.0,0.0,0.0,0.0
30.402,0.36,-0.599,0.0
26.501,0.308,-0.661,0.0
23.167,0.264,-0.699,0.0
0.0,0.0,0.0,0.0
46.777,0.512,-0.351,0.0
0.0,0.0,0.0,0.0
31.957,0.335,-0.577,0.0
27.179,0.279,-0.633,0.0
24.38,0.245,-0.696,0.0
0.0,0.0,0.0,0.0
53.519,0.515,-0.312,0.0
42.87,0.403,-0.475,0.0
0.0,0.0,0.0,0.0
29.088,0.26,-0.629,0.0
24.917,0.218,-0.669,0.0
83.952,0.716,0.09,1.0
0.0,0.0,0.0,0.0
42.766,0.346,-0.401,0.0
35.53,0.28,-0.522,0.0
30.298,0.232,-0.603,0.0
26.315,0.196,-0.661,0.0
85.939,0.622,0.239,6.0
0.0,0.0,0.0,0.0
48.653,0.331,-0.372,0.0
0.0,0.0,0.0,0.0
32.015,0.205,-0.582,0.0
27.822,0.172,-0.651,0.0
92.473,0.554,0.416,1.0
0.0,0.0,0.0,0.0
0.0,0.0,0.0,0.0
42.842,0.23,-0.481,0.0
34.913,0.18,-0.573,0.0
29.123,0.144,-0.63,0.0
104.19,0.495,0.655,8.0
87.652,0.4,0.093,1.0
0.0,0.0,0.0,0.0
42.914,0.178,-0.405,1.0
36.017,0.142,-0.528,0.0
30.534,0.115,-0.606,0.0
110.895,0.396,0.893,13.0
0.0,0.0,0.0,0.0
0.0,0.0,0.0,0.0
0.0,0.0,0.0,0.0
38.227,0.106,-0.491,0.0
32.081,0.083,-0.579,0.0
111.129,0.266,1.096,14.0
103.525,0.228,0.484,2.0
0.0,0.0,0.0,0.0
0.0,0.0,0.0,0.0
42.585,0.07,-0.469,1.0
34.354,0.05,-0.557,0.0
111.153,0.141,1.299,20.0
110.665,0.119,0.718,8.0
0.0,0.0,0.0,0.0
0.0,0.0,0.0,0.0
45.396,0.024,-0.417,2.0
0.0,0.0,0.0,0.0
111.124,0.017,1.505,13.0
111.259,-0.002,0.93,7.0
97.731,-0.019,0.308,1.0
0.0,0.0,0.0,0.0
48.68,-0.027,-0.355,0.0
0.0,0.0,0.0,0.0
111.354,-0.101,1.716,1.0
117.424,-0.128,1.201,10.0
110.541,-0.14,0.558,5.0
0.0,0.0,0.0,0.0
44.687,-0.072,-0.242,0.0
45.077,-0.08,-0.477,0.0
114.744,-0.224,1.986,6.0
119.734,-0.254,1.451,8.0
114.464,-0.262,0.794,93.0
0.0,0.0,0.0,0.0
0.0,0.0,0.0,0.0
45.253,-0.126,-0.394,0.0
119.834,-0.354,2.299,150.0
0.0,0.0,0.0,0.0
119.72,-0.392,1.056,14.0
103.599,-0.355,0.366,2.0
0.0,0.0,0.0,0.0
48.071,-0.18,-0.327,0.0
119.838,-0.468,2.526,20.0
119.833,-0.487,1.905,74.0
119.667,-0.506,1.285,13.0
110.96,-0.486,0.606,5.0
0.0,0.0,0.0,0.0
0.0,0.0,0.0,0.0
119.82,-0.581,2.758,70.0
119.813,-0.598,2.136,51.0
119.689,-0.615,1.515,15.0
119.733,-0.634,0.886,7.0
0.0,0.0,0.0,0.0
0.0,0.0,0.0,0.0
119.826,-0.689,2.993,16.0
119.788,-0.706,2.372,24.0
119.8,-0.723,1.751,24.0
119.644,-0.739,1.119,18.0
110.861,-0.7,0.464,2.0
0.0,0.0,0.0,0.0
119.773,-0.793,3.225,11.0
194.192,-1.312,4.225,13.0
193.873,-1.336,3.217,22.0
119.681,-0.841,1.356,19.0
114.116,-0.817,0.704,8.0
0.0,0.0,0.0,0.0
119.749,-0.892,3.461,32.0
119.726,-0.907,2.841,80.0
119.741,-0.923,2.223,78.0
119.727,-0.938,1.593,44.0
119.707,-0.954,0.976,15.0
0.0,0.0,0.0,0.0
210.635,-1.737,6.507,8.0
119.734,-1.002,3.081,127.0
119.738,-1.016,2.46,82.0
119.736,-1.031,1.83,133.0
119.709,-1.044,1.211,25.0
119.843,-1.059,0.593,2.0
214.892,-1.934,7.063,6.0
119.719,-1.09,3.315,150.0
119.724,-1.105,2.698,150.0
119.718,-1.118,2.068,150.0
119.744,-1.132,1.451,150.0
119.756,-1.146,0.836,108.0
190.606,-1.853,6.647,16.0
211.018,-2.075,6.269,11.0
119.723,-1.19,2.939,119.0
119.723,-1.202,2.309,112.0
119.741,-1.215,1.692,150.0
119.74,-1.228,1.075,55.0
190.467,-1.984,7.028,41.0
210.776,-2.215,6.686,11.0
209.037,-2.218,5.551,10.0
210.355,-2.252,4.48,10.0
119.708,-1.293,1.931,3.0
139.245,-1.518,1.53,2.0
106.719,-1.18,4.151,6.0
210.544,-2.347,7.105,11.0
209.236,-2.352,5.98,21.0
210.344,-2.384,4.905,11.0
204.216,-2.334,3.711,5.0
139.171,-1.603,1.811,2.0
189.825,-2.215,7.772,21.0
190.515,-2.24,6.817,23.0
0.0,0.0,0.0,0.0
206.465,-2.462,5.236,6.0
210.421,-2.527,4.253,8.0
204.27,-2.471,3.075,6.0
112.049,-1.371,4.814,12.0
190.452,-2.346,7.198,48.0
210.234,-2.607,6.862,17.0
209.036,-2.607,5.724,6.0
210.558,-2.642,4.679,8.0
204.316,-2.58,3.489,19.0
84.982,-1.086,3.825,11.0
189.768,-2.437,7.559,64.0
190.492,-2.461,6.606,14.0
0.0,0.0,0.0,0.0
206.616,-2.697,5.012,7.0
0.0,0.0,0.0,0.0
81.14,-1.077,3.817,14.0
106.563,-1.421,4.463,10.0
106.575,-1.428,3.913,9.0
209.727,-2.823,6.597,8.0
113.241,-1.531,2.979,2.0
206.635,-2.808,4.373,7.0
81.174,-1.114,3.984,9.0
96.459,-1.33,4.236,11.0
112.363,-1.555,4.352,8.0
210.492,-2.924,7.046,12.0
113.337,-1.581,3.21,2.0
206.263,-2.889,4.781,13.0
81.874,-1.158,4.185,14.0
81.266,-1.153,3.734,14.0
112.16,-1.598,4.574,17.0
190.535,-2.722,6.766,22.0
209.638,-3.006,6.365,8.0
113.257,-1.629,2.854,4.0
81.773,-1.188,4.347,12.0
81.242,-1.183,3.898,13.0
96.557,-1.41,4.134,11.0
106.56,-1.561,4.002,10.0
210.21,-3.089,6.812,6.0
112.875,-1.662,3.074,18.0
73.691,-1.096,4.067,7.0
81.999,-1.222,4.102,11.0
81.293,-1.214,3.647,8.0
106.493,-1.594,4.216,12.0
190.626,-2.86,6.565,12.0
0.0,0.0,0.0,0.0
61.315,-0.93,3.511,25.0
81.64,-1.241,4.251,13.0
81.148,-1.235,3.805,20.0
106.471,-1.624,4.433,10.0
190.522,-2.91,6.947,14.0
0.0,0.0,0.0,0.0
61.158,-0.944,3.625,12.0
61.191,-0.945,3.31,22.0
81.466,-1.26,3.985,21.0
84.96,-1.316,3.708,8.0
106.439,-1.651,4.097,19.0
112.802,-1.751,3.759,7.0
50.77,-0.795,3.113,7.0
61.175,-0.959,3.433,20.0
81.803,-1.283,4.168,19.0
81.403,-1.277,3.719,18.0
112.182,-1.761,4.546,10.0
112.805,-1.772,3.988,15.0
50.394,-0.799,3.192,25.0
61.108,-0.968,3.553,26.0
81.686,-1.295,4.326,17.0
81.115,-1.286,3.869,30.0
95.678,-1.517,4.068,13.0
106.339,-1.687,3.971,12.0
49.217,-0.787,3.215,25.0
61.105,-0.977,3.676,11.0
61.167,-0.978,3.362,11.0
81.993,-1.311,4.074,26.0
95.354,-1.523,4.244,14.0
112.214,-1.792,4.414,10.0
48.428,-0.78,3.261,31.0
50.671,-0.815,3.148,24.0
61.155,-0.983,3.483,20.0
81.729,-1.313,4.223,27.0
81.126,-1.302,3.771,15.0
106.639,-1.711,4.406,9.0
48.322,-0.782,3.35,31.0
0.0,0.0,0.0,0.0
61.088,-0.986,3.6,14.0
81.598,-1.315,4.377,13.0
81.228,-1.308,3.937,26.0
95.516,-1.535,4.134,14.0
48.295,-0.783,3.444,31.0
48.604,-0.786,3.213,27.0
50.717,-0.819,3.088,14.0
61.142,-0.986,3.4,16.0
81.967,-1.319,4.132,19.0
95.342,-1.532,4.313,11.0
48.421,-0.784,3.548,8.0
48.342,-0.782,3.291,32.0
50.469,-0.814,3.173,24.0
61.11,-0.984,3.519,21.0
81.722,-1.313,4.281,28.0
81.113,-1.3,3.829,25.0
42.943,-0.694,3.231,41.0
48.296,-0.778,3.382,22.0
49.338,-0.793,3.198,25.0
61.096,-0.98,3.638,13.0
61.174,-0.978,3.324,10.0
81.908,-1.307,4.025,21.0
42.837,-0.689,3.307,43.0
48.334,-0.775,3.479,28.0
48.472,-0.774,3.237,33.0
50.711,-0.808,3.117,18.0
61.153,-0.971,3.441,20.0
81.734,-1.294,4.174,19.0
42.713,-0.682,3.38,44.0
42.923,-0.683,3.172,38.0
48.337,-0.766,3.32,32.0
0.0,0.0,0.0,0.0
61.108,-0.962,3.555,23.0
61.19,-0.959,3.241,12.0
42.63,-0.674,3.454,49.0
42.891,-0.675,3.251,38.0
48.276,-0.757,3.406,28.0
48.563,-0.758,3.169,22.0
61.33,-0.954,3.683,6.0
61.205,-0.948,3.356,22.0
42.711,-0.667,3.542,37.0
42.806,-0.665,3.325,40.0
48.322,-0.748,3.501,16.0
48.394,-0.745,3.248,22.0
50.655,-0.777,3.136,18.0
61.289,-0.936,3.474,24.0
42.437,-0.653,3.598,31.0
42.408,-0.649,3.373,39.0
42.761,-0.651,3.177,41.0
48.255,-0.731,3.328,40.0
50.502,-0.762,3.219,8.0
61.453,-0.922,3.597,11.0
42.063,-0.636,3.645,40.0
42.586,-0.64,3.466,36.0
42.758,-0.639,3.256,41.0
48.27,-0.718,3.418,22.0
48.321,-0.714,3.169,31.0
61.463,-0.904,3.71,5.0
41.93,-0.621,3.711,48.0
42.674,-0.628,3.552,40.0
42.689,-0.625,3.329,37.0
48.216,-0.702,3.502,8.0
48.342,-0.699,3.258,29.0
61.642,-0.886,3.832,12.0
41.944,-0.608,3.788,44.0
42.384,-0.61,3.604,29.0
42.232,-0.604,3.369,38.0
42.541,-0.604,3.167,40.0
48.422,-0.683,3.35,25.0
48.445,-0.678,3.099,33.0
41.996,-0.593,3.868,43.0
41.995,-0.588,3.647,44.0
42.451,-0.591,3.463,7.0
42.141,-0.582,3.212,51.0
48.052,-0.658,3.411,30.0
48.321,-0.657,3.177,29.0
42.022,-0.576,3.946,45.0
41.941,-0.57,3.717,46.0
43.086,-0.581,3.592,19.0
42.159,-0.564,3.288,43.0
42.552,-0.565,3.096,46.0
48.304,-0.636,3.261,34.0
41.876,-0.555,4.007,41.0
41.91,-0.551,3.789,41.0
42.4,-0.552,3.609,34.0
42.208,-0.545,3.367,32.0
42.473,-0.543,3.164,37.0
48.361,-0.614,3.348,22.0
41.879,-0.535,4.079,43.0
42.023,-0.532,3.871,39.0
41.936,-0.526,3.642,37.0
42.384,-0.526,3.453,23.0
42.164,-0.519,3.213,42.0
47.988,-0.584,3.404,5.0
41.826,-0.513,4.146,26.0
42.151,-0.512,3.955,38.0
41.855,-0.503,3.706,36.0
41.708,-0.496,3.468,44.0
42.167,-0.496,3.284,44.0
42.428,-0.494,3.081,44.0
43.513,-0.51,4.387,3.0
42.062,-0.488,4.017,27.0
41.821,-0.48,3.772,41.0
41.681,-0.472,3.535,46.0
42.187,-0.473,3.354,37.0
42.262,-0.468,3.137,35.0
41.542,-0.463,4.256,23.0
41.639,-0.459,4.045,43.0
41.688,-0.454,3.828,39.0
41.714,-0.449,3.605,37.0
42.372,-0.449,3.438,20.0
42.109,-0.441,3.194,37.0
41.47,-0.438,4.317,36.0
41.696,-0.434,4.118,39.0
41.631,-0.427,3.89,38.0
41.632,-0.422,3.665,40.0
41.797,-0.418,3.458,41.0
41.954,-0.413,3.249,41.0
41.305,-0.41,4.365,40.0
41.639,-0.407,4.179,27.0
41.703,-0.401,3.963,35.0
41.523,-0.394,3.72,42.0
41.576,-0.388,3.505,47.0
41.975,-0.386,3.316,38.0
41.268,-0.381,4.426,43.0
41.431,-0.377,4.222,42.0
41.638,-0.373,4.021,44.0
41.552,-0.366,3.787,39.0
41.846,-0.362,3.591,32.0
41.848,-0.356,3.369,44.0
41.284,-0.353,4.491,37.0
41.306,-0.347,4.272,46.0
41.599,-0.343,4.08,37.0
41.497,-0.335,3.845,44.0
41.726,-0.331,3.644,34.0
41.781,-0.325,3.426,34.0
41.219,-0.322,4.546,37.0
41.186,-0.316,4.322,41.0
41.631,-0.313,4.145,40.0
41.674,-0.307,3.922,40.0
41.718,-0.3,3.704,38.0
41.679,-0.293,3.478,36.0
41.503,-0.294,4.638,17.0
41.245,-0.285,4.388,39.0
41.273,-0.279,4.169,48.0
41.813,-0.276,3.995,43.0
41.359,-0.266,3.731,40.0
41.563,-0.26,3.528,45.0
41.655,-0.262,4.715,29.0
41.269,-0.253,4.449,40.0
41.265,-0.246,4.227,41.0
41.798,-0.242,4.053,31.0
41.47,-0.234,3.799,42.0
41.529,-0.227,3.582,40.0
41.528,-0.228,4.758,34.0
41.303,-0.22,4.51,16.0
41.276,-0.213,4.284,41.0
41.384,-0.206,4.069,40.0
41.673,-0.201,3.874,41.0
41.338,-0.192,3.621,43.0
41.217,-0.192,4.779,16.0
41.342,-0.186,4.57,16.0
41.219,-0.178,4.334,48.0
41.128,-0.17,4.099,44.0
41.72,-0.166,3.934,41.0
41.347,-0.157,3.677,45.0
41.033,-0.156,4.812,37.0
41.182,-0.15,4.607,41.0
41.049,-0.142,4.37,42.0
41.172,-0.135,4.157,40.0
41.503,-0.129,3.967,35.0
41.86,-0.122,3.777,41.0
41.197,-0.12,4.885,36.0
41.349,-0.113,4.679,33.0
41.184,-0.106,4.437,21.0
41.201,-0.098,4.212,39.0
41.774,-0.092,4.046,37.0
41.847,-0.085,3.828,33.0
0.0,0.0,0.0,0.0
41.536,-0.076,4.752,32.0
41.085,-0.067,4.478,39.0
41.527,-0.06,4.297,29.0
41.455,-0.053,4.066,45.0
41.938,-0.046,3.887,27.0
40.981,-0.044,4.961,42.0
41.19,-0.037,4.762,41.0
41.2,-0.029,4.54,21.0
41.602,-0.021,4.354,38.0
41.309,-0.014,4.1,42.0
42.491,-0.007,3.988,42.0
41.028,-0.005,5.015,30.0
41.094,0.002,4.799,24.0
41.401,0.009,4.61,23.0
41.62,0.017,4.404,37.0
41.312,0.025,4.147,45.0
42.324,0.034,4.02,25.0
41.085,0.034,5.069,29.0
40.948,0.042,4.828,37.0
51.716,0.063,5.816,8.0
41.141,0.057,4.399,41.0
41.366,0.065,4.198,43.0
41.482,0.074,3.985,30.0
41.079,0.075,5.113,30.0
40.94,0.082,4.872,33.0
41.069,0.09,4.663,39.0
41.218,0.098,4.451,42.0
41.411,0.107,4.247,44.0
41.318,0.114,4.013,47.0
41.202,0.117,5.172,32.0
40.955,0.124,4.917,32.0
41.133,0.132,4.713,29.0
41.333,0.141,4.506,37.0
41.293,0.148,4.276,44.0
41.365,0.157,4.059,44.0
41.253,0.159,5.22,40.0
41.07,0.167,4.972,28.0
41.06,0.174,4.745,42.0
41.349,0.183,4.548,35.0
41.17,0.191,4.304,37.0
41.294,0.199,4.092,42.0
41.319,0.202,5.269,39.0
40.849,0.208,4.984,27.0
41.085,0.217,4.787,36.0
41.415,0.227,4.595,22.0
41.221,0.234,4.348,29.0
41.193,0.242,4.12,35.0
0.0,0.0,0.0,0.0
40.75,0.25,5.01,20.0
41.064,0.26,4.822,45.0
41.136,0.269,4.601,35.0
41.353,0.279,4.398,29.0
41.208,0.286,4.158,41.0
41.289,0.29,5.34,24.0
40.773,0.294,5.048,36.0
40.976,0.304,4.848,39.0
41.099,0.313,4.632,34.0
41.114,0.321,4.408,41.0
41.346,0.331,4.206,31.0
40.758,0.331,5.306,14.0
40.71,0.339,5.074,38.0
40.712,0.346,4.85,38.0
40.905,0.357,4.643,35.0
41.15,0.366,4.445,40.0
41.234,0.375,4.227,40.0
52.37,0.483,6.859,7.0
40.747,0.383,5.111,39.0
40.737,0.392,4.884,43.0
41.088,0.403,4.695,31.0
41.145,0.411,4.475,41.0
41.275,0.421,4.262,39.0
40.919,0.423,5.39,39.0
40.79,0.429,5.147,40.0
40.754,0.437,4.916,38.0
40.976,0.447,4.712,47.0
41.066,0.456,4.496,43.0
41.364,0.467,4.301,37.0
40.771,0.467,5.399,37.0
40.803,0.475,5.177,44.0
40.692,0.482,4.937,45.0
