X,Y,Z,Reflectivity
40.74,0.457,4.938,37.0
41.229,0.467,4.757,41.0
40.981,0.469,4.487,36.0
41.748,0.483,4.329,29.0
41.467,0.485,4.06,39.0
40.654,0.488,5.12,39.0
40.681,0.493,4.886,40.0
41.726,0.51,4.768,43.0
40.893,0.505,4.431,52.0
41.566,0.517,4.263,40.0
41.174,0.517,3.985,38.0
40.713,0.524,5.08,48.0
40.663,0.528,4.837,43.0
41.452,0.543,4.689,35.0
40.769,0.538,4.37,33.0
41.25,0.549,4.183,41.0
41.135,0.552,3.933,39.0
40.618,0.557,5.02,45.0
40.6,0.562,4.781,36.0
40.966,0.571,4.585,35.0
40.869,0.573,4.333,32.0
41.224,0.582,4.131,44.0
41.128,0.586,3.883,37.0
40.62,0.591,4.971,39.0
40.595,0.595,4.73,40.0
40.549,0.598,4.488,46.0
41.107,0.61,4.307,18.0
41.058,0.613,4.063,42.0
41.049,0.617,3.825,36.0
40.559,0.622,4.912,39.0
40.676,0.628,4.689,42.0
40.675,0.632,4.451,37.0
41.076,0.642,4.252,39.0
41.056,0.645,4.011,44.0
40.891,0.646,3.758,38.0
40.502,0.653,4.852,44.0
40.607,0.659,4.627,35.0
40.679,0.663,4.398,42.0
41.223,0.676,4.213,26.0
41.105,0.677,3.962,36.0
40.846,0.676,3.7,41.0
40.531,0.684,4.801,43.0
40.581,0.688,4.57,36.0
40.944,0.697,4.372,36.0
41.049,0.703,4.14,36.0
41.285,0.71,3.924,40.0
40.756,0.704,3.637,41.0
40.54,0.713,4.748,40.0
40.527,0.716,4.509,37.0
40.916,0.726,4.313,36.0
41.348,0.737,4.114,17.0
41.197,0.737,3.859,39.0
40.719,0.732,3.578,36.0
40.485,0.74,4.685,40.0
40.674,0.746,4.468,42.0
40.858,0.753,4.25,44.0
41.198,0.762,4.041,39.0
40.901,0.759,3.773,38.0
40.808,0.761,3.528,31.0
40.496,0.767,4.627,40.0
40.755,0.775,4.418,35.0
40.936,0.781,4.198,44.0
40.962,0.784,3.958,38.0
40.74,0.783,3.699,43.0
40.932,0.789,3.479,38.0
40.513,0.793,4.569,39.0
40.623,0.798,4.344,44.0
41.211,0.812,4.166,18.0
40.926,0.809,3.894,38.0
40.803,0.809,3.645,40.0
40.928,0.814,3.418,43.0
40.523,0.818,4.51,42.0
40.723,0.824,4.293,40.0
41.61,0.844,4.144,20.0
40.802,0.83,3.821,43.0
40.625,0.829,3.568,37.0
40.817,0.835,3.348,30.0
40.615,0.843,4.458,42.0
40.78,0.848,4.237,46.0
41.221,0.859,4.042,26.0
40.843,0.854,3.762,34.0
40.654,0.851,3.508,38.0
40.775,0.856,3.281,43.0
40.658,0.865,4.4,47.0
40.768,0.869,4.173,44.0
40.908,0.875,3.948,41.0
40.69,0.872,3.685,38.0
40.652,0.872,3.445,34.0
40.822,0.878,3.222,41.0
40.788,0.889,4.348,37.0
40.845,0.892,4.116,40.0
40.92,0.895,3.884,28.0
40.625,0.89,3.615,40.0
40.567,0.891,3.373,42.0
40.836,0.898,3.157,40.0
40.757,0.908,4.279,32.0
40.866,0.912,4.051,16.0
40.601,0.907,3.788,40.0
40.589,0.908,3.545,47.0
40.75,0.913,3.322,42.0
40.779,0.915,3.087,39.0
40.818,0.927,4.219,40.0
40.73,0.926,3.971,38.0
40.657,0.925,3.726,36.0
40.651,0.927,3.484,32.0
40.884,0.933,3.265,34.0
41.068,0.938,3.042,31.0
40.833,0.944,4.152,42.0
40.818,0.944,3.911,27.0
40.816,0.945,3.672,15.0
40.54,0.94,3.407,44.0
40.88,0.948,3.197,37.0
41.21,0.957,2.983,21.0
41.03,0.963,4.102,17.0
40.66,0.955,3.827,43.0
40.617,0.955,3.585,40.0
40.685,0.957,3.35,37.0
40.837,0.962,3.124,34.0
41.171,0.97,2.91,18.0
40.736,0.97,4.004,38.0
40.628,0.968,3.755,34.0
40.563,0.967,3.511,39.0
40.608,0.969,3.274,43.0
40.746,0.972,3.047,30.0
41.252,0.985,2.845,12.0
40.632,0.98,3.923,34.0
43.22,1.042,3.919,3.0
40.67,0.981,3.45,33.0
40.88,0.986,3.225,43.0
41.072,0.991,3.0,21.0
70.591,1.705,4.746,7.0
40.555,0.988,3.843,30.0
40.635,0.991,3.613,26.0
40.613,0.99,3.373,43.0
40.787,0.994,3.145,46.0
41.204,1.005,2.937,8.0
0.0,0.0,0.0,0.0
40.584,0.999,3.774,40.0
40.524,0.997,3.53,41.0
40.71,1.001,3.309,40.0
40.747,1.002,3.07,40.0
41.178,1.012,2.862,22.0
72.113,1.773,4.59,30.0
40.722,1.01,3.713,37.0
40.54,1.005,3.459,38.0
40.765,1.01,3.239,41.0
40.846,1.012,3.003,22.0
41.176,1.019,2.787,7.0
71.988,1.782,4.454,12.0
40.659,1.015,3.633,27.0
40.676,1.014,3.396,38.0
40.798,1.017,3.168,38.0
41.12,1.024,2.948,11.0
70.662,1.759,4.655,10.0
78.751,1.959,4.729,6.0
40.562,1.016,3.55,30.0
40.725,1.02,3.326,37.0
40.833,1.022,3.096,40.0
41.183,1.029,2.878,13.0
71.956,1.798,4.608,36.0
78.774,1.967,4.587,8.0
40.791,1.025,3.495,16.0
40.937,1.028,3.268,31.0
40.834,1.024,3.021,35.0
41.151,1.031,2.799,10.0
72.086,1.805,4.484,38.0
78.85,1.973,4.445,16.0
40.702,1.025,3.411,39.0
40.805,1.026,3.181,32.0
41.004,1.03,2.957,14.0
70.652,1.772,4.675,11.0
72.831,1.825,4.395,9.0
78.854,1.974,4.299,15.0
40.687,1.024,3.334,40.0
40.823,1.027,3.106,40.0
41.192,1.034,2.893,12.0
0.0,0.0,0.0,0.0
72.884,1.825,4.261,7.0
78.872,1.972,4.152,15.0
40.937,1.029,3.277,32.0
40.83,1.025,3.029,38.0
41.173,1.032,2.814,14.0
72.063,1.803,4.497,37.0
78.824,1.969,4.459,16.0
78.878,1.968,4.003,10.0
40.802,1.023,3.188,36.0
41.063,1.027,2.968,15.0
70.642,1.765,4.694,9.0
78.755,1.963,4.765,8.0
78.877,1.963,4.312,14.0
116.035,2.883,5.669,13.0
40.847,1.019,3.113,40.0
41.184,1.025,2.898,10.0
71.917,1.787,4.64,30.0
78.819,1.955,4.618,10.0
83.41,2.064,4.401,6.0
116.013,2.865,5.444,7.0
40.856,1.013,3.035,30.0
41.165,1.019,2.817,14.0
71.969,1.777,4.504,16.0
78.832,1.941,4.466,10.0
83.598,2.054,4.247,7.0
116.966,2.868,5.263,15.0
41.204,1.014,2.981,9.0
70.66,1.734,4.698,8.0
78.787,1.928,4.778,8.0
83.573,2.041,4.573,7.0
115.795,2.82,5.661,15.0
85.424,2.076,3.679,4.0
41.233,1.005,2.902,14.0
72.097,1.752,4.654,30.0
78.828,1.911,4.628,8.0
83.404,2.016,4.401,12.0
85.472,2.06,4.013,4.0
85.373,2.052,3.511,24.0
41.205,0.993,2.82,3.0
74.195,1.783,4.644,6.0
80.788,1.935,4.585,10.0
85.401,2.04,4.341,13.0
85.398,2.033,3.842,22.0
85.319,2.025,3.342,18.0
70.708,1.683,4.701,7.0
78.726,1.867,4.774,5.0
83.311,1.969,4.566,4.0
85.388,2.012,4.173,25.0
85.333,2.004,3.673,30.0
78.889,1.846,2.936,20.0
72.176,1.692,4.657,8.0
72.757,1.699,4.268,2.0
83.139,1.935,4.393,11.0
85.336,1.979,4.003,32.0
85.287,1.971,3.504,27.0
85.282,1.964,3.007,17.0
74.152,1.71,4.639,10.0
72.86,1.674,4.132,4.0
85.306,1.952,4.34,33.0
85.288,1.943,3.833,33.0
78.88,1.791,3.086,18.0
85.269,1.928,2.84,31.0
70.86,1.603,4.294,2.0
82.921,1.869,4.541,10.0
85.315,1.915,4.173,34.0
85.279,1.905,3.666,36.0
78.868,1.754,2.931,13.0
85.252,1.889,2.673,33.0
80.713,1.789,4.731,4.0
85.304,1.882,4.503,20.0
85.3,1.873,4.004,37.0
78.874,1.724,3.235,9.0
85.26,1.855,3.0,41.0
85.274,1.847,2.504,32.0
82.851,1.794,4.692,5.0
85.308,1.838,4.333,32.0
85.301,1.829,3.836,29.0
78.851,1.682,3.079,16.0
85.325,1.812,2.835,33.0
85.323,1.802,2.339,28.0
82.139,1.734,4.49,10.0
85.318,1.792,4.166,24.0
85.301,1.781,3.667,23.0
85.349,1.773,3.164,25.0
85.408,1.765,2.67,16.0
85.395,1.755,2.172,16.0
84.885,1.742,4.474,12.0
85.372,1.743,4.002,27.0
78.829,1.6,3.235,19.0
91.728,1.85,3.221,21.0
91.867,1.842,2.69,27.0
87.088,1.736,2.043,30.0
85.419,1.7,4.332,20.0
85.453,1.69,3.835,18.0
91.571,1.799,3.576,16.0
91.801,1.792,3.041,31.0
91.831,1.781,2.507,20.0
87.961,1.696,1.89,5.0
85.44,1.643,4.164,17.0
78.791,1.505,3.38,15.0
91.7,1.74,3.4,20.0
91.82,1.731,2.861,30.0
91.597,1.714,2.321,14.0
91.826,1.707,1.793,4.0
91.475,1.695,4.279,17.0
91.595,1.685,3.751,12.0
91.821,1.677,3.225,28.0
91.797,1.665,2.682,27.0
91.836,1.653,2.149,40.0
91.85,1.641,1.615,37.0
91.628,1.631,4.109,15.0
70.249,1.24,2.74,3.0
91.967,1.611,3.051,18.0
91.82,1.595,2.503,31.0
91.849,1.584,1.971,36.0
91.887,1.572,1.438,39.0
78.731,1.34,3.377,11.0
120.739,2.038,4.476,13.0
92.011,1.539,2.876,12.0
91.923,1.525,2.33,29.0
91.868,1.511,1.794,34.0
91.897,1.498,1.26,37.0
120.438,1.951,4.932,18.0
70.082,1.126,2.463,13.0
189.548,3.016,5.559,7.0
119.822,1.888,2.804,8.0
91.968,1.436,1.619,24.0
91.99,1.423,1.085,29.0
69.889,1.073,2.728,15.0
69.956,1.064,2.324,25.0
98.592,1.484,2.702,19.0
119.932,1.787,2.578,46.0
98.649,1.455,1.549,20.0
98.709,1.44,0.975,11.0
69.818,1.01,2.591,5.0
98.49,1.409,3.082,15.0
98.577,1.395,2.513,29.0
98.614,1.38,1.93,32.0
98.542,1.363,1.356,27.0
98.477,1.346,0.783,15.0
98.37,1.333,3.464,18.0
98.484,1.318,2.895,29.0
98.529,1.302,2.323,29.0
98.549,1.286,1.74,30.0
98.534,1.27,1.169,32.0
85.409,1.086,0.517,8.0
98.435,1.238,3.277,22.0
98.534,1.223,2.708,33.0
98.556,1.207,2.138,31.0
98.536,1.19,1.555,31.0
98.508,1.173,0.984,23.0
85.228,1.0,0.356,11.0
98.673,1.144,3.101,22.0
98.573,1.125,2.525,26.0
98.58,1.109,1.954,30.0
98.579,1.091,1.371,29.0
98.373,1.071,0.797,12.0
80.799,0.866,0.187,6.0
98.702,1.042,2.917,22.0
98.695,1.024,2.344,22.0
98.67,1.006,1.771,24.0
98.672,0.989,1.189,31.0
98.143,0.966,0.613,8.0
78.732,0.76,0.035,0.0
104.728,0.993,2.9,36.0
99.98,0.93,2.189,2.0
99.898,0.911,1.608,4.0
98.712,0.882,1.007,8.0
85.28,0.747,0.375,4.0
0.0,0.0,0.0,0.0
104.724,0.879,2.709,31.0
0.0,0.0,0.0,0.0
100.591,0.806,1.435,2.0
104.763,0.819,0.876,17.0
85.017,0.649,0.219,5.0
0.0,0.0,0.0,0.0
104.799,0.761,2.521,22.0
104.885,0.741,1.914,9.0
111.172,0.763,1.384,3.0
98.036,0.655,0.643,6.0
0.0,0.0,0.0,0.0
0.0,0.0,0.0,0.0
111.058,0.676,2.469,32.0
111.069,0.653,1.825,28.0
111.057,0.632,1.182,24.0
92.424,0.507,0.439,1.0
0.0,0.0,0.0,0.0
48.724,0.248,-0.332,0.0
111.131,0.543,2.273,23.0
111.106,0.521,1.631,28.0
110.916,0.497,0.985,16.0
87.825,0.375,0.262,1.0
0.0,0.0,0.0,0.0
42.889,0.166,-0.367,0.0
119.899,0.439,2.242,126.0
119.766,0.413,1.546,14.0
110.746,0.358,0.787,6.0
0.0,0.0,0.0,0.0
0.0,0.0,0.0,0.0
42.86,0.111,-0.443,0.0
119.882,0.286,2.031,28.0
111.097,0.241,1.239,18.0
103.416,0.203,0.556,2.0
0.0,0.0,0.0,0.0
49.934,0.076,-0.314,0.0
38.125,0.05,-0.46,0.0
111.093,0.121,1.691,15.0
111.2,0.097,1.05,10.0
95.54,0.064,0.35,5.0
0.0,0.0,0.0,0.0
45.433,0.009,-0.363,2.0
0.0,0.0,0.0,0.0
117.367,-0.026,1.587,15.0
110.931,-0.049,0.859,12.0
0.0,0.0,0.0,0.0
0.0,0.0,0.0,0.0
45.193,-0.05,-0.437,0.0
34.425,-0.046,-0.532,0.0
119.729,-0.187,1.421,13.0
110.575,-0.198,0.672,7.0
0.0,0.0,0.0,0.0
0.0,0.0,0.0,0.0
41.583,-0.103,-0.471,0.0
32.724,-0.088,-0.56,0.0
114.507,-0.337,1.17,17.0
0.0,0.0,0.0,0.0
0.0,0.0,0.0,0.0
47.991,-0.174,-0.345,0.0
0.0,0.0,0.0,0.0
30.813,-0.126,-0.577,0.0
119.722,-0.52,1.03,8.0
95.131,-0.436,0.268,1.0
0.0,0.0,0.0,0.0
42.101,-0.213,-0.37,0.0
35.341,-0.187,-0.515,0.0
29.182,-0.162,-0.594,0.0
114.162,-0.66,0.799,3.0
0.0,0.0,0.0,0.0
51.859,-0.325,-0.235,0.0
0.0,0.0,0.0,0.0
34.346,-0.232,-0.556,0.0
27.993,-0.196,-0.614,0.0
111.241,-0.808,0.602,6.0
0.0,0.0,0.0,0.0
51.301,-0.398,-0.314,0.0
0.0,0.0,0.0,0.0
0.0,0.0,0.0,0.0
26.952,-0.229,-0.634,0.0
0.0,0.0,0.0,0.0
0.0,0.0,0.0,0.0
0.0,0.0,0.0,0.0
0.0,0.0,0.0,0.0
30.667,-0.299,-0.591,0.0
26.088,-0.261,-0.653,0.0
0.0,0.0,0.0,0.0
0.0,0.0,0.0,0.0
45.083,-0.486,-0.412,0.0
35.185,-0.388,-0.528,0.0
29.294,-0.33,-0.608,0.0
24.853,-0.286,-0.659,0.0
0.0,0.0,0.0,0.0
0.0,0.0,0.0,0.0
0.0,0.0,0.0,0.0
33.612,-0.422,-0.554,0.0
28.049,-0.36,-0.624,0.0
24.107,-0.315,-0.674,0.0
0.0,0.0,0.0,0.0
49.75,-0.677,-0.314,0.0
0.0,0.0,0.0,0.0
0.0,0.0,0.0,0.0
27.004,-0.389,-0.639,0.0
23.334,-0.342,-0.686,0.0
0.0,0.0,0.0,0.0
46.763,-0.71,-0.361,1.0
0.0,0.0,0.0,0.0
30.436,-0.478,-0.588,0.0
25.907,-0.414,-0.649,0.0
22.911,-0.373,-0.706,0.0
0.0,0.0,0.0,0.0
45.679,-0.767,-0.416,0.0
35.049,-0.598,-0.521,1.0
29.401,-0.51,-0.609,0.0
25.014,-0.44,-0.661,0.0
21.844,-0.391,-0.703,0.0
33.151,-3.596,1.165,83.0
33.146,-3.587,0.984,83.0
33.132,-3.576,0.804,86.0
33.119,-3.566,0.621,81.0
33.116,-3.557,0.441,78.0
33.111,-3.548,0.262,72.0
33.178,-3.557,1.19,44.0
33.19,-3.549,1.01,61.0
33.169,-3.538,0.829,69.0
33.154,-3.527,0.646,72.0
33.145,-3.517,0.466,73.0
33.125,-3.507,0.285,69.0
72.373,-7.666,2.649,25.0
78.139,-8.254,2.435,12.0
78.768,-8.298,2.025,29.0
104.619,-10.992,2.111,6.0
119.183,-12.491,1.758,23.0
33.135,-3.463,0.308,1.0
74.878,-7.831,2.791,9.0
74.078,-7.726,2.358,8.0
78.779,-8.193,2.079,11.0
104.606,-10.849,2.181,10.0
104.648,-10.825,1.613,12.0
104.602,-10.79,1.044,10.0
74.807,-7.721,2.838,7.0
74.327,-7.649,2.414,26.0
78.72,-8.077,2.128,8.0
74.81,-7.654,1.608,16.0
135.389,-13.814,2.173,151.0
111.623,-11.357,1.184,8.0
72.73,-7.404,2.805,21.0
74.294,-7.541,2.459,17.0
78.441,-7.938,2.169,27.0
74.884,-7.555,1.655,9.0
135.435,-13.626,2.255,150.0
111.635,-11.2,1.25,7.0
72.473,-7.274,2.837,27.0
78.87,-7.891,2.657,10.0
73.924,-7.373,2.087,24.0
78.711,-7.827,1.785,21.0
135.475,-13.432,2.333,87.0
114.527,-11.322,1.348,6.0
77.99,-7.713,3.098,9.0
78.891,-7.777,2.702,7.0
103.795,-10.201,2.988,7.0
135.505,-13.275,3.147,74.0
135.529,-13.236,2.407,146.0
119.052,-11.592,1.465,3.0
78.326,-7.629,3.152,23.0
78.935,-7.662,2.745,14.0
103.66,-10.03,3.037,8.0
78.355,-7.557,1.86,8.0
119.254,-11.465,2.18,8.0
119.035,-11.408,1.524,7.0
78.428,-7.518,3.195,27.0
74.295,-7.098,2.62,28.0
104.051,-9.908,3.1,15.0
193.16,-18.331,4.679,11.0
193.309,-18.284,3.625,10.0
119.09,-11.227,1.583,16.0
77.765,-7.333,3.205,8.0
78.605,-7.386,2.809,43.0
103.959,-9.735,3.145,12.0
119.246,-11.129,2.942,46.0
135.549,-12.608,2.601,150.0
135.568,-12.566,1.86,112.0
74.699,-6.926,3.111,2.0
70.93,-6.553,2.564,16.0
74.6,-6.868,2.287,4.0
119.223,-10.937,2.991,12.0
126.423,-11.556,2.478,23.0
135.608,-12.352,1.915,84.0
71.147,-6.482,2.991,7.0
77.808,-7.063,2.844,8.0
104.415,-9.444,3.242,15.0
75.588,-6.811,1.924,10.0
119.282,-10.711,2.382,23.0
135.64,-12.136,1.965,50.0
71.167,-6.368,3.017,6.0
72.322,-6.447,2.669,9.0
104.091,-9.244,3.268,10.0
74.046,-6.551,1.91,11.0
126.417,-11.144,2.568,19.0
135.692,-11.917,2.011,150.0
67.988,-5.971,2.905,52.0
67.955,-5.945,2.529,44.0
71.931,-6.269,2.281,18.0
119.216,-10.349,3.113,39.0
119.249,-10.313,2.457,94.0
119.246,-10.273,1.803,31.0
67.979,-5.856,2.924,51.0
67.947,-5.83,2.548,44.0
71.785,-6.135,2.297,11.0
72.488,-6.171,1.912,17.0
119.302,-10.116,2.49,9.0
119.269,-10.073,1.834,18.0
8.353,0.115,-0.923,0.0
0.0,0.0,0.0,0.0
7.664,0.103,-0.934,0.0
0.0,0.0,0.0,0.0
0.0,0.0,0.0,0.0
0.0,0.0,0.0,0.0
8.309,0.105,-0.922,0.0
7.953,0.1,-0.928,0.0
7.648,0.094,-0.936,0.0
0.0,0.0,0.0,0.0
0.0,0.0,0.0,0.0
0.0,0.0,0.0,0.0
8.286,0.096,-0.923,0.0
7.962,0.091,-0.933,0.0
7.637,0.086,-0.938,0.0
0.0,0.0,0.0,0.0
0.0,0.0,0.0,0.0
0.0,0.0,0.0,0.0
8.245,0.087,-0.922,0.0
7.929,0.082,-0.932,0.0
7.61,0.077,-0.938,0.0
0.0,0.0,0.0,0.0
0.0,0.0,0.0,0.0
0.0,0.0,0.0,0.0
8.214,0.077,-0.922,0.0
7.887,0.073,-0.93,0.0
7.573,0.069,-0.936,0.0
0.0,0.0,0.0,0.0
0.0,0.0,0.0,0.0
0.0,0.0,0.0,0.0
8.202,0.068,-0.923,0.0
7.935,0.064,-0.938,0.0
7.589,0.06,-0.94,0.0
0.0,0.0,0.0,0.0
0.0,0.0,0.0,0.0
0.0,0.0,0.0,0.0
8.216,0.059,-0.927,0.0
0.0,0.0,0.0,0.0
7.585,0.052,-0.942,0.0
0.0,0.0,0.0,0.0
0.0,0.0,0.0,0.0
0.0,0.0,0.0,0.0
8.186,0.05,-0.925,0.0
0.0,0.0,0.0,0.0
7.565,0.043,-0.941,0.0
0.0,0.0,0.0,0.0
0.0,0.0,0.0,0.0
6.738,0.035,-0.954,0.0
8.18,0.04,-0.926,0.0
7.87,0.037,-0.935,0.0
7.553,0.035,-0.94,0.0
0.0,0.0,0.0,0.0
0.0,0.0,0.0,0.0
0.0,0.0,0.0,0.0
8.139,0.031,-0.922,0.0
7.782,0.028,-0.926,0.0
7.522,0.026,-0.937,0.0
0.0,0.0,0.0,0.0
0.0,0.0,0.0,0.0
0.0,0.0,0.0,0.0
8.173,0.022,-0.927,0.0
7.802,0.02,-0.929,0.0
7.559,0.017,-0.942,0.0
0.0,0.0,0.0,0.0
0.0,0.0,0.0,0.0
6.71,0.012,-0.952,0.0
8.166,0.013,-0.926,0.0
7.857,0.011,-0.935,0.0
7.565,0.009,-0.943,0.0
0.0,0.0,0.0,0.0
0.0,0.0,0.0,0.0
0.0,0.0,0.0,0.0
8.148,0.004,-0.924,0.0
7.887,0.002,-0.939,0.0
7.551,0.0,-0.941,0.0
0.0,0.0,0.0,0.0
0.0,0.0,0.0,0.0
0.0,0.0,0.0,0.0
8.145,-0.005,-0.923,0.0
7.872,-0.006,-0.937,0.0
0.0,0.0,0.0,0.0
0.0,0.0,0.0,0.0
0.0,0.0,0.0,0.0
6.74,-0.01,-0.955,0.0
8.173,-0.014,-0.926,0.0
7.848,-0.015,-0.933,0.0
7.573,-0.016,-0.943,0.0
0.0,0.0,0.0,0.0
0.0,0.0,0.0,0.0
6.683,-0.018,-0.946,0.0
8.189,-0.023,-0.926,0.0
7.826,-0.024,-0.929,0.0
7.532,-0.024,-0.936,0.0
0.0,0.0,0.0,0.0
0.0,0.0,0.0,0.0
6.782,-0.026,-0.959,0.0
0.0,0.0,0.0,0.0
0.0,0.0,0.0,0.0
45.509,-0.507,-0.428,0.0
36.936,-0.403,-0.544,0.0
30.592,-0.327,-0.61,0.0
26.342,-0.276,-0.663,0.0
0.0,0.0,0.0,0.0
0.0,0.0,0.0,0.0
0.0,0.0,0.0,0.0
39.755,-0.381,-0.52,0.0
0.0,0.0,0.0,0.0
27.813,-0.253,-0.654,0.0
0.0,0.0,0.0,0.0
0.0,0.0,0.0,0.0
0.0,0.0,0.0,0.0
0.0,0.0,0.0,0.0
34.086,-0.271,-0.568,0.0
29.458,-0.227,-0.645,0.0
113.957,-0.853,0.677,6.0
82.96,-0.601,0.06,1.0
0.0,0.0,0.0,0.0
0.0,0.0,0.0,0.0
35.467,-0.231,-0.534,0.0
0.0,0.0,0.0,0.0
119.636,-0.725,0.903,7.0
0.0,0.0,0.0,0.0
0.0,0.0,0.0,0.0
46.588,-0.248,-0.383,0.0
37.864,-0.192,-0.51,0.0
0.0,0.0,0.0,0.0
119.73,-0.549,1.095,16.0
104.378,-0.452,0.408,2.0
0.0,0.0,0.0,0.0
0.0,0.0,0.0,0.0
0.0,0.0,0.0,0.0
34.188,-0.115,-0.586,0.0
119.668,-0.373,1.279,17.0
111.083,-0.318,0.605,8.0
0.0,0.0,0.0,0.0
0.0,0.0,0.0,0.0
45.381,-0.095,-0.47,0.0
35.373,-0.065,-0.552,0.0
119.774,-0.191,1.464,7.0
111.186,-0.149,0.775,13.0
0.0,0.0,0.0,0.0
0.0,0.0,0.0,0.0
45.121,-0.026,-0.4,1.0
37.463,-0.011,-0.528,0.0
117.334,-0.007,1.61,17.0
111.111,0.022,0.942,6.0
95.592,0.044,0.308,6.0
0.0,0.0,0.0,0.0
49.814,0.048,-0.368,0.0
0.0,0.0,0.0,0.0
111.105,0.167,1.69,9.0
111.146,0.196,1.105,16.0
103.432,0.21,0.485,3.0
0.0,0.0,0.0,0.0
52.86,0.136,-0.312,0.0
42.905,0.121,-0.48,1.0
119.862,0.372,1.997,62.0
119.791,0.403,1.365,15.0
110.8,0.403,0.68,3.0
87.637,0.342,0.067,1.0
0.0,0.0,0.0,0.0
45.719,0.203,-0.446,0.0
111.116,0.524,2.009,24.0
111.092,0.554,1.423,33.0
110.914,0.584,0.837,8.0
87.594,0.485,0.19,5.0
0.0,0.0,0.0,0.0
45.984,0.279,-0.385,0.0
111.09,0.705,2.163,29.0
111.096,0.736,1.577,10.0
104.893,0.724,0.935,19.0
90.551,0.65,0.32,4.0
0.0,0.0,0.0,0.0
52.647,0.407,-0.369,0.0
104.684,0.84,2.181,4.0
100.338,0.833,1.561,2.0
100.086,0.858,1.027,4.0
97.931,0.867,0.478,7.0
0.0,0.0,0.0,0.0
53.318,0.502,-0.302,1.0
104.75,1.018,2.323,12.0
98.692,0.986,1.666,25.0
98.608,1.013,1.143,30.0
98.203,1.036,0.608,11.0
80.426,0.871,0.073,3.0
0.0,0.0,0.0,0.0
98.56,1.125,2.313,28.0
98.567,1.154,1.792,34.0
98.512,1.181,1.269,31.0
98.431,1.209,0.737,16.0
81.167,1.02,0.178,4.0
45.706,0.587,-0.142,0.0
24.922,2.149,-0.661,0.0
22.074,1.899,-0.709,1.0
19.549,1.677,-0.737,0.0
17.801,1.523,-0.772,0.0
16.317,1.392,-0.799,0.0
14.956,1.273,-0.816,0.0
24.773,2.095,-0.661,0.0
21.902,1.847,-0.706,0.0
19.536,1.643,-0.739,0.0
17.744,1.488,-0.772,0.0
16.254,1.359,-0.798,0.0
14.955,1.248,-0.817,0.0
24.817,2.057,-0.664,0.0
21.805,1.802,-0.705,0.0
19.604,1.615,-0.743,0.0
17.736,1.457,-0.773,0.0
16.219,1.329,-0.797,0.0
15.004,1.226,-0.821,0.0
24.73,2.007,-0.663,0.0
21.962,1.777,-0.711,0.0
19.568,1.579,-0.742,0.0
17.709,1.425,-0.772,0.0
16.237,1.303,-0.799,0.0
14.995,1.2,-0.821,0.0
24.827,1.972,-0.666,0.0
21.887,1.734,-0.709,0.0
19.477,1.538,-0.739,0.0
17.765,1.399,-0.775,0.0
16.247,1.275,-0.799,0.0
14.977,1.172,-0.82,0.0
24.963,1.94,-0.67,0.0
21.948,1.7,-0.71,0.0
19.712,1.522,-0.747,0.0
17.661,1.36,-0.769,0.0
16.285,1.25,-0.8,0.0
14.916,1.141,-0.816,0.0
25.001,1.899,-0.669,0.0
21.924,1.66,-0.708,0.0
19.499,1.472,-0.738,0.0
17.745,1.335,-0.772,0.0
16.269,1.22,-0.798,0.0
15.015,1.122,-0.82,0.0
24.815,1.842,-0.662,0.0
21.957,1.624,-0.707,0.0
19.632,1.447,-0.741,0.0
17.776,1.306,-0.771,0.0
16.271,1.191,-0.796,0.0
14.947,1.091,-0.814,0.0
25.185,1.824,-0.668,0.0
22.121,1.597,-0.709,0.0
19.64,1.413,-0.738,0.0
17.826,1.278,-0.77,0.0
16.326,1.166,-0.796,0.0
15.007,1.068,-0.815,0.0
25.236,1.783,-0.665,0.0
22.252,1.566,-0.709,0.0
19.694,1.381,-0.736,0.0
17.894,1.25,-0.77,0.0
16.433,1.144,-0.798,0.0
15.11,1.048,-0.817,0.0
25.13,1.73,-0.657,0.0
22.301,1.529,-0.706,0.0
19.896,1.359,-0.739,0.0
17.969,1.223,-0.769,0.0
16.488,1.117,-0.796,0.0
15.117,1.021,-0.813,0.0
25.267,1.693,-0.654,0.0
22.472,1.5,-0.705,0.0
19.97,1.328,-0.736,0.0
18.052,1.195,-0.767,0.0
16.482,1.087,-0.791,0.0
15.168,0.996,-0.812,0.0
25.606,1.669,-0.655,0.0
22.575,1.466,-0.701,0.0
19.865,1.284,-0.726,0.0
18.108,1.166,-0.764,0.0
16.648,1.067,-0.794,0.0
15.231,0.973,-0.81,0.0
25.613,1.623,-0.646,0.0
22.809,1.439,-0.701,0.0
20.184,1.268,-0.731,0.0
18.252,1.142,-0.763,0.0
16.697,1.04,-0.79,0.0
15.298,0.949,-0.808,0.0
26.243,1.615,-0.652,0.0
23.019,1.41,-0.698,0.0
20.426,1.246,-0.732,0.0
18.314,1.112,-0.758,0.0
16.85,1.018,-0.79,0.0
15.387,0.926,-0.806,0.0
26.397,1.576,-0.645,0.0
23.037,1.369,-0.689,0.0
20.513,1.213,-0.726,0.0
18.451,1.086,-0.756,0.0
16.795,0.984,-0.78,0.0
15.549,0.907,-0.807,0.0
45.501,-4.404,-0.107,20.0
37.759,-3.666,-0.294,14.0
30.212,-2.942,-0.399,19.0
23.56,-2.301,-0.442,10.0
21.203,-2.077,-0.513,18.0
19.105,-1.878,-0.566,16.0
46.451,-4.565,-0.08,22.0
38.359,-3.781,-0.274,17.0
30.453,-3.01,-0.383,20.0
23.573,-2.337,-0.426,4.0
21.713,-2.159,-0.511,19.0
19.502,-1.945,-0.564,19.0
47.013,-4.689,-0.049,22.0
38.755,-3.876,-0.25,14.0
30.811,-3.09,-0.366,12.0
23.556,-2.369,-0.41,2.0
22.075,-2.227,-0.504,20.0
19.601,-1.983,-0.554,20.0
47.65,-4.82,-0.016,23.0
38.976,-3.954,-0.224,14.0
30.879,-3.14,-0.345,9.0
23.549,-2.402,-0.393,0.0
22.359,-2.287,-0.494,19.0
20.024,-2.053,-0.551,17.0
48.207,-4.943,0.017,23.0
0.0,0.0,0.0,0.0
0.0,0.0,0.0,0.0
29.098,-3.007,-0.464,0.0
22.646,-2.347,-0.484,21.0
20.313,-2.111,-0.544,19.0
33.137,-3.443,0.037,62.0
33.116,-3.449,-0.141,70.0
32.945,-3.44,-0.319,55.0
27.957,-2.927,-0.424,8.0
22.966,-2.41,-0.473,15.0
20.427,-2.15,-0.531,20.0
33.107,-3.483,0.063,80.0
33.102,-3.491,-0.115,81.0
33.083,-3.498,-0.294,75.0
28.331,-3.003,-0.407,31.0
23.168,-2.462,-0.458,12.0
20.703,-2.205,-0.522,20.0
33.11,-3.526,0.09,92.0
33.104,-3.534,-0.088,79.0
33.093,-3.541,-0.267,44.0
28.654,-3.073,-0.388,21.0
23.656,-2.543,-0.448,33.0
20.737,-2.235,-0.505,17.0
33.115,-3.568,0.117,52.0
33.128,-3.578,-0.06,30.0
37.171,-4.024,-0.268,15.0
29.635,-3.215,-0.376,27.0
23.671,-2.574,-0.428,40.0
21.396,-2.332,-0.503,19.0
71.888,-7.834,0.317,3.0
45.977,-5.021,-0.044,21.0
37.792,-4.136,-0.24,20.0
30.125,-3.304,-0.357,23.0
24.588,-2.703,-0.424,20.0
21.743,-2.395,-0.492,22.0
77.139,-8.497,0.408,3.0
46.85,-5.171,-0.003,21.0
38.518,-4.26,-0.21,14.0
30.718,-3.405,-0.336,15.0
25.134,-2.792,-0.41,21.0
22.04,-2.453,-0.479,20.0
79.028,-8.795,0.491,4.0
48.411,-5.398,0.04,5.0
38.979,-4.355,-0.177,14.0
0.0,0.0,0.0,0.0
25.417,-2.851,-0.392,17.0
22.385,-2.516,-0.465,22.0
84.533,-9.5,0.603,2.0
0.0,0.0,0.0,0.0
0.0,0.0,0.0,0.0
35.466,-4.008,-0.323,20.0
0.0,0.0,0.0,0.0
22.429,-2.544,-0.445,21.0
75.299,-8.541,0.608,22.0
50.976,-5.792,0.137,8.0
42.196,-4.803,-0.112,18.0
35.755,-4.077,-0.291,21.0
28.329,-3.237,-0.383,21.0
22.904,-2.622,-0.433,22.0
75.222,-8.609,0.68,27.0
51.563,-5.911,0.189,2.0
0.0,0.0,0.0,0.0
36.689,-4.22,-0.263,14.0
29.093,-3.352,-0.365,18.0
23.283,-2.688,-0.417,20.0
75.217,-8.681,0.754,30.0
75.165,-8.689,0.35,10.0
46.006,-5.327,-0.033,21.0
37.444,-4.343,-0.231,18.0
29.942,-3.478,-0.346,21.0
24.021,-2.795,-0.406,25.0
49.609,0.482,-0.28,0.0
40.848,0.402,-0.468,0.0
0.0,0.0,0.0,0.0
27.017,0.273,-0.627,0.0
23.493,0.24,-0.682,0.0
20.636,0.214,-0.719,0.0
46.494,0.486,-0.354,0.0
0.0,0.0,0.0,0.0
30.467,0.326,-0.586,0.0
26.138,0.283,-0.658,0.0
22.506,0.247,-0.698,0.0
20.199,0.224,-0.744,1.0
42.424,0.474,-0.408,1.0
35.217,0.398,-0.544,0.0
28.546,0.326,-0.607,0.0
24.847,0.287,-0.675,0.0
21.616,0.252,-0.714,0.0
19.288,0.227,-0.749,0.0
40.979,0.487,-0.476,0.0
32.179,0.386,-0.561,0.0
27.38,0.331,-0.637,0.0
23.47,0.287,-0.685,0.0
20.702,0.255,-0.725,0.0
18.5,0.23,-0.756,0.0
36.245,0.454,-0.494,0.0
30.203,0.381,-0.587,0.0
25.859,0.329,-0.653,0.0
22.342,0.287,-0.697,0.0
19.865,0.257,-0.735,0.0
18.115,0.237,-0.776,0.0
0.0,0.0,0.0,0.0
0.0,0.0,0.0,0.0
24.694,0.329,-0.673,0.0
21.32,0.286,-0.708,0.0
19.15,0.259,-0.747,0.0
17.363,0.237,-0.779,0.0
32.004,0.438,-0.564,0.0
26.676,0.368,-0.625,0.0
23.449,0.326,-0.686,0.0
20.529,0.287,-0.723,0.0
18.346,0.258,-0.753,0.0
16.731,0.237,-0.784,0.0
29.769,0.423,-0.584,0.0
25.915,0.371,-0.66,0.0
22.348,0.322,-0.699,0.0
19.717,0.286,-0.734,0.0
17.686,0.258,-0.761,1.0
16.289,0.239,-0.796,0.0
28.41,0.418,-0.615,0.0
24.519,0.363,-0.674,0.0
21.434,0.319,-0.714,0.0
19.034,0.285,-0.747,0.0
17.544,0.264,-0.791,0.0
15.823,0.24,-0.806,0.0
26.6,0.403,-0.629,0.0
23.212,0.354,-0.685,0.0
20.374,0.313,-0.72,0.0
18.254,0.281,-0.753,0.0
16.673,0.258,-0.785,0.0
15.347,0.239,-0.813,0.0
25.368,0.395,-0.652,0.0
22.225,0.348,-0.701,0.0
19.752,0.311,-0.738,0.0
17.637,0.279,-0.764,2.0
16.177,0.257,-0.795,0.0
14.806,0.237,-0.814,0.0
0.0,0.0,0.0,0.0
21.302,0.342,-0.715,0.0
18.858,0.304,-0.743,0.0
17.394,0.282,-0.788,0.0
15.623,0.254,-0.799,0.0
14.464,0.236,-0.824,0.0
23.086,0.376,-0.686,0.0
20.351,0.333,-0.724,0.0
18.233,0.3,-0.755,0.0
16.59,0.274,-0.786,0.0
15.205,0.252,-0.809,0.0
14.057,0.234,-0.83,0.0
22.029,0.366,-0.7,0.0
19.446,0.324,-0.731,0.0
17.623,0.295,-0.765,2.0
16.124,0.271,-0.796,0.0
14.722,0.248,-0.813,0.0
13.706,0.232,-0.837,0.0
21.275,0.359,-0.718,0.0
18.743,0.317,-0.742,0.0
17.299,0.294,-0.786,0.0
15.651,0.267,-0.804,0.0
14.4,0.246,-0.824,0.0
13.354,0.229,-0.842,0.0
20.332,0.348,-0.727,0.0
18.131,0.311,-0.754,0.0
16.619,0.286,-0.788,0.0
15.157,0.261,-0.809,0.0
13.965,0.242,-0.827,0.0
13.041,0.226,-0.849,0.0
0.0,0.0,0.0,0.0
41.37,-1.118,-0.455,1.0
34.637,-0.926,-0.562,0.0
21.89,-0.58,-0.472,22.0
21.848,-0.573,-0.586,164.0
21.849,-0.567,-0.701,31.0
0.0,0.0,0.0,0.0
43.949,-1.12,-0.42,2.0
0.0,0.0,0.0,0.0
30.282,-0.755,-0.611,0.0
21.904,-0.54,-0.557,8.0
18.144,-0.443,-0.557,150.0
0.0,0.0,0.0,0.0
46.575,-1.114,-0.38,0.0
0.0,0.0,0.0,0.0
31.184,-0.729,-0.585,0.0
27.287,-0.63,-0.656,0.0
18.153,-0.414,-0.531,47.0
0.0,0.0,0.0,0.0
0.0,0.0,0.0,0.0
0.0,0.0,0.0,0.0
33.37,-0.727,-0.581,0.0
0.0,0.0,0.0,0.0
24.658,-0.523,-0.689,0.0
0.0,0.0,0.0,0.0
0.0,0.0,0.0,0.0
44.9,-0.917,-0.48,0.0
0.0,0.0,0.0,0.0
29.633,-0.589,-0.632,0.0
25.185,-0.493,-0.67,0.0
0.0,0.0,0.0,0.0
0.0,0.0,0.0,0.0
45.292,-0.85,-0.424,2.0
37.408,-0.691,-0.551,0.0
29.941,-0.545,-0.599,0.0
26.386,-0.472,-0.667,0.0
0.0,0.0,0.0,0.0
0.0,0.0,0.0,0.0
47.204,-0.806,-0.38,0.0
0.0,0.0,0.0,0.0
31.204,-0.514,-0.584,0.0
0.0,0.0,0.0,0.0
113.536,-1.811,0.428,2.0
0.0,0.0,0.0,0.0
48.475,-0.744,-0.328,0.0
40.728,-0.614,-0.495,0.0
34.133,-0.504,-0.595,0.0
28.634,-0.414,-0.651,0.0
127.502,-1.812,0.642,9.0
0.0,0.0,0.0,0.0
0.0,0.0,0.0,0.0
0.0,0.0,0.0,0.0
34.783,-0.453,-0.563,0.0
29.522,-0.375,-0.634,0.0
139.174,-1.734,0.872,10.0
0.0,0.0,0.0,0.0
0.0,0.0,0.0,0.0
45.435,-0.525,-0.441,0.0
0.0,0.0,0.0,0.0
30.75,-0.337,-0.624,0.0
119.761,-1.28,0.893,100.0
0.0,0.0,0.0,0.0
0.0,0.0,0.0,0.0
46.76,-0.457,-0.398,0.0
0.0,0.0,0.0,0.0
31.165,-0.285,-0.596,0.0
119.688,-1.062,1.034,19.0
0.0,0.0,0.0,0.0
0.0,0.0,0.0,0.0
0.0,0.0,0.0,0.0
39.519,-0.302,-0.501,0.0
0.0,0.0,0.0,0.0
119.715,-0.844,1.171,18.0
111.025,-0.747,0.497,2.0
0.0,0.0,0.0,0.0
51.737,-0.316,-0.322,0.0
0.0,0.0,0.0,0.0
34.315,-0.188,-0.579,0.0
119.709,-0.623,1.303,13.0
110.926,-0.542,0.618,6.0
0.0,0.0,0.0,0.0
0.0,0.0,0.0,0.0
45.03,-0.178,-0.471,1.0
35.619,-0.129,-0.562,0.0
119.728,-0.398,1.433,18.0
111.325,-0.336,0.74,10.0
0.0,0.0,0.0,0.0
0.0,0.0,0.0,0.0
45.385,-0.093,-0.427,1.0
37.206,-0.064,-0.548,0.0
117.368,-0.167,1.529,16.0
117.222,-0.13,0.902,7.0
95.317,-0.076,0.225,1.0
0.0,0.0,0.0,0.0
45.777,-0.007,-0.384,1.0
0.0,0.0,0.0,0.0
40.588,0.974,5.277,43.0
40.391,0.977,5.026,37.0
40.265,0.982,4.786,42.0
40.371,0.992,4.571,30.0
40.6,1.006,4.371,46.0
40.854,1.02,4.173,37.0
40.784,1.028,5.326,37.0
40.286,1.023,5.035,42.0
40.217,1.029,4.802,39.0
40.269,1.038,4.581,39.0
40.885,1.062,4.424,21.0
40.962,1.072,4.205,28.0
41.026,1.083,5.378,36.0
40.363,1.073,5.065,41.0
40.35,1.081,4.839,32.0
40.282,1.087,4.602,34.0
40.737,1.107,4.427,42.0
41.187,1.127,4.247,35.0
41.009,1.132,5.395,33.0
40.385,1.123,5.087,46.0
40.217,1.125,4.841,42.0
40.432,1.139,4.637,41.0
40.737,1.156,4.445,39.0
40.929,1.169,4.238,42.0
41.338,1.191,5.456,17.0
40.536,1.176,5.123,37.0
40.721,1.189,4.918,22.0
40.49,1.19,4.66,32.0
40.622,1.201,4.448,37.0
40.926,1.218,4.254,38.0
41.372,1.242,5.476,14.0
40.91,1.236,5.185,31.0
41.112,1.25,4.98,19.0
40.611,1.242,4.688,40.0
40.588,1.249,4.458,35.0
40.79,1.263,4.253,38.0
40.814,1.275,5.416,37.0
41.153,1.293,5.229,35.0
41.314,1.306,5.018,24.0
40.595,1.291,4.699,41.0
41.311,1.321,4.55,17.0
41.131,1.323,4.301,36.0
40.656,1.319,5.407,45.0
41.025,1.338,5.225,30.0
41.077,1.348,5.0,37.0
40.97,1.352,4.753,40.0
41.27,1.369,4.556,42.0
40.95,1.366,4.292,37.0
40.643,1.368,5.415,34.0
40.667,1.376,5.188,36.0
40.944,1.393,4.993,35.0
41.231,1.41,4.792,34.0
41.594,1.43,4.601,47.0
40.609,1.404,4.264,39.0
40.92,1.427,5.46,16.0
40.828,1.431,5.217,36.0
40.824,1.438,4.986,37.0
41.171,1.458,4.792,13.0
0.0,0.0,0.0,0.0
40.667,1.454,4.277,38.0
40.944,1.477,5.469,16.0
41.014,1.486,5.246,45.0
40.871,1.489,4.997,31.0
41.1,1.504,4.789,16.0
40.705,1.497,4.514,37.0
40.509,1.497,4.264,43.0
40.939,1.526,5.473,39.0
40.989,1.535,5.247,21.0
40.997,1.542,5.016,16.0
0.0,0.0,0.0,0.0
40.661,1.544,4.512,46.0
40.576,1.548,4.274,37.0
40.939,1.574,5.475,38.0
40.67,1.572,5.208,28.0
40.912,1.588,5.007,27.0
42.592,1.66,4.967,5.0
0.0,0.0,0.0,0.0
40.479,1.591,4.265,36.0
40.893,1.622,5.469,37.0
40.923,1.63,5.24,32.0
40.918,1.636,5.008,3.0
45.076,1.811,5.256,15.0
40.655,1.639,4.511,42.0
40.604,1.644,4.277,28.0
40.921,1.671,5.471,27.0
40.925,1.678,5.239,19.0
40.971,1.686,5.012,3.0
45.253,1.87,5.274,23.0
40.662,1.687,4.509,43.0
40.581,1.69,4.271,35.0
55.199,2.318,7.376,5.0
45.142,1.903,5.775,19.0
44.485,1.882,5.437,6.0
45.295,1.924,5.275,16.0
40.654,1.733,4.504,50.0
40.556,1.735,4.264,37.0
20.072,-1.166,0.164,8.0
20.023,-1.17,0.055,27.0
19.992,-1.176,-0.053,150.0
19.993,-1.183,-0.165,151.0
19.991,-1.19,-0.274,151.0
19.985,-1.197,-0.383,150.0
19.982,-1.2,0.171,150.0
19.984,-1.207,0.062,150.0
19.991,-1.214,-0.046,151.0
20.033,-1.224,-0.158,24.0
20.044,-1.232,-0.267,10.0
20.099,-1.243,-0.377,23.0
19.992,-1.239,0.178,28.0
19.99,-1.246,0.069,23.0
19.985,-1.253,-0.039,19.0
20.014,-1.261,-0.15,28.0
20.031,-1.27,-0.259,27.0
20.05,-1.278,-0.368,29.0
19.976,-1.276,0.186,26.0
19.99,-1.284,0.078,25.0
19.966,-1.289,-0.03,17.0
20.002,-1.299,-0.141,31.0
20.022,-1.307,-0.25,30.0
20.055,-1.316,-0.36,27.0
19.971,-1.313,0.195,23.0
19.991,-1.321,0.087,19.0
19.995,-1.328,-0.021,12.0
20.006,-1.336,-0.132,24.0
20.018,-1.344,-0.241,19.0
20.053,-1.354,-0.35,13.0
20.024,-1.354,0.205,7.0
20.02,-1.36,0.097,5.0
20.005,-1.366,-0.011,4.0
20.023,-1.374,-0.122,9.0
19.998,-1.379,-0.23,0.0
0.0,0.0,0.0,0.0
102.832,-7.142,1.11,37.0
90.466,-6.313,0.485,5.0
58.97,-4.135,-0.003,0.0
46.135,-3.251,-0.257,0.0
0.0,0.0,0.0,0.0
34.204,-2.434,-0.561,0.0
20.029,-1.427,0.227,40.0
20.023,-1.433,0.118,13.0
51.983,-3.739,0.026,1.0
45.051,-3.256,-0.226,2.0
39.973,-2.903,-0.417,1.0
0.0,0.0,0.0,0.0
20.037,-1.463,0.238,23.0
20.023,-1.469,0.13,11.0
67.529,-4.978,0.073,1.0
45.116,-3.341,-0.199,2.0
37.016,-2.754,-0.364,2.0
35.246,-2.635,-0.537,1.0
119.278,-8.927,1.496,16.0
95.441,-7.173,0.68,4.0
67.437,-5.091,0.116,3.0
40.696,-3.086,-0.154,0.0
38.428,-2.927,-0.353,13.0
32.48,-2.485,-0.474,1.0
67.899,-5.2,0.895,67.0
67.869,-5.22,0.528,75.0
67.777,-5.234,0.161,32.0
51.829,-4.02,-0.162,2.0
0.0,0.0,0.0,0.0
31.809,-2.488,-0.443,2.0
67.899,-5.316,0.941,39.0
67.901,-5.338,0.575,28.0
67.814,-5.353,0.207,14.0
50.35,-3.991,-0.122,24.0
40.517,-3.224,-0.317,15.0
32.434,-2.592,-0.429,16.0
119.198,-9.535,1.736,16.0
114.414,-9.187,1.05,4.0
72.177,-5.819,0.273,5.0
50.36,-4.076,-0.086,24.0
40.645,-3.302,-0.289,7.0
35.147,-2.867,-0.439,3.0
119.264,-9.737,1.824,19.0
114.012,-9.343,1.13,7.0
81.147,-6.675,0.367,7.0
51.301,-4.236,-0.049,25.0
44.49,-3.688,-0.282,4.0
35.152,-2.925,-0.412,42.0
119.332,-9.937,1.917,42.0
114.435,-9.563,1.222,7.0
83.428,-6.998,0.442,10.0
51.658,-4.349,-0.009,7.0
44.228,-3.737,-0.246,18.0
35.668,-3.025,-0.39,58.0
119.306,-10.126,2.012,72.0
114.704,-9.77,1.317,5.0
83.515,-7.138,0.509,6.0
51.928,-4.454,0.032,3.0
43.782,-3.769,-0.208,7.0
35.62,-3.077,-0.36,0.0
69.782,-7.95,5.01,19.0
75.51,-8.593,5.012,10.0
72.46,-8.235,4.418,23.0
72.118,-8.187,4.001,19.0
72.352,-8.204,3.624,33.0
73.225,-8.294,3.272,39.0
33.238,-3.77,2.42,38.0
33.224,-3.763,2.239,27.0
33.232,-3.759,2.06,5.0
72.192,-8.157,4.077,38.0
70.868,-7.998,3.62,10.0
72.514,-8.174,3.312,23.0
33.232,-3.751,2.453,78.0
33.215,-3.744,2.272,55.0
33.198,-3.737,2.091,42.0
33.202,-3.732,1.908,36.0
33.207,-3.728,1.728,23.0
33.173,-3.719,1.548,2.0
33.228,-3.731,2.485,81.0
33.221,-3.725,2.304,79.0
33.212,-3.718,2.124,76.0
33.201,-3.712,1.939,76.0
33.181,-3.705,1.758,52.0
33.193,-3.701,1.58,41.0
33.222,-3.71,2.516,80.0
33.218,-3.703,2.335,83.0
33.207,-3.696,2.154,72.0
33.191,-3.689,1.97,79.0
33.188,-3.683,1.79,81.0
33.172,-3.676,1.61,79.0
33.242,-3.69,2.548,72.0
33.212,-3.68,2.365,70.0
33.247,-3.678,2.187,61.0
33.192,-3.666,2.0,78.0
33.185,-3.66,1.82,84.0
33.173,-3.653,1.639,79.0
33.248,-3.667,2.579,4.0
33.221,-3.657,2.396,26.0
33.222,-3.651,2.215,53.0
33.214,-3.645,2.03,70.0
33.192,-3.636,1.849,67.0
33.189,-3.63,1.669,67.0
70.915,-7.768,5.563,11.0
70.25,-7.682,5.128,14.0
70.248,-7.668,4.744,28.0
33.19,-3.616,2.057,3.0
33.209,-3.612,1.878,21.0
33.197,-3.605,1.697,57.0
33.313,-3.623,2.641,38.0
33.311,-3.616,2.459,36.0
33.314,-3.609,2.278,22.0
70.315,-7.605,4.418,15.0
70.027,-7.56,4.02,16.0
70.109,-7.556,3.643,26.0
33.312,-3.595,2.669,53.0
33.315,-3.588,2.487,53.0
33.297,-3.579,2.304,41.0
33.318,-3.575,2.12,7.0
69.997,-7.497,4.074,15.0
69.99,-7.483,3.692,29.0
33.296,-3.565,2.694,51.0
33.296,-3.557,2.512,43.0
33.314,-3.552,2.331,61.0
33.285,-3.542,2.144,15.0
70.213,-7.458,4.14,16.0
69.857,-7.407,3.738,26.0
33.295,-3.535,2.719,51.0
33.285,-3.526,2.536,54.0
33.304,-3.521,2.355,55.0
33.277,-3.511,2.168,39.0
72.054,-7.588,4.301,9.0
69.836,-7.339,3.788,18.0
33.292,-3.504,2.743,54.0
33.284,-3.495,2.56,54.0
33.272,-3.486,2.377,49.0
33.271,-3.479,2.191,48.0
69.153,-7.216,4.177,30.0
71.523,-7.448,3.929,16.0
33.277,-3.47,2.766,52.0
33.275,-3.462,2.582,54.0
33.271,-3.454,2.4,49.0
33.263,-3.445,2.213,51.0
69.212,-7.154,4.227,24.0
68.85,-7.101,3.829,18.0
33.273,-3.436,2.788,53.0
33.269,-3.428,2.604,51.0
33.262,-3.419,2.421,49.0
33.254,-3.411,2.234,52.0
0.0,0.0,0.0,0.0
68.897,-7.035,3.874,24.0
33.262,-3.401,2.808,52.0
33.255,-3.392,2.624,52.0
33.25,-3.383,2.44,49.0
33.24,-3.375,2.254,52.0
69.311,-7.021,4.319,26.0
68.935,-6.966,3.918,19.0
33.256,-3.365,2.827,53.0
33.251,-3.356,2.643,50.0
33.249,-3.348,2.46,50.0
33.236,-3.338,2.273,53.0
69.602,-6.975,4.377,42.0
68.955,-6.893,3.958,17.0
33.248,-3.328,2.845,52.0
33.244,-3.319,2.661,53.0
33.239,-3.31,2.477,52.0
33.229,-3.301,2.29,52.0
69.542,-6.891,4.411,39.0
69.063,-6.827,4.001,8.0
33.245,-3.29,2.863,54.0
33.232,-3.28,2.678,52.0
33.233,-3.272,2.494,52.0
33.216,-3.262,2.307,53.0
69.7,-6.828,4.456,26.0
69.9,-6.83,4.084,21.0
33.23,-3.251,2.878,53.0
33.224,-3.241,2.693,53.0
33.224,-3.232,2.509,53.0
33.221,-3.223,2.323,54.0
33.244,-3.217,2.141,6.0
73.963,-7.14,4.356,7.0
33.227,-3.211,2.893,54.0
33.224,-3.202,2.709,52.0
33.215,-3.192,2.524,50.0
33.207,-3.182,2.336,53.0
33.228,-3.176,2.154,16.0
73.766,-7.032,4.376,5.0
33.226,-3.171,2.907,54.0
33.207,-3.16,2.721,50.0
33.204,-3.15,2.537,49.0
33.208,-3.142,2.35,56.0
69.867,-6.592,4.557,13.0
69.985,-6.584,4.179,14.0
75.577,-7.118,6.643,12.0
75.809,-7.119,6.241,2.0
70.757,-6.625,5.433,24.0
69.925,-6.528,4.974,32.0
70.099,-6.525,4.598,14.0
69.944,-6.492,4.201,26.0
74.663,-6.937,6.588,18.0
73.617,-6.819,6.087,26.0
70.997,-6.557,5.475,30.0
70.283,-6.471,5.022,34.0
70.976,-6.515,4.679,18.0
70.269,-6.432,4.243,13.0
73.723,-6.755,6.528,8.0
76.388,-6.977,6.339,6.0
70.892,-6.455,5.488,22.0
70.393,-6.39,5.051,41.0
33.214,-3.006,2.199,2.0
71.193,-6.424,4.318,8.0
73.491,-6.637,6.528,8.0
74.513,-6.708,6.203,11.0
70.809,-6.354,5.5,23.0
70.294,-6.287,5.062,41.0
70.643,-6.299,4.694,14.0
71.106,-6.321,4.33,17.0
76.299,-6.789,6.796,7.0
74.462,-6.603,6.216,13.0
70.809,-6.258,5.515,20.0
69.881,-6.156,5.047,12.0
70.668,-6.206,4.71,27.0
71.503,-6.26,4.368,24.0
73.375,-6.428,6.549,11.0
71.458,-6.238,5.979,14.0
70.872,-6.167,5.533,16.0
70.274,-6.095,5.087,34.0
70.462,-6.092,4.708,23.0
71.627,-6.172,4.387,13.0
71.396,-6.156,6.383,20.0
71.249,-6.122,5.971,22.0
70.958,-6.076,5.55,25.0
70.555,-6.02,5.117,26.0
70.324,-5.981,4.707,35.0
71.606,-6.07,4.395,21.0
71.805,-6.09,6.428,9.0
73.033,-6.172,6.128,7.0
73.163,-6.162,5.729,8.0
70.623,-5.927,5.128,34.0
70.181,-5.87,4.704,35.0
71.712,-5.977,4.406,13.0
72.208,-6.022,6.47,10.0
70.616,-5.868,5.93,7.0
73.022,-6.046,5.722,14.0
70.645,-5.829,5.133,22.0
71.526,-5.881,4.797,16.0
71.79,-5.882,4.414,16.0
79.478,-6.516,7.123,7.0
70.527,-5.76,5.924,8.0
73.14,-5.951,5.733,11.0
70.612,-5.725,5.132,9.0
71.01,-5.736,4.763,41.0
71.963,-5.793,4.424,14.0
73.48,-5.916,6.585,8.0
73.284,-5.878,6.155,10.0
70.959,-5.67,5.56,8.0
70.722,-5.631,5.137,20.0
70.99,-5.632,4.758,8.0
71.746,-5.671,4.408,19.0
70.895,-5.606,6.349,14.0
70.821,-5.578,5.943,22.0
74.641,-5.856,5.844,4.0
67.991,-5.314,4.934,44.0
67.966,-5.291,4.55,79.0
67.957,-5.271,4.168,81.0
68.015,-5.276,6.085,67.0
67.993,-5.254,5.699,71.0
68.002,-5.233,5.317,39.0
74.632,-5.721,5.407,8.0
71.101,-5.43,4.752,28.0
72.136,-5.487,4.416,14.0
72.008,-5.478,6.432,11.0
70.526,-5.343,5.902,21.0
73.281,-5.529,5.718,9.0
78.479,-5.898,5.673,11.0
71.904,-5.383,4.794,19.0
72.093,-5.376,4.401,14.0
70.986,-5.292,6.328,8.0
70.569,-5.239,5.891,3.0
73.48,-5.432,5.72,9.0
79.018,-5.818,5.697,11.0
78.492,-5.756,5.216,8.0
71.922,-5.254,4.375,8.0
70.822,-5.171,6.298,20.0
0.0,0.0,0.0,0.0
74.431,-5.389,5.776,17.0
76.218,-5.495,5.476,16.0
71.585,-5.14,4.74,8.0
71.654,-5.125,4.34,27.0
71.136,-5.085,6.306,26.0
72.321,-5.147,6.002,22.0
73.09,-5.179,5.652,16.0
72.15,-5.091,5.163,10.0
71.587,-5.03,4.718,10.0
71.636,-5.013,4.318,20.0
72.272,-5.055,6.385,16.0
72.861,-5.073,6.023,17.0
72.148,-5.001,5.556,19.0
76.18,-5.257,5.427,6.0
71.641,-4.922,4.698,32.0
71.602,-4.898,4.291,19.0
64.377,-4.402,5.664,25.0
72.832,-4.957,5.995,16.0
71.904,-4.871,5.51,9.0
72.034,-4.859,5.104,14.0
71.697,-4.814,4.675,33.0
71.166,-4.758,4.238,38.0
64.351,-4.299,5.637,32.0
72.801,-4.841,5.962,46.0
71.84,-4.755,5.476,22.0
72.024,-4.746,5.074,23.0
71.739,-4.706,4.647,16.0
70.986,-4.635,4.197,16.0
64.183,-4.187,5.594,38.0
72.358,-4.699,5.894,39.0
71.917,-4.649,5.45,10.0
75.462,-4.855,5.282,9.0
71.595,-4.585,4.605,12.0
71.378,-4.551,4.187,18.0
63.997,-4.075,5.547,33.0
71.013,-4.5,5.75,13.0
73.093,-4.61,5.503,13.0
58.876,-3.696,4.091,15.0
58.935,-3.682,3.76,16.0
70.695,-4.397,4.111,33.0
63.816,-3.963,5.498,34.0
63.581,-3.929,5.114,36.0
58.918,-3.623,4.404,19.0
58.768,-3.597,4.052,33.0
58.848,-3.584,3.723,32.0
71.131,-4.312,4.097,31.0
63.436,-3.84,5.429,37.0
63.539,-3.827,5.075,32.0
58.883,-3.529,4.367,32.0
58.932,-3.514,4.029,33.0
70.966,-4.212,4.448,10.0
71.432,-4.218,4.072,12.0
63.417,-3.739,5.389,34.0
63.346,-3.715,5.021,38.0
58.929,-3.439,4.334,7.0
59.224,-3.438,4.012,25.0
58.868,-3.4,3.652,32.0
71.697,-4.121,4.04,12.0
63.106,-3.619,5.321,34.0
63.21,-3.607,4.968,38.0
64.531,-3.663,4.703,9.0
58.697,-3.315,3.936,33.0
58.675,-3.296,3.601,32.0
58.68,-3.28,3.267,7.0
63.09,-3.519,5.276,25.0
63.168,-3.504,4.92,38.0
58.928,-3.251,4.252,25.0
58.398,-3.205,3.875,32.0
58.635,-3.201,3.556,32.0
20.01,-1.086,1.099,5.0
58.511,-3.17,4.849,26.0
58.552,-3.156,4.517,22.0
63.74,-3.416,4.552,30.0
58.275,-3.106,3.823,32.0
58.392,-3.096,3.497,31.0
20.03,-1.056,1.085,0.0
58.697,-3.088,4.819,29.0
57.043,-2.984,4.356,31.0
64.041,-3.332,4.523,18.0
58.504,-3.027,3.791,33.0
58.555,-3.013,3.46,32.0
73.457,-3.76,3.921,19.0
58.499,-2.986,4.754,33.0
56.822,-2.884,4.292,30.0
0.0,0.0,0.0,0.0
58.585,-2.939,3.747,33.0
58.418,-2.915,3.402,24.0
73.417,-3.643,3.856,11.0
0.0,0.0,0.0,0.0
56.893,-2.798,4.247,27.0
57.608,-2.817,3.97,32.0
58.473,-2.842,3.688,32.0
58.234,-2.814,3.34,25.0
79.807,-3.836,4.121,28.0
44.095,-2.112,3.506,33.0
56.918,-2.71,4.197,30.0
58.358,-2.762,3.969,19.0
58.245,-2.741,3.621,32.0
58.257,-2.725,3.287,8.0
80.435,-3.741,4.078,26.0
44.139,-2.045,3.467,38.0
0.0,0.0,0.0,0.0
58.318,-2.67,3.91,32.0
58.17,-2.647,3.559,29.0
59.377,-2.685,3.293,6.0
80.769,-3.631,4.016,37.0
44.206,-1.979,3.428,46.0
0.0,0.0,0.0,0.0
59.07,-2.612,3.901,25.0
59.845,-2.63,3.602,29.0
67.144,-2.933,3.656,29.0
80.848,-3.51,3.938,36.0
44.207,-1.911,3.383,33.0
44.403,-1.907,3.142,32.0
46.005,-1.964,2.991,17.0
60.076,-2.549,3.554,34.0
67.268,-2.837,3.592,13.0
80.908,-3.39,3.857,26.0
44.151,-1.841,3.332,44.0
44.441,-1.841,3.097,40.0
58.119,-2.392,3.715,16.0
59.958,-2.452,3.482,34.0
67.2,-2.731,3.516,10.0
81.229,-3.28,3.783,13.0
44.133,-1.774,3.282,47.0
44.42,-1.773,3.046,30.0
46.234,-1.833,2.904,39.0
59.756,-2.354,3.403,34.0
81.221,-3.178,4.158,19.0
94.205,-3.662,4.28,16.0
44.184,-1.708,3.234,45.0
44.374,-1.704,2.992,52.0
59.464,-2.268,3.666,25.0
59.68,-2.261,3.329,31.0
81.222,-3.056,4.062,12.0
94.251,-3.522,4.172,10.0
44.184,-1.642,3.182,45.0
44.734,-1.651,2.962,28.0
59.798,-2.192,3.614,33.0
66.272,-2.412,3.617,38.0
81.166,-2.933,3.962,31.0
94.494,-3.391,4.068,16.0
44.228,-1.578,3.13,52.0
45.36,-1.606,2.947,38.0
66.063,-2.323,3.911,9.0
66.378,-2.317,3.54,37.0
94.209,-3.265,4.48,21.0
101.41,-3.49,4.238,7.0
0.0,0.0,0.0,0.0
46.006,-1.561,2.931,31.0
65.991,-2.223,3.822,23.0
66.686,-2.23,3.47,21.0
94.417,-3.135,4.369,19.0
101.036,-3.331,4.093,22.0
46.376,-1.518,3.162,21.0
57.064,-1.855,3.561,24.0
66.091,-2.131,3.742,41.0
80.645,-2.581,4.091,41.0
81.361,-2.584,3.657,20.0
101.615,-3.204,3.983,25.0
45.91,-1.437,3.069,40.0
56.988,-1.77,3.479,30.0
65.696,-2.024,3.631,9.0
81.076,-2.479,4.004,40.0
81.345,-2.468,3.547,12.0
101.809,-3.065,3.851,16.0
45.859,-1.37,3.003,29.0
57.076,-1.692,3.406,31.0
66.053,-1.942,3.559,26.0
81.113,-2.365,3.892,37.0
94.668,-2.739,3.996,13.0
120.573,-3.462,4.394,17.0
57.031,-1.624,3.653,31.0
71.472,-2.018,4.164,12.0
85.826,-2.404,4.503,4.0
81.351,-2.26,3.789,29.0
106.238,-2.926,4.332,12.0
120.2,-3.283,4.208,15.0
51.809,-1.403,3.244,16.0
78.514,-2.108,4.459,11.0
74.168,-1.975,3.782,18.0
81.901,-2.162,3.695,11.0
96.69,-2.532,3.803,7.0
120.564,-3.13,4.044,21.0
51.632,-1.328,3.156,20.0
73.896,-1.884,4.088,16.0
74.126,-1.874,3.671,6.0
82.065,-2.056,3.581,15.0
106.113,-2.635,4.015,13.0
120.741,-2.973,3.87,19.0
51.805,-1.263,3.089,19.0
74.149,-1.792,3.991,40.0
80.941,-1.938,3.886,28.0
96.451,-2.288,4.061,13.0
113.224,-2.662,4.11,18.0
112.592,-2.623,3.436,15.0
51.935,-1.198,3.016,4.0
74.418,-1.701,3.889,23.0
80.98,-1.834,3.762,10.0
115.507,-2.59,4.684,9.0
113.149,-2.513,3.932,21.0
112.555,-2.476,3.258,17.0
73.634,-1.603,4.16,17.0
81.877,-1.765,4.149,6.0
95.329,-2.035,4.277,20.0
106.664,-2.255,4.155,8.0
112.715,-2.36,3.738,24.0
112.895,-2.339,3.088,19.0
73.65,-1.509,4.041,14.0
81.563,-1.655,4.002,9.0
95.538,-1.919,4.132,17.0
112.606,-2.239,4.205,17.0
112.747,-2.22,3.558,11.0
112.878,-2.199,2.906,23.0
81.89,-1.577,4.36,13.0
81.671,-1.556,3.874,25.0
112.626,-2.124,4.688,9.0
112.661,-2.102,4.023,24.0
113.088,-2.087,3.38,15.0
205.998,-3.763,4.965,10.0
82.005,-1.479,4.23,22.0
95.023,-1.695,4.348,15.0
106.359,-1.876,4.249,13.0
112.773,-1.968,3.838,11.0
112.833,-1.947,3.184,17.0
205.806,-3.513,4.616,12.0
81.269,-1.369,4.055,17.0
95.486,-1.59,4.208,15.0
112.755,-1.856,4.313,8.0
0.0,0.0,0.0,0.0
113.096,-1.819,2.999,17.0
205.704,-3.271,4.264,4.0
81.219,-1.273,3.912,20.0
111.994,-1.735,4.743,12.0
190.566,-2.916,6.96,22.0
209.513,-3.167,6.413,8.0
205.937,-3.077,5.108,13.0
194.582,-2.872,3.696,15.0
81.291,-1.182,3.775,19.0
189.817,-2.726,7.707,45.0
190.732,-2.705,6.634,9.0
206.549,-2.891,5.962,6.0
206.886,-2.86,4.768,9.0
204.287,-2.788,3.521,21.0
84.984,-1.141,3.795,12.0
106.695,-1.415,4.143,12.0
210.193,-2.749,6.937,19.0
0.0,0.0,0.0,0.0
210.439,-2.679,4.476,10.0
139.112,-1.747,2.15,4.0
112.063,-1.384,4.804,16.0
190.507,-2.319,7.054,37.0
0.0,0.0,0.0,0.0
208.931,-2.471,5.278,20.0
0.0,0.0,0.0,0.0
119.694,-1.376,1.632,6.0
189.765,-2.142,7.785,82.0
190.638,-2.12,6.708,10.0
209.957,-2.299,6.164,7.0
119.72,-1.291,2.804,115.0
119.756,-1.272,2.108,152.0
119.759,-1.252,1.41,150.0
190.524,-1.955,7.463,32.0
210.811,-2.128,7.026,7.0
119.722,-1.189,3.292,150.0
119.723,-1.171,2.584,150.0
119.746,-1.151,1.886,133.0
119.69,-1.132,1.188,22.0
190.56,-1.766,7.108,42.0
210.532,-1.917,6.623,11.0
119.727,-1.072,3.068,150.0
119.743,-1.053,2.358,90.0
119.755,-1.034,1.661,55.0
119.679,-1.016,0.963,12.0
190.572,-1.581,6.745,13.0
119.719,-0.975,3.54,21.0
119.715,-0.957,2.84,27.0
119.687,-0.938,2.129,8.0
119.675,-0.921,1.431,17.0
111.172,-0.839,0.683,4.0
215.574,-1.588,7.218,8.0
119.755,-0.865,3.311,12.0
119.798,-0.848,2.614,77.0
119.79,-0.831,1.904,29.0
119.665,-0.813,1.204,16.0
0.0,0.0,0.0,0.0
206.305,-1.337,6.513,5.0
119.769,-0.759,3.082,9.0
119.822,-0.742,2.384,12.0
119.746,-0.725,1.671,20.0
119.678,-0.707,0.971,8.0
95.202,-0.55,0.219,1.0
0.0,0.0,0.0,0.0
119.788,-0.655,2.847,37.0
193.73,-1.033,3.472,15.0
119.73,-0.621,1.434,13.0
111.014,-0.561,0.682,3.0
0.0,0.0,0.0,0.0
119.786,-0.571,3.308,31.0
119.827,-0.555,2.61,17.0
119.816,-0.539,1.91,5.0
119.675,-0.523,1.197,16.0
103.79,-0.441,0.434,2.0
0.0,0.0,0.0,0.0
119.832,-0.476,3.075,8.0
119.833,-0.461,2.374,64.0
119.695,-0.445,1.671,8.0
114.372,-0.411,0.917,9.0
0.0,0.0,0.0,0.0
0.0,0.0,0.0,0.0
119.837,-0.384,2.832,30.0
112.725,-0.347,2.005,2.0
119.73,-0.354,1.431,17.0
110.782,-0.315,0.666,7.0
0.0,0.0,0.0,0.0
0.0,0.0,0.0,0.0
119.915,-0.296,2.592,2.0
119.813,-0.282,1.889,27.0
119.776,-0.268,1.189,9.0
99.917,-0.212,0.397,1.0
0.0,0.0,0.0,0.0
45.435,-0.086,-0.349,1.0
112.443,-0.199,2.2,6.0
117.41,-0.195,1.611,12.0
111.253,-0.172,0.876,10.0
0.0,0.0,0.0,0.0
0.0,0.0,0.0,0.0
44.887,-0.055,-0.436,1.0
117.363,-0.13,2.057,28.0
117.339,-0.117,1.37,12.0
110.479,-0.099,0.645,3.0
0.0,0.0,0.0,0.0
0.0,0.0,0.0,0.0
0.0,0.0,0.0,0.0
117.33,-0.056,1.812,14.0
111.182,-0.042,1.067,7.0
95.677,-0.026,0.359,2.0
0.0,0.0,0.0,0.0
45.456,-0.003,-0.365,2.0
36.267,0.0,-0.503,0.0
111.119,0.011,1.486,17.0
110.803,0.022,0.833,10.0
0.0,0.0,0.0,0.0
0.0,0.0,0.0,0.0
42.916,0.02,-0.434,0.0
0.0,0.0,0.0,0.0
111.191,0.073,1.257,19.0
102.965,0.077,0.561,2.0
73.24,0.061,-0.027,0.0
49.785,0.046,-0.314,0.0
0.0,0.0,0.0,0.0
0.0,0.0,0.0,0.0
111.172,0.13,1.026,10.0
93.316,0.116,0.317,1.0
0.0,0.0,0.0,0.0
45.374,0.064,-0.381,1.0
0.0,0.0,0.0,0.0
0.0,0.0,0.0,0.0
110.6,0.182,0.79,4.0
0.0,0.0,0.0,0.0
53.012,0.095,-0.24,0.0
42.757,0.08,-0.448,1.0
33.934,0.066,-0.553,0.0
27.862,0.056,-0.618,0.0
94.426,0.197,0.478,2.0
0.0,0.0,0.0,0.0
49.866,0.111,-0.331,0.0
0.0,0.0,0.0,0.0
30.79,0.073,-0.567,0.0
26.497,0.064,-0.643,0.0
0.0,0.0,0.0,0.0
0.0,0.0,0.0,0.0
42.831,0.112,-0.374,0.0
0.0,0.0,0.0,0.0
0.0,0.0,0.0,0.0
25.117,0.071,-0.663,0.0
54.153,0.155,0.045,1.0
53.603,0.156,-0.267,0.0
42.784,0.128,-0.464,0.0
0.0,0.0,0.0,0.0
27.586,0.085,-0.624,0.0
23.914,0.075,-0.681,0.0
0.0,0.0,0.0,0.0
49.822,0.162,-0.354,0.0
37.915,0.125,-0.491,0.0
30.606,0.103,-0.579,0.0
26.217,0.089,-0.649,0.0
22.602,0.078,-0.692,0.0
0.0,0.0,0.0,0.0
42.835,0.151,-0.395,1.0
0.0,0.0,0.0,0.0
28.971,0.105,-0.609,0.0
0.0,0.0,0.0,0.0
21.752,0.081,-0.712,0.0
49.928,0.187,-0.274,0.0
0.0,0.0,0.0,0.0
32.199,0.123,-0.553,0.0
27.602,0.107,-0.638,0.0
23.6,0.092,-0.684,0.0
20.723,0.082,-0.722,0.0
46.086,0.182,-0.35,0.0
0.0,0.0,0.0,0.0
31.297,0.126,-0.603,0.0
25.909,0.105,-0.654,0.0
22.488,0.092,-0.699,0.0
20.023,0.083,-0.74,0.0
42.788,0.177,-0.415,1.0
34.068,0.142,-0.53,0.0
28.883,0.121,-0.618,0.0
24.355,0.103,-0.666,0.0
21.346,0.091,-0.709,0.0
19.195,0.082,-0.75,0.0
0.0,0.0,0.0,0.0
31.95,0.137,-0.564,0.0
26.948,0.117,-0.634,0.0
23.379,0.102,-0.688,0.0
20.286,0.089,-0.717,0.0
18.47,0.081,-0.761,0.0
36.075,0.158,-0.503,0.0
29.981,0.132,-0.593,0.0
25.709,0.114,-0.658,0.0
22.152,0.098,-0.699,0.0
19.59,0.087,-0.733,0.0
17.793,0.08,-0.77,0.0
0.0,0.0,0.0,0.0
28.303,0.126,-0.619,0.0
24.096,0.108,-0.668,0.0
21.264,0.096,-0.716,0.0
19.097,0.086,-0.755,0.0
17.122,0.078,-0.777,0.0
31.201,0.14,-0.566,0.0
26.397,0.118,-0.633,0.0
23.426,0.105,-0.698,0.0
20.219,0.091,-0.723,0.0
18.243,0.082,-0.76,0.0
16.634,0.075,-0.79,0.0
29.374,0.131,-0.594,0.0
0.0,0.0,0.0,0.0
22.034,0.099,-0.703,0.0
19.398,0.087,-0.734,0.0
17.685,0.079,-0.773,0.0
16.068,0.072,-0.796,0.0
0.0,0.0,0.0,0.0
23.945,0.106,-0.674,0.0
20.514,0.091,-0.697,0.0
18.869,0.083,-0.754,0.0
17.03,0.075,-0.78,0.0
15.534,0.069,-0.803,0.0
26.085,0.113,-0.636,0.0
22.472,0.097,-0.68,0.0
20.196,0.087,-0.729,2.0
18.103,0.078,-0.761,0.0
16.59,0.072,-0.795,0.0
15.153,0.065,-0.814,0.0
24.802,0.104,-0.656,0.0
21.823,0.092,-0.705,0.0
19.383,0.081,-0.74,0.0
17.539,0.073,-0.774,0.0
15.939,0.066,-0.797,0.0
14.623,0.061,-0.817,0.0
23.695,0.096,-0.676,0.0
20.71,0.084,-0.712,0.0
18.636,0.075,-0.75,0.0
16.837,0.067,-0.778,0.0
15.48,0.062,-0.806,0.0
14.3,0.057,-0.828,0.0
22.516,0.087,-0.689,0.0
19.95,0.076,-0.727,0.0
18.071,0.069,-0.764,0.0
16.385,0.062,-0.79,0.0
15.055,0.057,-0.814,0.0
13.838,0.052,-0.83,0.0
21.59,0.078,-0.704,0.0
19.27,0.069,-0.741,0.0
17.519,0.063,-0.776,0.0
15.857,0.056,-0.797,0.0
14.614,0.051,-0.82,0.0
13.549,0.047,-0.84,0.0
20.684,0.069,-0.716,0.0
18.529,0.062,-0.75,0.0
16.837,0.055,-0.78,0.0
15.381,0.05,-0.804,0.0
14.207,0.046,-0.826,0.0
13.096,0.042,-0.838,0.0
19.836,0.06,-0.727,0.0
17.92,0.054,-0.761,0.0
16.345,0.049,-0.79,0.0
14.931,0.044,-0.81,0.0
13.818,0.04,-0.831,0.0
12.863,0.037,-0.849,0.0
19.182,0.052,-0.741,0.0
17.317,0.046,-0.77,0.0
15.739,0.041,-0.792,0.0
14.524,0.037,-0.817,0.0
13.497,0.034,-0.838,0.0
12.503,0.031,-0.85,0.0
18.514,0.043,-0.751,0.0
16.83,0.039,-0.781,0.0
15.372,0.034,-0.803,0.0
14.218,0.031,-0.828,0.0
13.218,0.028,-0.847,0.0
12.113,0.025,-0.847,0.0
17.889,0.034,-0.761,0.0
16.302,0.031,-0.788,0.0
14.996,0.027,-0.813,0.0
13.771,0.024,-0.828,0.0
12.839,0.022,-0.848,0.0
11.775,0.02,-0.846,0.0
