X,Y,Z,Reflectivity
90.937,6.922,3.675,13.0
101.871,7.778,3.541,20.0
99.753,7.641,2.914,3.0
99.626,7.656,2.358,11.0
45.98,3.559,2.371,6.0
71.834,5.577,3.304,28.0
72.29,5.63,2.923,14.0
100.785,7.874,3.505,16.0
98.794,7.743,2.887,8.0
98.589,7.752,2.334,10.0
45.866,3.632,2.365,15.0
45.879,3.643,2.11,23.0
45.876,3.654,1.854,32.0
45.863,3.663,1.594,35.0
45.852,3.674,1.338,39.0
45.848,3.684,1.083,39.0
45.816,3.707,2.36,44.0
45.819,3.718,2.105,43.0
45.803,3.727,1.849,42.0
45.809,3.738,1.589,44.0
45.798,3.748,1.334,43.0
45.791,3.758,1.079,41.0
45.81,3.785,2.356,40.0
45.804,3.795,2.1,39.0
45.811,3.805,1.845,39.0
45.801,3.816,1.584,37.0
45.785,3.825,1.328,37.0
45.773,3.835,1.073,37.0
45.859,3.868,2.354,32.0
45.861,3.878,2.097,32.0
45.876,3.889,1.842,18.0
45.844,3.897,1.58,18.0
45.824,3.905,1.323,21.0
45.814,3.915,1.067,26.0
78.928,6.79,4.039,12.0
91.865,7.921,4.187,14.0
96.154,8.313,3.844,14.0
93.123,8.07,3.192,33.0
93.125,8.091,2.672,51.0
93.13,8.113,2.152,65.0
85.679,7.512,4.369,19.0
92.316,8.112,4.189,26.0
93.13,8.204,3.704,40.0
93.196,8.23,3.175,17.0
93.186,8.25,2.654,13.0
93.097,8.263,2.131,9.0
85.389,7.626,4.334,30.0
92.859,8.312,4.192,16.0
93.025,8.346,3.678,14.0
92.776,8.343,3.138,4.0
92.363,8.326,2.607,5.0
92.276,8.338,2.089,4.0
85.611,7.784,4.322,32.0
93.031,8.477,4.175,29.0
93.045,8.498,3.652,31.0
91.67,8.391,3.075,8.0
91.504,8.395,2.556,12.0
91.423,8.407,2.042,9.0
85.547,7.913,4.293,20.0
92.879,8.609,4.14,15.0
92.633,8.606,3.608,17.0
90.819,8.455,3.018,3.0
90.738,8.467,2.506,11.0
90.649,8.478,1.995,11.0
92.26,8.68,4.599,14.0
92.026,8.676,4.069,11.0
91.85,8.677,3.545,16.0
90.045,8.525,2.96,5.0
89.999,8.539,2.453,11.0
89.862,8.544,1.944,11.0
91.477,8.75,4.525,16.0
91.241,8.744,4.0,15.0
91.072,8.745,3.479,13.0
89.335,8.596,2.901,13.0
89.28,8.608,2.397,12.0
89.147,8.614,1.892,11.0
90.694,8.812,4.45,15.0
90.559,8.816,3.933,7.0
88.744,8.655,3.353,11.0
88.673,8.666,2.842,9.0
88.571,8.673,2.34,9.0
88.438,8.677,1.838,9.0
88.534,8.734,4.305,19.0
88.542,8.751,3.805,26.0
88.457,8.759,3.302,5.0
87.893,8.719,2.777,7.0
87.874,8.734,2.281,11.0
87.73,8.737,1.783,11.0
88.539,8.865,4.262,37.0
88.557,8.882,3.763,38.0
87.483,8.79,3.223,1.0
87.297,8.787,2.714,4.0
87.236,8.797,2.22,10.0
87.101,8.8,1.726,10.0
88.536,8.991,4.217,21.0
88.458,8.998,3.713,18.0
86.843,8.849,3.154,2.0
86.705,8.85,2.651,11.0
86.584,8.853,2.157,10.0
86.41,8.852,1.665,10.0
87.913,9.052,4.14,20.0
87.834,9.059,3.639,17.0
86.161,8.901,3.082,4.0
86.036,8.902,2.582,11.0
85.93,8.906,2.094,11.0
85.831,8.911,1.606,10.0
87.328,9.112,4.061,16.0
87.233,9.115,3.563,18.0
85.556,8.953,3.01,12.0
85.467,8.958,2.515,11.0
85.307,8.956,2.028,11.0
84.229,8.857,1.526,20.0
84.154,8.893,3.863,13.0
84.175,8.907,3.388,37.0
84.154,8.919,2.91,51.0
84.146,8.931,2.423,62.0
84.166,8.947,1.948,65.0
84.172,8.962,1.472,51.0
84.138,9.001,3.809,50.0
84.163,9.016,3.333,50.0
84.2,9.032,2.857,29.0
84.273,9.054,2.373,20.0
84.222,9.062,1.894,15.0
84.148,9.067,1.416,9.0
84.13,9.108,3.753,16.0
84.107,9.117,3.274,6.0
83.998,9.117,2.793,4.0
83.835,9.112,2.304,6.0
83.73,9.114,1.825,9.0
83.622,9.115,1.35,9.0
84.061,9.204,3.691,18.0
83.623,9.168,3.197,2.0
83.39,9.153,2.714,4.0
83.302,9.156,2.231,12.0
83.215,9.159,1.755,11.0
83.106,9.159,1.282,11.0
84.059,9.304,3.631,23.0
82.931,9.19,3.11,4.0
82.885,9.196,2.638,11.0
82.816,9.2,2.157,12.0
82.717,9.202,1.684,10.0
82.616,9.202,1.213,11.0
84.062,9.403,3.568,8.0
82.436,9.231,3.03,6.0
82.436,9.242,2.561,13.0
82.381,9.247,2.083,11.0
82.231,9.242,1.611,12.0
82.142,9.244,1.143,12.0
82.173,9.285,3.424,2.0
81.996,9.274,2.949,5.0
81.959,9.281,2.481,11.0
81.902,9.285,2.005,11.0
81.803,9.284,1.538,12.0
81.705,9.284,1.073,12.0
81.664,9.316,3.337,4.0
81.543,9.311,2.868,9.0
81.55,9.322,2.404,11.0
81.438,9.319,1.928,11.0
81.37,9.322,1.464,10.0
81.292,9.324,1.0,10.0
81.204,9.349,3.252,9.0
81.187,9.356,2.787,11.0
67.815,7.823,1.942,7.0
67.684,7.815,1.547,10.0
67.563,7.81,1.158,15.0
66.416,7.686,0.761,21.0
0.0,0.0,0.0,0.0
66.368,7.715,2.222,27.0
66.344,7.72,1.843,37.0
66.321,7.725,1.458,42.0
66.315,7.732,1.08,84.0
66.318,7.741,0.702,78.0
66.299,7.765,2.54,64.0
66.302,7.772,2.162,70.0
66.303,7.779,1.784,69.0
66.299,7.786,1.399,75.0
66.34,7.798,1.021,61.0
66.341,7.807,0.643,31.0
66.298,7.827,2.48,54.0
66.329,7.837,2.103,40.0
66.365,7.848,1.725,25.0
66.464,7.867,1.341,19.0
66.492,7.877,0.963,15.0
66.424,7.877,0.583,13.0
66.457,7.906,2.425,16.0
66.415,7.906,2.044,17.0
66.332,7.903,1.663,14.0
66.27,7.902,1.276,17.0
66.18,7.898,0.897,14.0
66.106,7.897,0.518,16.0
66.157,7.927,2.351,16.0
66.078,7.923,1.972,16.0
66.012,7.921,1.592,17.0
65.946,7.919,1.207,13.0
65.878,7.917,0.831,13.0
65.802,7.915,0.453,16.0
65.847,7.943,2.278,13.0
65.77,7.939,1.899,13.0
65.703,7.936,1.522,16.0
65.63,7.933,1.138,16.0
65.551,7.929,0.763,14.0
65.503,7.93,0.388,19.0
65.542,7.957,2.203,16.0
65.481,7.954,1.827,17.0
65.399,7.949,1.451,14.0
65.324,7.945,1.069,15.0
65.265,7.944,0.695,16.0
65.205,7.943,0.321,19.0
65.266,7.97,2.129,16.0
65.214,7.969,1.754,17.0
65.124,7.962,1.379,15.0
65.073,7.961,0.999,15.0
64.989,7.956,0.626,17.0
64.946,7.957,0.255,17.0
64.99,7.981,2.054,16.0
64.953,7.981,1.681,16.0
64.884,7.977,1.308,16.0
64.815,7.973,0.929,15.0
64.741,7.969,0.557,17.0
64.681,7.968,0.186,12.0
64.754,7.994,1.979,15.0
64.696,7.991,1.607,18.0
64.63,7.987,1.235,17.0
64.583,7.985,0.858,20.0
64.532,7.984,0.488,19.0
64.449,7.979,0.119,13.0
64.522,8.004,1.903,16.0
64.485,8.003,1.534,19.0
64.398,7.996,1.164,17.0
64.363,7.996,0.787,20.0
64.314,7.994,0.418,19.0
64.263,7.992,0.051,9.0
64.342,8.018,1.831,15.0
64.273,8.012,1.461,17.0
64.201,8.006,1.092,16.0
64.165,8.005,0.717,16.0
64.124,8.004,0.35,19.0
64.035,7.997,-0.016,7.0
64.135,8.024,1.757,14.0
64.096,8.022,1.388,17.0
64.02,8.015,1.02,17.0
63.993,8.015,0.646,16.0
63.93,8.011,0.279,21.0
63.672,7.983,-0.085,5.0
63.956,8.032,1.682,14.0
63.94,8.032,1.315,16.0
63.862,8.024,0.948,14.0
63.822,8.022,0.575,20.0
63.777,8.02,0.21,17.0
45.726,5.753,-0.111,6.0
63.808,8.039,1.608,14.0
63.779,8.038,1.243,15.0
63.72,8.033,0.875,17.0
63.69,8.031,0.504,18.0
63.646,8.029,0.139,16.0
45.601,5.755,-0.161,17.0
63.691,8.048,1.535,18.0
63.646,8.044,1.169,17.0
63.602,8.04,0.804,17.0
63.553,8.037,0.432,18.0
63.499,8.032,0.068,16.0
45.486,5.756,-0.21,7.0
63.552,8.051,1.461,16.0
63.529,8.049,1.097,15.0
63.483,8.045,0.732,16.0
63.419,8.039,0.361,19.0
63.358,8.034,-0.001,15.0
41.906,5.315,-0.24,18.0
63.466,8.058,1.389,16.0
63.409,8.051,1.024,17.0
63.373,8.048,0.66,17.0
63.341,8.046,0.29,19.0
60.5,7.687,-0.068,11.0
40.837,5.19,-0.28,16.0
63.37,8.06,1.316,15.0
63.338,8.057,0.952,17.0
63.288,8.051,0.588,19.0
63.261,8.049,0.219,21.0
60.358,7.681,-0.137,16.0
39.986,5.09,-0.319,16.0
63.311,8.064,1.243,16.0
63.26,8.058,0.88,17.0
63.237,8.056,0.517,18.0
63.194,8.051,0.148,17.0
0.0,0.0,0.0,0.0
39.292,5.008,-0.358,23.0
63.247,8.065,1.17,15.0
63.223,8.062,0.807,15.0
63.181,8.057,0.444,18.0
63.131,8.051,0.076,19.0
0.0,0.0,0.0,0.0
38.858,4.957,-0.398,14.0
63.207,8.066,1.098,16.0
63.169,8.06,0.736,16.0
63.141,8.057,0.372,21.0
63.08,8.049,0.005,7.0
41.652,5.315,-0.235,17.0
38.517,4.916,-0.438,11.0
63.202,8.068,1.027,16.0
63.173,8.063,0.663,17.0
63.126,8.057,0.301,21.0
60.816,7.762,-0.064,10.0
40.77,5.204,-0.276,19.0
38.392,4.901,-0.48,8.0
63.185,8.065,0.954,15.0
63.156,8.061,0.591,17.0
63.143,8.058,0.229,22.0
60.567,7.729,-0.133,21.0
39.995,5.104,-0.317,16.0
38.419,4.903,-0.525,4.0
63.199,8.064,0.882,15.0
63.192,8.062,0.52,19.0
63.157,8.056,0.157,21.0
45.557,5.811,-0.152,17.0
39.283,5.01,-0.356,22.0
30.058,3.834,-0.445,11.0
63.219,8.061,0.811,16.0
63.203,8.057,0.448,20.0
63.187,8.053,0.086,17.0
0.0,0.0,0.0,0.0
38.856,4.951,-0.396,14.0
29.622,3.774,-0.472,8.0
63.268,8.058,0.739,15.0
63.259,8.054,0.376,19.0
63.228,8.049,0.013,8.0
41.733,5.312,-0.234,17.0
38.514,4.901,-0.436,10.0
29.139,3.708,-0.497,3.0
63.342,8.055,0.668,18.0
63.345,8.053,0.305,21.0
60.513,7.691,-0.054,8.0
40.772,5.181,-0.274,16.0
38.401,4.879,-0.479,8.0
29.123,3.7,-0.53,3.0
63.421,8.05,0.598,15.0
63.432,8.049,0.235,18.0
60.0,7.611,-0.121,10.0
39.885,5.058,-0.313,16.0
38.424,4.872,-0.522,3.0
29.187,3.7,-0.563,5.0
63.521,8.045,0.528,17.0
63.513,8.041,0.164,17.0
45.624,5.774,-0.143,14.0
39.253,4.966,-0.352,18.0
30.248,3.826,-0.445,8.0
29.18,3.69,-0.596,5.0
63.659,8.041,0.457,16.0
63.656,8.038,0.093,14.0
45.508,5.744,-0.193,12.0
38.895,4.908,-0.392,14.0
29.643,3.739,-0.469,4.0
29.109,3.671,-0.627,3.0
63.771,8.032,0.388,19.0
63.75,8.025,0.022,10.0
41.999,5.285,-0.225,17.0
38.574,4.852,-0.431,14.0
29.363,3.692,-0.496,3.0
27.39,3.443,-0.62,0.0
63.925,8.024,0.319,20.0
63.909,8.018,-0.047,5.0
40.923,5.132,-0.264,17.0
38.438,4.818,-0.472,10.0
29.406,3.685,-0.53,3.0
26.83,3.361,-0.637,1.0
64.091,8.016,0.25,18.0
64.038,8.004,-0.116,3.0
40.149,5.016,-0.302,21.0
38.461,4.803,-0.514,6.0
29.334,3.661,-0.56,11.0
26.155,3.263,-0.649,0.0
64.269,8.005,0.182,15.0
45.648,5.682,-0.132,11.0
39.418,4.904,-0.339,34.0
38.481,4.785,-0.555,2.0
29.295,3.641,-0.59,13.0
25.456,3.162,-0.659,1.0
64.45,7.992,0.113,13.0
0.0,0.0,0.0,0.0
38.982,4.828,-0.377,18.0
29.763,3.684,-0.461,3.0
29.299,3.625,-0.621,3.0
24.925,3.082,-0.671,0.0
64.646,7.977,0.045,12.0
42.011,5.18,-0.21,17.0
38.69,4.768,-0.414,13.0
29.788,3.668,-0.492,2.0
27.678,3.407,-0.616,0.0
24.296,2.989,-0.68,0.0
64.894,7.966,-0.02,8.0
40.943,5.022,-0.247,16.0
38.514,4.721,-0.453,8.0
29.903,3.663,-0.525,2.0
27.145,3.323,-0.632,0.0
23.661,2.895,-0.686,0.0
65.154,7.953,-0.088,4.0
40.193,4.902,-0.284,16.0
38.518,4.694,-0.492,9.0
29.946,3.647,-0.556,8.0
26.448,3.219,-0.642,0.0
23.089,2.809,-0.693,0.0
45.719,5.547,-0.107,3.0
39.628,4.804,-0.319,26.0
38.532,4.668,-0.53,8.0
29.93,3.623,-0.586,16.0
25.943,3.138,-0.656,0.0
22.765,2.752,-0.706,0.0
45.439,5.478,-0.151,13.0
39.19,4.721,-0.354,21.0
38.526,4.637,-0.568,3.0
29.938,3.6,-0.615,6.0
25.281,3.038,-0.664,0.0
22.221,2.669,-0.71,0.0
45.444,5.442,-0.195,4.0
39.007,4.667,-0.39,14.0
38.772,4.635,-0.609,0.0
28.196,3.368,-0.606,0.0
24.79,2.958,-0.675,0.0
21.652,2.582,-0.713,0.0
41.183,4.897,-0.216,16.0
38.658,4.592,-0.423,9.0
32.827,3.896,-0.546,0.0
27.48,3.258,-0.617,0.0
24.117,2.857,-0.679,0.0
21.3,2.521,-0.721,0.0
40.676,4.8,-0.251,17.0
38.618,4.552,-0.459,9.0
31.541,3.714,-0.554,0.0
26.967,3.173,-0.63,0.0
23.594,2.773,-0.686,0.0
20.935,2.459,-0.728,0.0
40.061,4.69,-0.284,48.0
38.637,4.518,-0.494,12.0
30.566,3.571,-0.565,0.0
26.416,3.083,-0.641,0.0
23.129,2.697,-0.693,0.0
20.558,2.395,-0.733,0.0
39.674,4.606,-0.316,30.0
38.66,4.483,-0.528,8.0
30.361,3.517,-0.588,1.0
25.945,3.002,-0.653,0.0
22.754,2.63,-0.702,0.0
20.065,2.317,-0.733,0.0
39.365,4.53,-0.348,15.0
38.688,4.446,-0.562,2.0
29.355,3.37,-0.594,0.0
25.409,2.914,-0.661,0.0
22.322,2.557,-0.708,0.0
19.847,2.271,-0.742,0.0
39.14,4.463,-0.379,15.0
0.0,0.0,0.0,0.0
28.721,3.267,-0.605,0.0
24.884,2.827,-0.668,0.0
21.94,2.49,-0.714,0.0
19.523,2.213,-0.746,0.0
38.838,4.386,-0.408,8.0
32.45,3.659,-0.525,0.0
28.187,3.175,-0.616,1.0
24.427,2.748,-0.675,0.0
21.557,2.422,-0.719,0.0
19.175,2.152,-0.748,0.0
38.806,4.338,-0.439,11.0
31.769,3.547,-0.54,0.0
27.445,3.06,-0.622,0.0
23.965,2.669,-0.682,0.0
21.081,2.345,-0.719,0.0
18.973,2.108,-0.755,0.0
38.84,4.296,-0.469,8.0
31.428,3.472,-0.558,1.0
26.984,2.977,-0.632,0.0
23.57,2.597,-0.688,0.0
20.776,2.286,-0.725,0.0
18.664,2.051,-0.757,0.0
38.85,4.251,-0.498,9.0
31.18,3.407,-0.576,1.0
26.411,2.882,-0.638,0.0
23.09,2.516,-0.691,0.0
20.484,2.228,-0.729,0.0
18.429,2.002,-0.761,0.0
38.873,4.205,-0.527,4.0
30.281,3.271,-0.581,1.0
26.066,2.811,-0.648,0.0
22.764,2.451,-0.697,0.0
20.135,2.165,-0.731,0.0
18.201,1.954,-0.764,0.0
38.932,4.162,-0.554,1.0
29.823,3.183,-0.593,1.0
25.629,2.731,-0.655,0.0
22.472,2.391,-0.704,0.0
19.916,2.116,-0.736,0.0
17.951,1.904,-0.766,0.0
0.0,0.0,0.0,0.0
29.179,3.076,-0.599,0.0
25.296,2.662,-0.663,0.0
22.054,2.317,-0.705,0.0
19.779,2.075,-0.744,0.0
17.813,1.866,-0.771,0.0
33.233,3.465,-0.515,0.0
28.603,2.977,-0.605,0.0
24.966,2.594,-0.669,0.0
21.727,2.254,-0.707,0.0
19.502,2.02,-0.745,0.0
17.67,1.827,-0.775,0.0
33.334,3.43,-0.537,1.0
28.269,2.903,-0.615,0.0
24.54,2.516,-0.672,0.0
21.538,2.204,-0.714,0.0
19.282,1.97,-0.748,0.0
17.503,1.785,-0.778,0.0
33.412,3.391,-0.557,1.0
27.632,2.799,-0.617,0.0
24.046,2.431,-0.672,0.0
21.297,2.149,-0.718,0.0
18.975,1.912,-0.747,0.0
17.36,1.746,-0.781,0.0
31.504,3.152,-0.542,0.0
27.266,2.723,-0.623,0.0
23.749,2.367,-0.676,0.0
21.116,2.101,-0.723,0.0
18.938,1.88,-0.755,0.0
17.17,1.702,-0.781,0.0
31.406,3.096,-0.557,0.0
26.975,2.654,-0.63,0.0
23.639,2.321,-0.685,0.0
20.829,2.041,-0.723,0.0
18.826,1.841,-0.76,0.0
16.99,1.659,-0.781,0.0
31.023,3.012,-0.564,1.0
26.831,2.6,-0.639,0.0
23.305,2.253,-0.686,0.0
20.585,1.986,-0.724,0.0
18.591,1.79,-0.759,0.0
16.92,1.626,-0.786,0.0
30.912,2.954,-0.576,0.0
26.58,2.535,-0.645,0.0
23.088,2.197,-0.689,0.0
20.522,1.949,-0.73,0.0
18.427,1.746,-0.76,0.0
16.857,1.594,-0.79,0.0
30.498,2.868,-0.58,0.0
26.15,2.454,-0.644,0.0
22.897,2.143,-0.693,0.0
20.284,1.894,-0.73,0.0
18.323,1.708,-0.762,0.0
16.778,1.56,-0.792,0.0
30.195,2.792,-0.586,0.0
25.903,2.389,-0.648,0.0
22.686,2.088,-0.695,0.0
20.185,1.853,-0.733,0.0
18.149,1.663,-0.761,0.0
16.635,1.521,-0.791,0.0
29.452,2.676,-0.581,0.0
25.651,2.325,-0.65,0.0
22.61,2.044,-0.699,0.0
20.005,1.805,-0.733,0.0
18.133,1.632,-0.766,0.0
16.564,1.487,-0.793,0.0
29.514,2.634,-0.591,0.0
25.517,2.271,-0.654,0.0
22.467,1.995,-0.701,0.0
20.013,1.773,-0.739,0.0
17.885,1.58,-0.761,0.0
16.458,1.451,-0.792,0.0
29.113,2.55,-0.591,0.0
25.42,2.22,-0.658,0.0
22.251,1.938,-0.7,1.0
19.9,1.729,-0.74,0.0
17.97,1.557,-0.769,0.0
16.404,1.418,-0.793,0.0
28.983,2.489,-0.595,0.0
25.309,2.168,-0.661,0.0
22.27,1.902,-0.706,0.0
19.725,1.68,-0.737,0.0
17.916,1.522,-0.77,0.0
16.243,1.377,-0.789,0.0
28.933,2.436,-0.599,0.0
24.867,2.088,-0.654,0.0
22.209,1.86,-0.708,0.0
19.806,1.654,-0.744,0.0
17.824,1.484,-0.769,0.0
16.349,1.358,-0.797,0.0
28.801,2.376,-0.601,0.0
25.09,2.064,-0.663,0.0
22.04,1.807,-0.706,0.0
19.699,1.611,-0.742,0.0
17.868,1.457,-0.773,0.0
16.244,1.321,-0.793,0.0
28.671,2.315,-0.602,0.0
24.924,2.007,-0.662,0.0
22.101,1.774,-0.71,0.0
19.625,1.571,-0.742,0.0
17.787,1.419,-0.771,0.0
16.308,1.298,-0.798,0.0
28.876,2.282,-0.608,0.0
24.989,1.969,-0.665,0.0
22.0,1.728,-0.708,0.0
19.391,1.518,-0.734,0.0
17.838,1.392,-0.774,0.0
16.303,1.268,-0.798,0.0
28.689,2.216,-0.605,0.0
25.202,1.94,-0.672,0.0
21.998,1.688,-0.708,0.0
19.639,1.502,-0.743,0.0
17.806,1.358,-0.773,0.0
16.301,1.239,-0.798,0.0
28.88,2.18,-0.609,0.0
25.108,1.889,-0.669,0.0
21.998,1.649,-0.708,0.0
19.673,1.47,-0.744,0.0
17.803,1.326,-0.772,0.0
16.269,1.208,-0.796,0.0
28.57,2.106,-0.602,0.0
25.098,1.843,-0.667,0.0
22.081,1.616,-0.71,0.0
19.509,1.423,-0.737,0.0
17.863,1.298,-0.774,0.0
16.3,1.181,-0.797,0.0
28.811,2.072,-0.605,0.0
25.116,1.799,-0.666,0.0
22.236,1.587,-0.713,0.0
19.727,1.403,-0.743,0.0
17.869,1.266,-0.772,0.0
16.367,1.156,-0.798,0.0
28.894,2.025,-0.603,0.0
25.127,1.754,-0.663,0.0
22.207,1.545,-0.709,0.0
19.737,1.368,-0.741,0.0
17.918,1.237,-0.772,0.0
16.443,1.131,-0.799,0.0
28.984,1.978,-0.6,0.0
25.23,1.715,-0.662,0.0
22.332,1.512,-0.709,0.0
19.82,1.337,-0.741,0.0
17.909,1.203,-0.768,0.0
16.429,1.1,-0.795,0.0
29.239,1.942,-0.6,0.0
25.285,1.672,-0.658,0.0
22.414,1.476,-0.707,0.0
19.81,1.3,-0.736,0.0
17.967,1.174,-0.766,0.0
16.492,1.073,-0.794,0.0
29.375,1.896,-0.596,0.0
25.441,1.636,-0.656,0.0
22.547,1.443,-0.705,0.0
19.778,1.26,-0.729,0.0
18.034,1.145,-0.765,0.0
16.538,1.045,-0.792,0.0
0.0,0.0,0.0,0.0
25.612,1.599,-0.653,0.0
22.614,1.405,-0.701,0.0
19.994,1.237,-0.732,0.0
18.211,1.122,-0.767,0.0
16.636,1.02,-0.792,0.0
29.768,1.811,-0.586,0.0
25.87,1.566,-0.651,0.0
22.821,1.376,-0.7,0.0
20.129,1.208,-0.73,0.0
18.336,1.095,-0.765,0.0
16.751,0.996,-0.791,0.0
30.292,1.786,-0.586,0.0
26.089,1.531,-0.648,0.0
22.887,1.337,-0.693,0.0
20.46,1.189,-0.734,0.0
18.181,1.052,-0.752,0.0
16.861,0.971,-0.79,0.0
30.978,1.768,-0.587,0.0
26.381,1.498,-0.644,0.0
23.089,1.305,-0.69,0.0
20.563,1.156,-0.729,0.0
18.517,1.036,-0.758,0.0
16.815,0.936,-0.78,0.0
31.091,1.716,-0.576,0.0
26.741,1.468,-0.641,0.0
23.439,1.28,-0.69,0.0
20.689,1.124,-0.724,11.0
18.772,1.015,-0.76,0.0
16.985,0.914,-0.78,0.0
31.611,1.685,-0.57,0.0
27.012,1.432,-0.635,0.0
23.621,1.246,-0.684,0.0
20.914,1.097,-0.722,0.0
18.934,0.988,-0.757,0.0
17.215,0.893,-0.782,0.0
31.886,1.64,-0.559,0.0
27.473,1.405,-0.631,0.0
23.893,1.215,-0.679,0.0
21.257,1.075,-0.722,0.0
19.183,0.964,-0.756,0.0
17.418,0.871,-0.782,0.0
31.988,1.584,-0.543,0.0
28.001,1.379,-0.627,0.0
24.215,1.185,-0.674,0.0
21.475,1.045,-0.717,0.0
19.164,0.927,-0.744,0.0
17.484,0.841,-0.774,0.0
33.342,1.588,-0.546,0.0
0.0,0.0,0.0,0.0
25.018,1.177,-0.681,2.0
21.795,1.019,-0.714,0.0
19.643,0.913,-0.751,0.0
17.739,0.819,-0.774,0.0
33.9,1.551,-0.534,0.0
0.0,0.0,0.0,0.0
25.101,1.134,-0.667,0.0
22.215,0.997,-0.714,0.0
19.851,0.885,-0.745,0.0
17.982,0.796,-0.773,0.0
34.728,1.523,-0.524,0.0
29.299,1.276,-0.6,0.0
25.366,1.098,-0.657,0.0
22.571,0.97,-0.709,0.0
20.198,0.862,-0.744,0.0
18.139,0.769,-0.767,0.0
0.0,0.0,0.0,0.0
29.782,1.242,-0.589,0.0
25.875,1.071,-0.652,0.0
22.835,0.939,-0.701,0.0
20.439,0.834,-0.738,0.0
18.442,0.747,-0.766,0.0
0.0,0.0,0.0,0.0
30.695,1.222,-0.584,0.0
26.652,1.053,-0.651,0.0
23.359,0.916,-0.699,0.0
20.761,0.809,-0.734,0.0
18.498,0.715,-0.754,0.0
37.454,1.433,-0.481,0.0
31.696,1.203,-0.578,0.0
27.075,1.019,-0.64,0.0
23.752,0.887,-0.692,0.0
21.133,0.783,-0.729,0.0
18.953,0.697,-0.756,0.0
0.0,0.0,0.0,0.0
0.0,0.0,0.0,0.0
27.692,0.991,-0.631,0.0
24.176,0.858,-0.683,0.0
21.384,0.752,-0.72,0.0
19.357,0.675,-0.756,0.0
40.743,1.406,-0.454,0.0
33.432,1.143,-0.552,0.0
28.642,0.971,-0.627,1.0
24.686,0.83,-0.676,0.0
21.766,0.725,-0.713,0.0
19.615,0.648,-0.748,0.0
0.0,0.0,0.0,0.0
0.0,0.0,0.0,0.0
28.667,0.919,-0.601,1.0
25.221,0.801,-0.667,0.0
22.451,0.707,-0.714,0.0
20.035,0.625,-0.745,0.0
45.581,1.404,-0.424,0.0
35.897,1.095,-0.526,0.0
29.555,0.893,-0.592,0.0
25.875,0.774,-0.659,0.0
22.651,0.671,-0.699,0.0
20.354,0.597,-0.737,0.0
0.0,0.0,0.0,0.0
37.045,1.062,-0.507,0.0
30.755,0.873,-0.585,0.0
26.527,0.745,-0.65,0.0
23.276,0.647,-0.695,0.0
20.746,0.571,-0.73,0.0
0.0,0.0,0.0,0.0
38.569,1.036,-0.488,0.0
0.0,0.0,0.0,0.0
27.185,0.714,-0.638,0.0
23.863,0.62,-0.687,0.0
21.368,0.549,-0.73,0.0
0.0,0.0,0.0,0.0
40.695,1.019,-0.472,0.0
34.041,0.842,-0.576,0.0
28.287,0.692,-0.633,0.0
24.613,0.594,-0.682,0.0
21.841,0.521,-0.722,0.0
0.0,0.0,0.0,0.0
40.363,0.938,-0.424,0.0
34.894,0.8,-0.552,0.0
29.204,0.662,-0.621,0.0
25.049,0.56,-0.666,0.0
22.369,0.494,-0.714,0.0
0.0,0.0,0.0,0.0
0.0,0.0,0.0,0.0
35.455,0.75,-0.521,0.0
29.637,0.619,-0.596,0.0
26.019,0.535,-0.662,0.0
22.717,0.461,-0.699,0.0
0.0,0.0,0.0,0.0
45.863,0.902,-0.376,0.0
0.0,0.0,0.0,0.0
0.0,0.0,0.0,0.0
26.692,0.502,-0.647,0.0
23.491,0.435,-0.694,0.0
72.693,1.323,-0.122,0.0
0.0,0.0,0.0,0.0
0.0,0.0,0.0,0.0
31.67,0.549,-0.561,0.0
27.792,0.474,-0.64,0.0
24.173,0.406,-0.685,0.0
74.562,1.229,-0.035,0.0
51.251,0.83,-0.296,1.0
41.536,0.661,-0.46,0.0
33.232,0.52,-0.548,0.0
29.267,0.45,-0.638,0.0
25.093,0.378,-0.68,0.0
76.616,1.131,0.06,1.0
0.0,0.0,0.0,0.0
43.978,0.625,-0.431,1.0
35.346,0.492,-0.537,0.0
29.719,0.406,-0.609,0.0
25.908,0.346,-0.668,0.0
78.823,1.031,0.163,3.0
0.0,0.0,0.0,0.0
0.0,0.0,0.0,0.0
0.0,0.0,0.0,0.0
30.721,0.368,-0.589,0.0
26.629,0.311,-0.652,0.0
82.305,0.939,0.278,4.0
0.0,0.0,0.0,0.0
49.517,0.537,-0.355,0.0
0.0,0.0,0.0,0.0
32.569,0.336,-0.581,0.0
27.92,0.281,-0.646,0.0
91.345,0.893,0.431,6.0
0.0,0.0,0.0,0.0
52.805,0.487,-0.307,0.0
42.615,0.381,-0.477,0.0
33.736,0.292,-0.555,0.0
29.037,0.244,-0.631,0.0
97.981,0.797,0.599,9.0
85.132,0.67,0.071,1.0
0.0,0.0,0.0,0.0
42.872,0.313,-0.419,1.0
35.667,0.251,-0.537,0.0
0.0,0.0,0.0,0.0
104.886,0.683,0.79,18.0
87.271,0.544,0.199,5.0
0.0,0.0,0.0,0.0
45.754,0.261,-0.382,0.0
0.0,0.0,0.0,0.0
31.34,0.162,-0.591,0.0
111.0,0.547,0.996,17.0
91.141,0.425,0.339,1.0
0.0,0.0,0.0,0.0
49.881,0.207,-0.344,0.0
40.24,0.156,-0.488,0.0
33.888,0.122,-0.589,0.0
119.764,0.401,1.253,12.0
103.826,0.322,0.54,8.0
0.0,0.0,0.0,0.0
52.839,0.136,-0.285,0.0
40.933,0.095,-0.435,1.0
0.0,0.0,0.0,0.0
111.141,0.202,1.329,23.0
110.713,0.174,0.742,9.0
92.586,0.122,0.135,1.0
0.0,0.0,0.0,0.0
45.422,0.036,-0.414,2.0
37.238,0.02,-0.535,0.0
111.094,0.034,1.498,11.0
111.361,0.006,0.918,7.0
95.431,-0.017,0.286,1.0
0.0,0.0,0.0,0.0
48.553,-0.032,-0.367,0.0
0.0,0.0,0.0,0.0
114.739,-0.133,1.725,7.0
119.742,-0.169,1.173,12.0
0.0,0.0,0.0,0.0
0.0,0.0,0.0,0.0
0.0,0.0,0.0,0.0
41.293,-0.098,-0.464,0.0
119.84,-0.313,1.99,82.0
119.742,-0.341,1.362,11.0
111.063,-0.344,0.682,8.0
0.0,0.0,0.0,0.0
0.0,0.0,0.0,0.0
45.344,-0.172,-0.437,1.0
119.827,-0.484,2.181,42.0
119.761,-0.512,1.555,12.0
119.732,-0.541,0.929,10.0
95.118,-0.452,0.231,2.0
45.659,-0.227,-0.126,0.0
46.617,-0.243,-0.373,0.0
193.983,-1.057,3.85,22.0
119.824,-0.681,1.753,20.0
119.709,-0.707,1.125,18.0
0.0,0.0,0.0,0.0
0.0,0.0,0.0,0.0
49.205,-0.324,-0.313,0.0
194.214,-1.323,4.174,17.0
119.775,-0.843,1.948,17.0
119.729,-0.869,1.323,17.0
114.282,-0.856,0.656,7.0
0.0,0.0,0.0,0.0
50.666,-0.402,-0.236,0.0
119.732,-0.976,2.774,73.0
119.758,-1.003,2.151,101.0
119.729,-1.03,1.527,52.0
119.701,-1.056,0.89,20.0
0.0,0.0,0.0,0.0
0.0,0.0,0.0,0.0
119.732,-1.134,2.978,150.0
119.752,-1.159,2.353,151.0
119.771,-1.185,1.729,151.0
119.743,-1.21,1.094,110.0
119.837,-1.236,0.47,2.0
0.0,0.0,0.0,0.0
209.285,-2.248,5.562,10.0
210.652,-2.305,4.499,9.0
204.384,-2.28,3.302,12.0
139.299,-1.583,1.513,9.0
139.32,-1.611,0.787,3.0
0.0,0.0,0.0,0.0
209.248,-2.507,5.923,15.0
0.0,0.0,0.0,0.0
204.58,-2.533,3.661,10.0
0.0,0.0,0.0,0.0
139.178,-1.78,1.031,20.0
0.0,0.0,0.0,0.0
0.0,0.0,0.0,0.0
206.167,-2.762,5.127,10.0
0.0,0.0,0.0,0.0
139.005,-1.918,1.999,10.0
138.872,-1.942,1.275,12.0
0.0,0.0,0.0,0.0
209.564,-3.015,6.674,10.0
113.186,-1.649,3.015,16.0
205.995,-3.041,4.418,14.0
194.179,-2.903,3.136,8.0
139.289,-2.108,1.526,6.0
138.794,-2.127,0.802,11.0
112.754,-1.751,3.792,6.0
112.75,-1.772,3.206,9.0
205.764,-3.269,4.781,10.0
193.886,-3.117,3.481,21.0
0.0,0.0,0.0,0.0
139.095,-2.285,1.052,18.0
112.729,-1.875,3.994,18.0
113.271,-1.904,3.425,10.0
112.72,-1.914,2.822,19.0
193.719,-3.325,3.828,11.0
139.057,-2.411,2.026,4.0
139.076,-2.435,1.305,20.0
112.695,-1.995,4.197,15.0
112.84,-2.017,3.617,9.0
112.726,-2.033,3.027,24.0
206.032,-3.753,4.446,13.0
193.298,-3.553,3.169,18.0
0.0,0.0,0.0,0.0
96.783,-1.814,3.782,14.0
112.56,-2.128,3.814,25.0
112.935,-2.154,3.241,18.0
205.473,-3.951,4.811,21.0
193.326,-3.75,3.526,20.0
138.901,-2.716,1.814,2.0
106.66,-2.106,4.364,9.0
112.876,-2.247,4.034,20.0
112.759,-2.262,3.445,25.0
206.316,-4.17,5.211,9.0
193.694,-3.945,3.89,12.0
138.833,-2.85,2.071,4.0
106.498,-2.207,4.557,12.0
106.417,-2.22,4.0,18.0
112.792,-2.37,3.655,23.0
209.496,-4.434,5.684,15.0
0.0,0.0,0.0,0.0
193.059,-4.142,3.239,16.0
96.085,-2.08,4.29,18.0
96.666,-2.106,3.815,7.0
113.165,-2.482,3.879,21.0
112.75,-2.489,3.271,15.0
118.311,-2.628,2.819,11.0
193.865,-4.333,3.617,6.0
81.029,-1.826,3.77,32.0
96.434,-2.187,3.986,14.0
113.201,-2.583,4.093,18.0
112.59,-2.583,3.476,10.0
118.209,-2.728,3.038,3.0
0.0,0.0,0.0,0.0
80.97,-1.894,3.919,16.0
82.03,-1.929,3.545,6.0
106.175,-2.511,4.039,14.0
113.183,-2.69,3.707,10.0
118.213,-2.825,3.261,6.0
118.1,-2.838,2.649,7.0
74.144,-1.795,3.73,25.0
82.029,-1.996,3.702,11.0
96.694,-2.365,3.862,14.0
116.833,-2.871,4.05,4.0
210.494,-5.199,6.209,6.0
118.198,-2.933,2.876,16.0
74.168,-1.854,3.873,16.0
81.306,-2.042,3.824,9.0
101.887,-2.57,4.265,7.0
106.174,-2.69,3.884,10.0
120.822,-3.075,3.794,20.0
118.224,-3.021,3.101,1.0
78.846,-2.029,4.268,16.0
81.231,-2.099,3.976,12.0
96.777,-2.512,4.235,20.0
106.2,-2.767,4.087,16.0
120.613,-3.155,4.017,20.0
207.148,-5.44,5.828,9.0
65.583,-1.734,3.675,4.0
81.323,-2.158,4.136,16.0
81.43,-2.169,3.719,13.0
105.993,-2.833,4.28,14.0
117.033,-3.14,4.121,12.0
120.882,-3.255,3.632,11.0
71.488,-1.938,4.144,16.0
78.908,-2.147,4.165,10.0
81.109,-2.213,3.86,37.0
101.712,-2.785,4.304,4.0
106.15,-2.916,3.942,7.0
120.544,-3.321,3.853,25.0
56.648,-1.571,3.392,6.0
65.981,-1.835,3.608,24.0
81.545,-2.274,4.035,14.0
94.924,-2.655,4.196,15.0
106.103,-2.976,4.141,14.0
120.339,-3.385,4.074,20.0
56.781,-1.608,3.508,31.0
65.978,-1.872,3.733,17.0
85.593,-2.436,4.398,9.0
81.168,-2.316,3.743,42.0
94.668,-2.707,3.874,11.0
120.246,-3.448,4.3,12.0
56.84,-1.64,3.62,31.0
57.069,-1.651,3.339,16.0
66.062,-1.915,3.522,31.0
81.098,-2.356,3.894,31.0
81.407,-2.37,3.487,15.0
101.808,-2.971,3.835,7.0
56.818,-1.668,3.728,23.0
56.918,-1.675,3.439,30.0
65.873,-1.942,3.637,9.0
80.665,-2.382,4.029,27.0
81.197,-2.403,3.634,37.0
0.0,0.0,0.0,0.0
56.814,-1.695,3.836,15.0
56.777,-1.696,3.538,30.0
65.61,-1.964,3.749,20.0
80.288,-2.407,4.162,13.0
81.216,-2.439,3.79,37.0
94.606,-2.846,3.924,15.0
46.686,-1.412,3.241,21.0
56.731,-1.719,3.644,24.0
56.996,-1.729,3.365,28.0
79.109,-2.403,4.252,11.0
81.061,-2.466,3.936,37.0
81.268,-2.476,3.526,12.0
46.296,-1.419,3.303,21.0
56.777,-1.742,3.755,30.0
57.111,-1.754,3.48,28.0
65.81,-2.024,3.662,26.0
80.464,-2.476,4.06,36.0
81.322,-2.506,3.682,26.0
45.103,-1.398,3.304,22.0
46.197,-1.433,3.144,20.0
57.003,-1.769,3.582,18.0
65.842,-2.046,3.789,28.0
80.244,-2.496,4.202,18.0
81.222,-2.528,3.832,14.0
44.512,-1.393,3.345,25.0
45.805,-1.435,3.204,34.0
66.298,-2.078,4.293,9.0
56.909,-1.785,3.383,27.0
71.74,-2.251,3.892,16.0
80.944,-2.541,3.973,28.0
44.604,-1.408,3.438,36.0
0.0,0.0,0.0,0.0
56.731,-1.792,3.781,25.0
57.001,-1.801,3.496,28.0
66.095,-2.089,3.71,36.0
80.361,-2.541,4.093,22.0
44.277,-1.408,3.496,19.0
44.262,-1.408,3.264,35.0
45.808,-1.457,3.138,20.0
57.141,-1.817,3.611,27.0
65.892,-2.096,3.822,34.0
71.708,-2.281,3.786,21.0
43.969,-1.406,3.553,42.0
44.274,-1.416,3.347,25.0
45.928,-1.468,3.232,20.0
57.021,-1.823,3.71,15.0
56.911,-1.819,3.406,26.0
71.683,-2.291,3.917,15.0
43.757,-1.406,3.618,45.0
44.491,-1.429,3.446,36.0
44.134,-1.417,3.188,18.0
56.664,-1.819,3.791,30.0
57.045,-1.83,3.519,26.0
66.104,-2.12,3.734,38.0
43.827,-1.413,3.705,41.0
44.525,-1.435,3.53,19.0
44.178,-1.422,3.272,36.0
46.052,-1.482,3.166,20.0
57.076,-1.835,3.626,16.0
65.885,-2.118,3.843,30.0
43.747,-1.413,3.779,49.0
43.968,-1.419,3.567,45.0
44.17,-1.425,3.352,45.0
45.868,-1.478,3.237,20.0
56.842,-1.83,3.715,18.0
56.937,-1.832,3.424,22.0
43.799,-1.417,3.863,36.0
43.791,-1.415,3.633,42.0
44.593,-1.439,3.465,36.0
44.133,-1.423,3.195,22.0
56.65,-1.824,3.805,30.0
57.069,-1.835,3.535,24.0
44.122,-1.427,3.972,46.0
43.811,-1.415,3.714,42.0
44.43,-1.433,3.533,19.0
44.174,-1.423,3.276,35.0
45.94,-1.478,3.167,19.0
57.131,-1.835,3.64,16.0
44.253,-1.429,4.062,40.0
43.751,-1.411,3.787,44.0
43.902,-1.413,3.569,46.0
44.207,-1.421,3.357,38.0
0.0,0.0,0.0,0.0
56.982,-1.826,3.731,24.0
43.857,-1.412,4.104,22.0
43.828,-1.409,3.871,32.0
43.755,-1.404,3.634,38.0
44.59,-1.428,3.465,22.0
44.157,-1.412,3.2,24.0
56.667,-1.809,3.81,16.0
46.681,-1.498,4.451,15.0
44.174,-1.414,3.979,37.0
43.881,-1.402,3.721,38.0
44.073,-1.405,3.502,25.0
44.322,-1.41,3.288,32.0
45.79,-1.454,3.158,31.0
46.883,-1.497,4.552,14.0
44.143,-1.406,4.053,26.0
43.863,-1.394,3.796,43.0
43.793,-1.389,3.555,35.0
44.611,-1.411,3.387,33.0
45.883,-1.448,3.243,33.0
44.621,-1.415,4.41,20.0
43.826,-1.387,4.1,21.0
43.838,-1.384,3.87,34.0
43.7,-1.376,3.623,44.0
44.657,-1.402,3.467,36.0
0.0,0.0,0.0,0.0
44.842,-1.412,4.509,23.0
43.778,-1.375,4.17,39.0
44.104,-1.381,3.967,32.0
43.915,-1.371,3.714,40.0
44.101,-1.374,3.497,31.0
44.536,-1.383,3.298,25.0
44.83,-1.399,4.583,43.0
43.625,-1.358,4.228,20.0
44.118,-1.369,4.042,28.0
43.86,-1.357,3.782,39.0
43.746,-1.35,3.541,44.0
44.692,-1.374,3.382,26.0
44.406,-1.373,4.612,46.0
43.752,-1.348,4.312,18.0
43.611,-1.339,4.067,42.0
43.754,-1.339,3.844,42.0
43.756,-1.335,3.613,45.0
44.622,-1.357,3.449,35.0
82.216,2.481,4.252,4.0
115.981,3.48,5.326,11.0
117.761,3.516,4.726,9.0
78.857,2.341,2.699,32.0
78.864,2.328,2.243,10.0
78.872,2.317,1.788,25.0
65.449,1.914,3.267,7.0
115.812,3.368,5.108,14.0
78.823,2.279,3.02,13.0
78.821,2.266,2.555,27.0
75.537,2.159,2.012,1.0
78.864,2.24,1.644,25.0
78.952,2.233,3.798,14.0
78.825,2.216,3.335,22.0
78.796,2.202,2.877,26.0
78.818,2.189,2.413,31.0
76.779,2.119,1.907,5.0
78.834,2.162,1.502,8.0
78.795,2.15,3.649,29.0
78.796,2.136,3.193,30.0
78.792,2.122,2.737,30.0
78.857,2.11,2.274,31.0
78.899,2.097,1.819,20.0
74.707,1.972,1.29,3.0
78.815,2.068,3.509,32.0
78.826,2.054,3.053,31.0
78.904,2.042,2.598,24.0
78.976,2.029,2.136,10.0
79.01,2.015,1.68,7.0
120.018,3.04,1.859,11.0
78.907,1.986,3.373,8.0
78.844,1.969,2.913,21.0
85.334,2.116,2.66,23.0
85.298,2.099,2.157,30.0
85.297,2.082,1.663,27.0
85.265,2.066,1.17,32.0
85.334,2.053,3.497,24.0
78.869,1.881,2.775,11.0
85.252,2.017,2.507,31.0
85.234,2.001,2.006,36.0
85.231,1.984,1.513,35.0
85.239,1.968,1.02,31.0
78.883,1.807,3.095,20.0
85.24,1.936,2.852,34.0
85.243,1.919,2.358,36.0
85.243,1.902,1.857,40.0
85.262,1.886,1.366,37.0
85.247,1.868,0.874,30.0
85.285,1.853,3.199,25.0
85.291,1.836,2.706,33.0
85.28,1.818,2.213,29.0
85.295,1.802,1.713,34.0
85.324,1.785,1.22,30.0
85.297,1.766,0.727,23.0
85.414,1.751,3.056,14.0
91.859,1.865,2.757,28.0
87.017,1.748,2.108,24.0
91.931,1.828,1.688,10.0
119.827,2.358,1.509,8.0
85.401,1.663,0.583,18.0
91.829,1.769,3.131,31.0
91.803,1.749,2.6,27.0
87.19,1.643,1.966,13.0
87.322,1.626,1.456,24.0
91.883,1.691,1.001,29.0
84.603,1.539,0.435,10.0
91.882,1.652,2.979,26.0
91.819,1.63,2.446,32.0
91.812,1.611,1.917,16.0
87.621,1.517,1.314,5.0
91.856,1.571,0.848,31.0
78.213,1.32,0.272,8.0
91.996,1.533,2.829,13.0
91.957,1.512,2.298,22.0
91.921,1.49,1.766,31.0
91.927,1.469,1.226,39.0
91.87,1.448,0.696,15.0
75.54,1.174,0.138,0.0
98.603,1.509,2.869,18.0
119.95,1.807,2.798,75.0
98.883,1.468,1.738,20.0
98.66,1.442,1.155,18.0
92.139,1.326,0.549,9.0
0.0,0.0,0.0,0.0
98.513,1.372,2.708,28.0
98.571,1.351,2.142,30.0
98.519,1.326,1.573,26.0
98.543,1.303,0.995,27.0
85.195,1.106,0.369,11.0
0.0,0.0,0.0,0.0
98.538,1.233,2.55,32.0
98.538,1.209,1.982,31.0
98.529,1.185,1.415,29.0
98.409,1.161,0.838,14.0
80.686,0.932,0.222,7.0
0.0,0.0,0.0,0.0
0.0,0.0,0.0,0.0
0.0,0.0,0.0,0.0
46.549,-0.749,-0.4,0.0
0.0,0.0,0.0,0.0
29.744,-0.497,-0.597,0.0
25.43,-0.433,-0.655,0.0
0.0,0.0,0.0,0.0
0.0,0.0,0.0,0.0
44.945,-0.805,-0.434,1.0
34.241,-0.624,-0.528,0.0
28.948,-0.537,-0.611,0.0
24.934,-0.47,-0.668,0.0
0.0,0.0,0.0,0.0
0.0,0.0,0.0,0.0
40.402,-0.797,-0.431,0.0
33.705,-0.676,-0.554,0.0
28.256,-0.575,-0.625,0.0
24.285,-0.502,-0.675,0.0
0.0,0.0,0.0,0.0
0.0,0.0,0.0,0.0
0.0,0.0,0.0,0.0
31.995,-0.702,-0.558,0.0
27.383,-0.61,-0.633,0.0
18.154,-0.41,-0.523,52.0
0.0,0.0,0.0,0.0
0.0,0.0,0.0,0.0
37.626,-0.884,-0.475,0.0
0.0,0.0,0.0,0.0
21.893,-0.528,-0.527,1.0
18.149,-0.444,-0.54,67.0
0.0,0.0,0.0,0.0
0.0,0.0,0.0,0.0
0.0,0.0,0.0,0.0
21.939,-0.564,-0.424,0.0
21.857,-0.569,-0.546,176.0
21.867,-0.577,-0.671,89.0
55.072,-1.467,-0.172,0.0
43.438,-1.171,-0.382,0.0
0.0,0.0,0.0,0.0
21.916,-0.605,-0.443,36.0
21.858,-0.611,-0.566,193.0
21.865,-0.618,-0.69,62.0
0.0,0.0,0.0,0.0
43.889,-1.267,-0.424,1.0
35.069,-1.024,-0.537,0.0
29.163,-0.861,-0.614,0.0
21.897,-0.654,-0.585,10.0
21.858,-0.66,-0.708,9.0
0.0,0.0,0.0,0.0
41.353,-1.273,-0.433,1.0
34.316,-1.068,-0.553,0.0
28.422,-0.895,-0.622,0.0
24.422,-0.777,-0.672,0.0
21.925,-0.705,-0.728,7.0
0.0,0.0,0.0,0.0
41.478,-1.358,-0.467,0.0
0.0,0.0,0.0,0.0
27.631,-0.923,-0.626,0.0
0.0,0.0,0.0,0.0
21.103,-0.72,-0.717,0.0
0.0,0.0,0.0,0.0
38.119,-1.322,-0.458,0.0
0.0,0.0,0.0,0.0
27.18,-0.961,-0.636,0.0
23.57,-0.841,-0.685,0.0
20.931,-0.754,-0.726,0.0
0.0,0.0,0.0,0.0
38.278,-1.401,-0.487,0.0
0.0,0.0,0.0,0.0
26.805,-0.999,-0.646,0.0
23.191,-0.873,-0.69,0.0
20.557,-0.781,-0.727,0.0
46.085,-1.761,-0.358,0.0
37.957,-1.463,-0.508,0.0
30.604,-1.19,-0.582,0.0
26.239,-1.03,-0.65,0.0
22.99,-0.91,-0.699,0.0
20.367,-0.813,-0.734,0.0
0.0,0.0,0.0,0.0
0.0,0.0,0.0,0.0
0.0,0.0,0.0,0.0
25.957,-1.069,-0.659,0.0
0.0,0.0,0.0,0.0
20.091,-0.842,-0.736,0.0
43.178,-1.818,-0.388,0.0
0.0,0.0,0.0,0.0
0.0,0.0,0.0,0.0
0.0,0.0,0.0,0.0
0.0,0.0,0.0,0.0
19.98,-0.876,-0.744,0.0
44.786,-1.973,-0.428,0.0
0.0,0.0,0.0,0.0
29.135,-1.303,-0.605,0.0
25.228,-1.138,-0.668,0.0
22.031,-1.001,-0.708,0.0
19.693,-0.902,-0.743,0.0
11.421,0.221,-0.852,0.0
10.776,0.208,-0.867,0.0
10.223,0.197,-0.882,0.0
9.713,0.186,-0.896,0.0
9.217,0.176,-0.904,0.0
8.753,0.167,-0.909,0.0
11.267,0.212,-0.859,1.0
10.585,0.199,-0.869,0.0
10.075,0.189,-0.885,0.0
9.575,0.179,-0.898,0.0
9.116,0.17,-0.909,0.0
8.704,0.162,-0.919,0.0
11.106,0.204,-0.865,0.0
10.442,0.191,-0.874,0.0
9.919,0.181,-0.888,0.0
9.373,0.17,-0.894,0.0
8.994,0.163,-0.911,0.0
8.573,0.155,-0.918,0.0
10.885,0.194,-0.865,0.0
10.282,0.182,-0.876,0.0
9.811,0.173,-0.893,0.0
9.342,0.165,-0.906,0.0
8.931,0.157,-0.918,0.0
8.475,0.148,-0.921,0.0
10.722,0.185,-0.868,0.0
10.23,0.176,-0.888,0.0
9.704,0.166,-0.899,0.0
9.199,0.157,-0.906,0.0
8.783,0.149,-0.917,0.0
8.386,0.142,-0.924,0.0
10.539,0.175,-0.869,0.0
10.05,0.166,-0.887,0.0
9.562,0.158,-0.9,0.0
9.057,0.149,-0.906,0.0
8.639,0.141,-0.915,0.0
8.277,0.135,-0.925,0.0
10.386,0.166,-0.872,0.0
9.886,0.157,-0.887,0.0
9.425,0.149,-0.901,0.0
0.0,0.0,0.0,0.0
8.145,0.127,-0.922,0.0
10.289,0.158,-0.879,0.0
9.802,0.15,-0.894,0.0
9.312,0.141,-0.904,0.0
8.88,0.134,-0.914,0.0
8.486,0.127,-0.923,0.0
8.066,0.12,-0.925,0.0
10.165,0.149,-0.883,0.0
9.688,0.141,-0.898,0.0
9.194,0.133,-0.905,0.0
8.768,0.126,-0.915,0.0
8.419,0.12,-0.928,0.0
7.993,0.114,-0.928,0.0
9.992,0.139,-0.882,0.0
9.56,0.132,-0.899,0.0
9.082,0.125,-0.907,0.0
0.0,0.0,0.0,0.0
8.302,0.113,-0.927,0.0
7.965,0.107,-0.936,0.0
9.888,0.13,-0.886,0.0
9.446,0.124,-0.901,0.0
8.955,0.116,-0.906,0.0
8.546,0.11,-0.916,0.0
8.251,0.106,-0.932,0.0
7.849,0.1,-0.933,0.0
9.829,0.122,-0.894,0.0
9.33,0.115,-0.902,0.0
8.895,0.109,-0.912,0.0
8.427,0.102,-0.914,0.0
0.0,0.0,0.0,0.0
7.779,0.093,-0.934,0.0
9.718,0.113,-0.896,0.0
9.222,0.106,-0.904,0.0
8.835,0.101,-0.917,0.0
0.0,0.0,0.0,0.0
0.0,0.0,0.0,0.0
7.708,0.085,-0.936,0.0
9.649,0.104,-0.902,0.0
9.132,0.098,-0.906,0.0
8.736,0.092,-0.918,0.0
8.287,0.087,-0.919,0.0
7.982,0.083,-0.932,0.0
7.633,0.078,-0.936,0.0
9.528,0.095,-0.902,0.0
9.099,0.089,-0.914,0.0
8.619,0.084,-0.916,0.0
8.298,0.08,-0.931,0.0
7.909,0.075,-0.933,0.0
7.57,0.071,-0.937,0.0
9.37,0.085,-0.898,0.0
8.924,0.08,-0.907,0.0
8.487,0.075,-0.912,0.0
8.106,0.071,-0.919,0.0
7.856,0.068,-0.936,0.0
7.498,0.063,-0.937,0.0
9.311,0.076,-0.903,0.0
8.872,0.072,-0.912,0.0
8.442,0.067,-0.916,0.0
0.0,0.0,0.0,0.0
7.8,0.06,-0.938,0.0
7.456,0.056,-0.94,0.0
9.216,0.067,-0.904,0.0
8.729,0.062,-0.907,0.0
8.368,0.059,-0.918,0.0
7.983,0.055,-0.922,0.0
7.659,0.052,-0.929,0.0
7.348,0.049,-0.935,0.0
9.152,0.058,-0.907,0.0
8.734,0.054,-0.916,0.0
8.288,0.05,-0.917,0.0
0.0,0.0,0.0,0.0
7.642,0.044,-0.935,0.0
7.363,0.042,-0.944,0.0
9.081,0.049,-0.909,0.0
8.675,0.045,-0.919,0.0
8.276,0.042,-0.924,0.0
0.0,0.0,0.0,0.0
7.582,0.036,-0.936,0.0
7.274,0.034,-0.94,0.0
9.035,0.04,-0.914,0.0
8.588,0.037,-0.918,0.0
8.246,0.034,-0.929,0.0
0.0,0.0,0.0,0.0
7.536,0.029,-0.937,0.0
7.228,0.027,-0.941,0.0
8.922,0.03,-0.911,0.0
8.489,0.028,-0.915,0.0
8.152,0.025,-0.926,0.0
0.0,0.0,0.0,0.0
7.515,0.021,-0.941,0.0
0.0,0.0,0.0,0.0
8.789,0.021,-0.905,0.0
8.467,0.019,-0.92,0.0
8.1,0.017,-0.927,0.0
0.0,0.0,0.0,0.0
7.48,0.013,-0.944,0.0
7.146,0.012,-0.943,0.0
8.736,0.012,-0.907,0.0
8.429,0.01,-0.923,0.0
8.103,0.009,-0.934,0.0
0.0,0.0,0.0,0.0
7.424,0.006,-0.943,0.0
7.172,0.004,-0.952,0.0
8.745,0.003,-0.915,0.0
8.333,0.001,-0.92,0.0
8.022,0.0,-0.932,0.0
7.68,0.0,-0.937,0.0
7.355,-0.001,-0.94,0.0
0.0,0.0,0.0,0.0
8.641,-0.005,-0.911,0.0
8.324,-0.006,-0.925,0.0
7.975,-0.007,-0.932,0.0
7.589,-0.008,-0.932,0.0
0.0,0.0,0.0,0.0
7.031,-0.01,-0.944,0.0
8.619,-0.014,-0.915,0.0
8.237,-0.015,-0.921,0.0
7.906,-0.016,-0.93,0.0
7.596,-0.016,-0.938,0.0
0.0,0.0,0.0,0.0
7.025,-0.018,-0.948,0.0
8.582,-0.024,-0.916,0.0
8.191,-0.024,-0.922,0.0
7.873,-0.024,-0.931,0.0
7.555,-0.025,-0.938,0.0
0.0,0.0,0.0,0.0
6.977,-0.025,-0.947,0.0
8.496,-0.033,-0.913,0.0
8.193,-0.033,-0.927,0.0
7.837,-0.033,-0.932,0.0
0.0,0.0,0.0,0.0
0.0,0.0,0.0,0.0
6.974,-0.033,-0.95,0.0
8.48,-0.042,-0.916,0.0
8.126,-0.042,-0.924,0.0
7.772,-0.041,-0.928,0.0
0.0,0.0,0.0,0.0
0.0,0.0,0.0,0.0
0.0,0.0,0.0,0.0
8.473,-0.051,-0.92,0.0
8.109,-0.051,-0.927,0.0
7.744,-0.05,-0.929,0.0
0.0,0.0,0.0,0.0
0.0,0.0,0.0,0.0
0.0,0.0,0.0,0.0
8.409,-0.06,-0.917,0.0
8.055,-0.059,-0.924,0.0
7.769,-0.059,-0.936,0.0
0.0,0.0,0.0,0.0
0.0,0.0,0.0,0.0
6.912,-0.056,-0.953,0.0
8.414,-0.07,-0.921,0.0
8.054,-0.068,-0.928,0.0
7.746,-0.067,-0.937,0.0
0.0,0.0,0.0,0.0
7.169,-0.065,-0.95,0.0
6.881,-0.063,-0.951,0.0
8.397,-0.079,-0.923,0.0
8.061,-0.078,-0.932,0.0
7.728,-0.076,-0.938,0.0
0.0,0.0,0.0,0.0
0.0,0.0,0.0,0.0
6.833,-0.071,-0.947,0.0
8.356,-0.088,-0.922,0.0
7.97,-0.086,-0.924,0.0
7.636,-0.084,-0.929,0.0
0.0,0.0,0.0,0.0
7.109,-0.081,-0.947,0.0
0.0,0.0,0.0,0.0
8.316,-0.097,-0.92,0.0
7.95,-0.095,-0.925,0.0
7.642,-0.092,-0.932,0.0
0.0,0.0,0.0,0.0
7.147,-0.089,-0.954,0.0
6.837,-0.087,-0.952,0.0
8.338,-0.107,-0.925,0.0
7.953,-0.104,-0.927,0.0
7.603,-0.101,-0.929,0.0
0.0,0.0,0.0,0.0
0.0,0.0,0.0,0.0
0.0,0.0,0.0,0.0
8.31,-0.117,-0.923,0.0
7.964,-0.113,-0.93,0.0
7.625,-0.11,-0.934,0.0
0.0,0.0,0.0,0.0
0.0,0.0,0.0,0.0
6.766,-0.102,-0.945,0.0
8.287,-0.126,-0.922,0.0
7.949,-0.122,-0.93,0.0
7.645,-0.119,-0.938,0.0
0.0,0.0,0.0,0.0
7.021,-0.112,-0.942,0.0
6.814,-0.11,-0.953,0.0
8.295,-0.136,-0.924,0.0
7.951,-0.131,-0.931,0.0
7.591,-0.127,-0.932,0.0
0.0,0.0,0.0,0.0
0.0,0.0,0.0,0.0
0.0,0.0,0.0,0.0
8.272,-0.145,-0.922,0.0
7.943,-0.14,-0.931,0.0
7.649,-0.137,-0.939,0.0
0.0,0.0,0.0,0.0
0.0,0.0,0.0,0.0
0.0,0.0,0.0,0.0
8.273,-0.154,-0.923,0.0
7.92,-0.149,-0.928,0.0
7.733,-0.147,-0.95,0.0
0.0,0.0,0.0,0.0
0.0,0.0,0.0,0.0
0.0,0.0,0.0,0.0
8.247,-0.163,-0.92,0.0
7.98,-0.159,-0.935,0.0
0.0,0.0,0.0,0.0
0.0,0.0,0.0,0.0
7.063,-0.145,-0.948,0.0
0.0,0.0,0.0,0.0
8.287,-0.173,-0.924,0.0
7.906,-0.167,-0.926,0.0
7.589,-0.162,-0.932,0.0
0.0,0.0,0.0,0.0
7.052,-0.153,-0.946,0.0
0.0,0.0,0.0,0.0
8.288,-0.183,-0.923,0.0
7.969,-0.177,-0.933,0.0
7.646,-0.172,-0.938,0.0
0.0,0.0,0.0,0.0
7.079,-0.162,-0.949,0.0
6.822,-0.157,-0.953,0.0
8.284,-0.192,-0.922,0.0
7.995,-0.187,-0.934,0.0
7.66,-0.18,-0.938,0.0
0.0,0.0,0.0,0.0
7.11,-0.17,-0.952,0.0
0.0,0.0,0.0,0.0
8.309,-0.202,-0.923,0.0
7.958,-0.195,-0.929,0.0
0.0,0.0,0.0,0.0
0.0,0.0,0.0,0.0
0.0,0.0,0.0,0.0
0.0,0.0,0.0,0.0
8.321,-0.211,-0.922,0.0
8.002,-0.205,-0.932,0.0
0.0,0.0,0.0,0.0
0.0,0.0,0.0,0.0
0.0,0.0,0.0,0.0
0.0,0.0,0.0,0.0
8.327,-0.221,-0.921,0.0
8.028,-0.214,-0.933,0.0
0.0,0.0,0.0,0.0
0.0,0.0,0.0,0.0
0.0,0.0,0.0,0.0
0.0,0.0,0.0,0.0
8.368,-0.231,-0.923,0.0
8.028,-0.223,-0.93,0.0
7.752,-0.217,-0.941,0.0
0.0,0.0,0.0,0.0
0.0,0.0,0.0,0.0
0.0,0.0,0.0,0.0
8.405,-0.241,-0.924,0.0
8.042,-0.232,-0.928,0.0
7.727,-0.225,-0.935,0.0
0.0,0.0,0.0,0.0
0.0,0.0,0.0,0.0
6.94,-0.206,-0.957,0.0
8.374,-0.249,-0.917,0.0
8.035,-0.24,-0.924,0.0
0.0,0.0,0.0,0.0
0.0,0.0,0.0,0.0
7.196,-0.22,-0.949,0.0
6.906,-0.213,-0.949,0.0
8.459,-0.26,-0.922,0.0
8.074,-0.25,-0.925,0.0
7.811,-0.244,-0.938,0.0
0.0,0.0,0.0,0.0
7.164,-0.226,-0.941,0.0
6.975,-0.222,-0.955,0.0
8.481,-0.27,-0.92,0.0
8.148,-0.261,-0.929,0.0
7.833,-0.252,-0.937,0.0
0.0,0.0,0.0,0.0
0.0,0.0,0.0,0.0
6.946,-0.228,-0.947,0.0
8.482,-0.279,-0.916,0.0
8.198,-0.271,-0.93,0.0
7.849,-0.261,-0.934,0.0
0.0,0.0,0.0,0.0
7.229,-0.243,-0.941,0.0
6.979,-0.236,-0.948,0.0
8.53,-0.289,-0.916,0.0
8.23,-0.28,-0.929,0.0
7.871,-0.27,-0.932,0.0
7.586,-0.261,-0.941,0.0
0.0,0.0,0.0,0.0
7.004,-0.244,-0.947,0.0
8.633,-0.301,-0.921,0.0
8.282,-0.29,-0.93,0.0
7.914,-0.279,-0.932,0.0
0.0,0.0,0.0,0.0
7.341,-0.261,-0.947,0.0
7.089,-0.254,-0.953,0.0
8.725,-0.312,-0.925,0.0
8.312,-0.299,-0.927,0.0
7.934,-0.287,-0.929,0.0
7.605,-0.277,-0.933,0.0
7.319,-0.268,-0.938,0.0
7.111,-0.261,-0.951,0.0
8.71,-0.32,-0.918,0.0
8.355,-0.308,-0.926,0.0
7.966,-0.296,-0.927,0.0
0.0,0.0,0.0,0.0
0.0,0.0,0.0,0.0
7.092,-0.267,-0.943,0.0
8.796,-0.331,-0.92,0.0
8.398,-0.318,-0.924,0.0
8.005,-0.304,-0.925,0.0
0.0,0.0,0.0,0.0
7.434,-0.286,-0.942,0.0
7.18,-0.277,-0.949,0.0
8.799,-0.339,-0.913,0.0
8.43,-0.327,-0.921,0.0
8.075,-0.314,-0.927,0.0
7.784,-0.305,-0.937,0.0
0.0,0.0,0.0,0.0
7.206,-0.285,-0.947,0.0
8.906,-0.351,-0.917,0.0
8.488,-0.336,-0.92,0.0
8.123,-0.323,-0.925,0.0
7.85,-0.314,-0.938,0.0
7.535,-0.303,-0.942,0.0
7.247,-0.293,-0.946,0.0
8.933,-0.36,-0.912,0.0
8.546,-0.346,-0.919,0.0
8.203,-0.333,-0.927,0.0
7.856,-0.321,-0.931,0.0
7.577,-0.311,-0.94,0.0
7.284,-0.3,-0.944,0.0
9.044,-0.372,-0.915,0.0
8.561,-0.354,-0.913,0.0
8.279,-0.343,-0.928,0.0
7.941,-0.331,-0.934,0.0
7.639,-0.32,-0.94,0.0
7.339,-0.308,-0.944,0.0
9.074,-0.381,-0.909,0.0
0.0,0.0,0.0,0.0
8.352,-0.353,-0.928,0.0
7.988,-0.339,-0.932,0.0
7.7,-0.328,-0.94,0.0
7.403,-0.317,-0.944,0.0
9.157,-0.391,-0.908,0.0
8.777,-0.376,-0.918,0.0
8.419,-0.362,-0.927,0.0
8.053,-0.348,-0.931,0.0
7.761,-0.337,-0.94,0.0
7.448,-0.324,-0.943,0.0
9.192,-0.4,-0.903,0.0
8.793,-0.384,-0.911,0.0
8.423,-0.369,-0.918,0.0
8.07,-0.355,-0.925,0.0
7.75,-0.342,-0.93,0.0
7.518,-0.333,-0.943,0.0
9.343,-0.413,-0.907,0.0
8.923,-0.396,-0.915,0.0
8.595,-0.383,-0.928,0.0
8.169,-0.365,-0.927,0.0
7.868,-0.353,-0.936,0.0
7.606,-0.342,-0.946,0.0
9.423,-0.423,-0.905,0.0
9.013,-0.406,-0.914,0.0
8.635,-0.39,-0.923,0.0
8.254,-0.374,-0.927,0.0
7.944,-0.361,-0.936,0.0
7.591,-0.347,-0.935,0.0
9.517,-0.433,-0.903,0.0
9.127,-0.417,-0.915,0.0
8.718,-0.4,-0.921,0.0
8.323,-0.383,-0.925,0.0
7.989,-0.369,-0.932,0.0
7.663,-0.355,-0.935,0.0
9.63,-0.445,-0.903,0.0
9.181,-0.425,-0.91,0.0
8.778,-0.408,-0.917,0.0
8.441,-0.394,-0.928,0.0
8.08,-0.378,-0.932,0.0
7.749,-0.364,-0.936,0.0
9.704,-0.454,-0.898,0.0
9.245,-0.434,-0.905,0.0
8.87,-0.418,-0.916,0.0
8.541,-0.403,-0.929,0.0
8.168,-0.387,-0.933,0.0
7.856,-0.373,-0.939,0.0
9.824,-0.465,-0.897,0.0
9.415,-0.447,-0.91,0.0
8.933,-0.426,-0.911,0.0
0.0,0.0,0.0,0.0
8.268,-0.396,-0.934,0.0
7.919,-0.381,-0.937,0.0
9.893,-0.474,-0.891,0.0
9.518,-0.457,-0.908,0.0
9.05,-0.436,-0.912,0.0
0.0,0.0,0.0,0.0
8.355,-0.405,-0.932,0.0
7.993,-0.388,-0.935,0.0
10.033,-0.486,-0.89,0.0
9.574,-0.465,-0.901,0.0
9.168,-0.446,-0.912,0.0
0.0,0.0,0.0,0.0
8.387,-0.41,-0.925,0.0
8.053,-0.395,-0.931,0.0
10.176,-0.498,-0.889,0.0
9.694,-0.475,-0.899,0.0
9.287,-0.456,-0.911,0.0
0.0,0.0,0.0,0.0
8.522,-0.421,-0.928,0.0
8.151,-0.404,-0.932,0.0
10.279,-0.507,-0.884,0.0
9.838,-0.487,-0.899,0.0
9.349,-0.463,-0.904,0.0
9.063,-0.45,-0.926,0.0
8.634,-0.43,-0.928,0.0
8.261,-0.412,-0.933,0.0
10.426,-0.519,-0.883,0.0
9.938,-0.495,-0.894,0.0
9.527,-0.476,-0.908,0.0
9.046,-0.453,-0.912,0.0
8.659,-0.434,-0.919,0.0
8.338,-0.419,-0.93,0.0
10.568,-0.53,-0.88,0.0
10.079,-0.506,-0.893,0.0
9.608,-0.483,-0.902,0.0
9.095,-0.459,-0.904,0.0
8.795,-0.444,-0.921,0.0
8.437,-0.427,-0.928,0.0
10.681,-0.539,-0.874,0.0
10.209,-0.516,-0.89,0.0
9.746,-0.494,-0.901,0.0
9.376,-0.476,-0.918,0.0
8.952,-0.455,-0.924,0.0
8.492,-0.433,-0.922,0.0
10.873,-0.552,-0.874,0.0
10.323,-0.525,-0.884,0.0
9.858,-0.502,-0.897,0.0
9.414,-0.48,-0.907,0.0
8.989,-0.459,-0.914,0.0
8.622,-0.441,-0.923,0.0
11.038,-0.563,-0.871,0.0
10.484,-0.536,-0.883,0.0
9.998,-0.512,-0.895,0.0
9.518,-0.488,-0.903,0.0
9.094,-0.467,-0.911,0.0
8.769,-0.451,-0.926,0.0
11.226,-0.575,-0.869,0.0
10.627,-0.545,-0.879,0.0
10.135,-0.521,-0.892,0.0
9.679,-0.498,-0.904,0.0
9.269,-0.478,-0.915,0.0
8.859,-0.457,-0.921,0.0
11.391,-0.586,-0.864,0.0
10.82,-0.557,-0.878,0.0
10.27,-0.53,-0.888,0.0
9.774,-0.505,-0.897,0.0
9.378,-0.485,-0.911,0.0
8.92,-0.462,-0.914,0.0
11.568,-0.597,-0.86,0.0
10.978,-0.567,-0.874,0.0
10.416,-0.538,-0.884,0.0
9.938,-0.514,-0.897,0.0
9.479,-0.491,-0.906,0.0
9.031,-0.469,-0.911,0.0
11.825,-0.611,-0.86,0.0
11.137,-0.576,-0.869,0.0
10.542,-0.546,-0.878,0.0
10.107,-0.524,-0.896,0.0
9.649,-0.501,-0.906,0.0
9.214,-0.479,-0.914,0.0
12.061,-0.624,-0.858,0.0
11.328,-0.587,-0.865,0.0
10.758,-0.558,-0.879,0.0
10.218,-0.53,-0.889,0.0
9.768,-0.507,-0.902,0.0
9.301,-0.484,-0.908,0.0
12.299,-0.637,-0.855,0.0
11.525,-0.597,-0.862,0.0
10.946,-0.568,-0.876,0.0
10.367,-0.538,-0.885,0.0
9.885,-0.514,-0.897,0.0
9.441,-0.491,-0.906,0.0
12.536,-0.649,-0.851,0.0
11.745,-0.609,-0.859,0.0
11.111,-0.576,-0.871,0.0
10.543,-0.547,-0.883,0.0
10.067,-0.523,-0.896,0.0
9.611,-0.499,-0.906,0.0
19.971,-1.034,-1.323,0.0
11.977,-0.62,-0.856,0.0
11.318,-0.586,-0.869,0.0
10.709,-0.555,-0.879,0.0
10.214,-0.529,-0.893,0.0
9.752,-0.506,-0.904,0.0
13.238,-0.684,-0.855,0.0
12.265,-0.634,-0.857,0.0
11.469,-0.593,-0.861,0.0
10.903,-0.564,-0.877,0.0
10.368,-0.536,-0.889,0.0
9.888,-0.512,-0.9,0.0
13.395,-0.69,-0.843,0.0
12.499,-0.644,-0.852,0.0
11.729,-0.604,-0.861,0.0
11.098,-0.572,-0.874,0.0
10.51,-0.542,-0.883,0.0
10.063,-0.519,-0.898,0.0
13.652,-0.701,-0.836,0.0
19.959,-1.025,-1.327,0.0
11.985,-0.615,-0.86,0.0
11.287,-0.58,-0.87,0.0
10.697,-0.549,-0.881,0.0
10.201,-0.524,-0.893,0.0
14.054,-0.719,-0.837,0.0
13.177,-0.674,-0.854,0.0
12.259,-0.627,-0.859,0.0
11.437,-0.585,-0.862,0.0
10.931,-0.559,-0.881,0.0
10.371,-0.53,-0.89,0.0
14.38,-0.732,-0.832,0.0
13.41,-0.683,-0.846,0.0
12.563,-0.639,-0.858,0.0
11.708,-0.595,-0.862,0.0
11.076,-0.563,-0.874,0.0
10.544,-0.536,-0.887,0.0
14.581,-0.738,-0.819,0.0
13.669,-0.692,-0.839,0.0
20.042,-1.014,-1.335,0.0
11.966,-0.605,-0.861,0.0
11.267,-0.569,-0.869,0.0
10.71,-0.541,-0.883,0.0
15.039,-0.757,-0.819,0.0
13.948,-0.701,-0.832,0.0
20.012,-1.005,-1.299,0.0
12.273,-0.616,-0.861,0.0
11.467,-0.575,-0.865,0.0
10.929,-0.548,-0.882,0.0
15.416,-0.77,-0.812,0.0
14.336,-0.715,-0.83,0.0
13.381,-0.667,-0.845,0.0
12.485,-0.622,-0.855,0.0
11.728,-0.584,-0.864,0.0
11.08,-0.551,-0.874,0.0
20.066,-0.994,-1.022,0.0
14.71,-0.728,-0.826,0.0
13.65,-0.674,-0.838,0.0
20.041,-0.989,-1.337,0.0
11.987,-0.591,-0.862,0.0
11.282,-0.556,-0.87,0.0
20.073,-0.985,-0.988,0.0
15.015,-0.736,-0.817,0.0
14.051,-0.688,-0.838,0.0
20.07,-0.981,-1.304,0.0
12.27,-0.599,-0.861,0.0
11.517,-0.562,-0.868,0.0
16.68,-0.81,-0.791,0.0
20.03,-0.972,-1.055,0.0
14.338,-0.694,-0.83,0.0
13.451,-0.65,-0.85,0.0
12.518,-0.605,-0.856,0.0
11.753,-0.567,-0.865,0.0
17.306,-0.831,-0.791,0.0
20.047,-0.962,-1.021,0.0
14.74,-0.706,-0.827,0.0
13.692,-0.654,-0.841,0.0
12.853,-0.613,-0.856,0.0
12.027,-0.573,-0.864,0.0
17.754,-0.843,-0.78,0.0
16.33,-0.774,-0.802,0.0
15.11,-0.715,-0.821,0.0
14.06,-0.664,-0.839,0.0
13.201,-0.622,-0.856,0.0
12.294,-0.578,-0.862,0.0
18.202,-0.853,-0.768,0.0
16.723,-0.782,-0.792,0.0
15.421,-0.719,-0.811,0.0
14.351,-0.668,-0.831,0.0
13.437,-0.624,-0.848,0.0
12.521,-0.581,-0.855,0.0
18.866,-0.871,-0.763,0.0
17.28,-0.796,-0.788,0.0
15.935,-0.733,-0.81,0.0
14.723,-0.675,-0.827,0.0
13.708,-0.628,-0.841,0.0
12.834,-0.586,-0.854,0.0
19.382,-0.882,-0.75,0.0
17.723,-0.804,-0.778,0.0
16.426,-0.744,-0.806,0.0
15.102,-0.682,-0.821,0.0
14.03,-0.632,-0.836,0.0
13.162,-0.592,-0.853,0.0
20.005,-0.895,-0.738,0.0
18.308,-0.817,-0.771,0.0
16.745,-0.745,-0.792,0.0
15.464,-0.687,-0.814,0.0
14.403,-0.638,-0.833,0.0
13.506,-0.596,-0.851,0.0
20.783,-0.914,-0.731,0.0
18.804,-0.824,-0.759,0.0
17.407,-0.761,-0.793,0.0
15.81,-0.689,-0.804,0.0
14.774,-0.642,-0.828,0.0
13.763,-0.596,-0.843,0.0
21.576,-0.931,-0.721,0.0
19.419,-0.835,-0.749,0.0
17.76,-0.761,-0.777,0.0
16.399,-0.701,-0.805,0.0
15.188,-0.647,-0.825,0.0
14.086,-0.598,-0.838,0.0
0.0,0.0,0.0,0.0
20.303,-0.856,-0.748,0.0
18.374,-0.772,-0.772,0.0
16.746,-0.701,-0.793,0.0
15.542,-0.648,-0.816,0.0
14.485,-0.602,-0.836,0.0
23.283,-0.963,-0.696,0.0
20.916,-0.862,-0.734,0.0
18.902,-0.776,-0.761,0.0
17.318,-0.709,-0.789,0.0
15.905,-0.649,-0.808,0.0
14.744,-0.599,-0.826,0.0
24.612,-0.995,-0.693,0.0
21.728,-0.875,-0.724,0.0
19.66,-0.789,-0.758,0.0
17.858,-0.714,-0.783,0.0
16.381,-0.652,-0.803,0.0
15.205,-0.603,-0.825,0.0
0.0,0.0,0.0,0.0
22.358,-0.878,-0.707,0.0
20.32,-0.795,-0.748,0.0
18.3,-0.713,-0.771,0.0
16.842,-0.653,-0.797,0.0
15.629,-0.604,-0.821,0.0
26.535,-1.02,-0.656,0.0
23.353,-0.894,-0.698,0.0
21.172,-0.807,-0.743,0.0
18.995,-0.72,-0.768,0.0
17.463,-0.659,-0.797,0.0
15.923,-0.598,-0.809,0.0
28.207,-1.055,-0.649,0.0
24.719,-0.92,-0.697,0.0
21.704,-0.803,-0.725,0.0
19.521,-0.719,-0.756,0.0
17.856,-0.655,-0.784,0.0
16.415,-0.599,-0.806,0.0
29.192,-1.06,-0.622,0.0
0.0,0.0,0.0,0.0
22.375,-0.804,-0.709,0.0
20.09,-0.718,-0.744,0.0
18.313,-0.651,-0.773,0.0
16.778,-0.593,-0.796,0.0
30.733,-1.081,-0.603,0.0
26.483,-0.926,-0.657,0.0
23.517,-0.818,-0.706,0.0
20.806,-0.719,-0.735,0.0
18.811,-0.647,-0.763,0.0
17.377,-0.594,-0.795,0.0
0.0,0.0,0.0,0.0
0.0,0.0,0.0,0.0
24.453,-0.821,-0.693,0.0
21.653,-0.723,-0.729,0.0
19.393,-0.644,-0.754,0.0
17.729,-0.585,-0.782,0.0
0.0,0.0,0.0,0.0
29.191,-0.951,-0.627,0.0
25.023,-0.81,-0.668,0.0
21.93,-0.705,-0.702,6.0
20.134,-0.643,-0.749,0.0
18.189,-0.577,-0.772,0.0
37.797,-1.192,-0.553,0.0
0.0,0.0,0.0,0.0
21.897,-0.681,-0.549,0.0
