X,Y,Z,Reflectivity
120.059,4.541,2.181,16.0
61.395,2.302,0.772,15.0
72.254,2.687,0.504,18.0
65.195,2.404,0.084,8.0
54.125,1.979,-0.232,1.0
0.0,0.0,0.0,0.0
72.372,2.592,1.275,28.0
72.357,2.569,0.87,33.0
72.194,2.54,0.465,18.0
65.056,2.269,0.049,13.0
54.168,1.871,-0.261,2.0
41.36,1.416,-0.43,0.0
72.375,2.447,1.238,37.0
72.365,2.423,0.834,33.0
72.198,2.395,0.429,21.0
64.855,2.129,0.017,5.0
0.0,0.0,0.0,0.0
40.561,1.306,-0.441,0.0
120.055,3.814,1.996,3.0
119.968,3.772,1.326,12.0
72.096,2.244,0.394,13.0
64.104,1.974,-0.012,5.0
0.0,0.0,0.0,0.0
40.696,1.226,-0.461,0.0
78.881,2.344,1.276,29.0
78.868,2.318,0.837,22.0
71.986,2.091,0.363,9.0
63.704,1.83,-0.039,4.0
0.0,0.0,0.0,0.0
40.719,1.143,-0.478,0.0
78.874,2.179,1.244,30.0
78.865,2.154,0.805,30.0
71.973,1.942,0.334,10.0
65.305,1.74,-0.066,6.0
0.0,0.0,0.0,0.0
41.107,1.069,-0.498,0.0
119.987,3.067,1.848,17.0
85.076,2.146,0.837,18.0
72.083,1.795,0.309,9.0
66.601,1.636,-0.091,4.0
0.0,0.0,0.0,0.0
0.0,0.0,0.0,0.0
85.254,2.002,1.284,35.0
85.24,1.974,0.811,30.0
72.111,1.646,0.286,9.0
0.0,0.0,0.0,0.0
0.0,0.0,0.0,0.0
0.0,0.0,0.0,0.0
85.312,1.825,1.26,32.0
85.322,1.797,0.787,27.0
78.072,1.617,0.287,6.0
70.181,1.429,-0.138,0.0
0.0,0.0,0.0,0.0
0.0,0.0,0.0,0.0
91.916,1.771,1.333,27.0
91.851,1.739,0.823,22.0
77.846,1.448,0.266,4.0
0.0,0.0,0.0,0.0
46.079,0.825,-0.357,0.0
0.0,0.0,0.0,0.0
91.899,1.579,1.312,4.0
91.853,1.548,0.803,30.0
81.026,1.337,0.26,3.0
0.0,0.0,0.0,0.0
46.944,0.742,-0.373,0.0
0.0,0.0,0.0,0.0
98.715,1.486,1.39,20.0
98.605,1.449,0.844,16.0
81.007,1.164,0.245,3.0
0.0,0.0,0.0,0.0
0.0,0.0,0.0,0.0
0.0,0.0,0.0,0.0
98.537,1.274,1.373,29.0
98.444,1.237,0.828,14.0
81.194,0.992,0.235,4.0
0.0,0.0,0.0,0.0
46.397,0.535,-0.382,0.0
0.0,0.0,0.0,0.0
98.604,1.063,1.363,26.0
98.478,1.028,0.817,15.0
84.098,0.847,0.234,1.0
0.0,0.0,0.0,0.0
46.605,0.438,-0.388,0.0
0.0,0.0,0.0,0.0
100.278,0.866,1.378,3.0
104.78,0.87,0.862,15.0
85.273,0.677,0.232,6.0
0.0,0.0,0.0,0.0
45.895,0.332,-0.384,0.0
0.0,0.0,0.0,0.0
111.059,0.722,1.521,21.0
104.981,0.645,0.86,10.0
87.82,0.509,0.236,5.0
0.0,0.0,0.0,0.0
45.799,0.232,-0.384,0.0
36.156,0.17,-0.502,0.0
111.215,0.483,1.523,16.0
110.941,0.442,0.91,12.0
0.0,0.0,0.0,0.0
0.0,0.0,0.0,0.0
45.724,0.134,-0.383,0.0
36.465,0.093,-0.505,0.0
111.086,0.246,1.525,20.0
110.944,0.206,0.914,10.0
0.0,0.0,0.0,0.0
0.0,0.0,0.0,0.0
45.525,0.035,-0.378,2.0
36.902,0.016,-0.509,0.0
111.109,0.007,1.533,13.0
111.257,-0.03,0.925,8.0
0.0,0.0,0.0,0.0
0.0,0.0,0.0,0.0
45.537,-0.062,-0.374,1.0
0.0,0.0,0.0,0.0
0.0,0.0,0.0,0.0
114.462,-0.276,0.965,98.0
0.0,0.0,0.0,0.0
0.0,0.0,0.0,0.0
45.4,-0.158,-0.367,1.0
37.569,-0.144,-0.509,0.0
119.775,-0.502,1.683,18.0
119.725,-0.544,1.028,12.0
0.0,0.0,0.0,0.0
0.0,0.0,0.0,0.0
0.0,0.0,0.0,0.0
0.0,0.0,0.0,0.0
119.781,-0.759,1.706,19.0
119.634,-0.8,1.05,14.0
0.0,0.0,0.0,0.0
0.0,0.0,0.0,0.0
0.0,0.0,0.0,0.0
0.0,0.0,0.0,0.0
119.756,-1.013,1.732,82.0
119.721,-1.057,1.078,26.0
0.0,0.0,0.0,0.0
0.0,0.0,0.0,0.0
46.472,-0.46,-0.346,0.0
0.0,0.0,0.0,0.0
119.739,-1.269,1.762,8.0
139.22,-1.524,1.29,22.0
0.0,0.0,0.0,0.0
0.0,0.0,0.0,0.0
47.128,-0.567,-0.338,0.0
0.0,0.0,0.0,0.0
139.148,-1.768,2.089,5.0
139.102,-1.817,1.331,19.0
127.517,-1.713,0.526,3.0
0.0,0.0,0.0,0.0
0.0,0.0,0.0,0.0
0.0,0.0,0.0,0.0
139.117,-2.063,2.135,7.0
138.988,-2.113,1.377,12.0
113.489,-1.766,0.507,4.0
0.0,0.0,0.0,0.0
50.251,-0.818,-0.326,1.0
0.0,0.0,0.0,0.0
139.037,-2.354,2.185,6.0
139.124,-2.405,1.43,18.0
138.919,-2.452,0.673,3.0
0.0,0.0,0.0,0.0
0.0,0.0,0.0,0.0
42.295,-0.792,-0.488,0.0
193.119,-3.675,3.113,5.0
138.99,-2.694,1.486,10.0
138.772,-2.739,0.73,3.0
0.0,0.0,0.0,0.0
0.0,0.0,0.0,0.0
42.893,-0.893,-0.476,0.0
192.919,-4.073,3.195,17.0
138.929,-2.984,1.548,4.0
138.933,-3.032,0.794,4.0
0.0,0.0,0.0,0.0
54.668,-1.232,-0.285,0.0
0.0,0.0,0.0,0.0
193.062,-4.475,3.289,15.0
138.728,-3.264,1.612,3.0
138.79,-3.315,0.861,8.0
0.0,0.0,0.0,0.0
0.0,0.0,0.0,0.0
43.517,-1.087,-0.44,1.0
193.181,-4.873,3.39,18.0
0.0,0.0,0.0,0.0
138.752,-3.6,0.934,12.0
0.0,0.0,0.0,0.0
54.939,-1.465,-0.229,0.0
43.333,-1.171,-0.415,0.0
204.112,-5.567,3.694,6.0
0.0,0.0,0.0,0.0
138.42,-3.872,1.009,17.0
0.0,0.0,0.0,0.0
0.0,0.0,0.0,0.0
44.518,-1.293,-0.4,1.0
194.288,-5.692,3.628,6.0
0.0,0.0,0.0,0.0
138.63,-4.161,1.093,12.0
0.0,0.0,0.0,0.0
0.0,0.0,0.0,0.0
0.0,0.0,0.0,0.0
194.593,-6.092,3.754,8.0
138.611,-4.389,1.927,3.0
138.618,-4.437,1.18,21.0
0.0,0.0,0.0,0.0
0.0,0.0,0.0,0.0
0.0,0.0,0.0,0.0
187.471,-6.248,3.74,49.0
138.582,-4.665,2.018,4.0
138.615,-4.715,1.272,24.0
0.0,0.0,0.0,0.0
0.0,0.0,0.0,0.0
0.0,0.0,0.0,0.0
193.819,-6.841,3.999,8.0
138.458,-4.933,2.111,8.0
138.552,-4.984,1.367,22.0
0.0,0.0,0.0,0.0
0.0,0.0,0.0,0.0
0.0,0.0,0.0,0.0
194.448,-7.24,4.15,12.0
138.457,-5.202,2.211,4.0
138.457,-5.251,1.467,14.0
0.0,0.0,0.0,0.0
0.0,0.0,0.0,0.0
0.0,0.0,0.0,0.0
193.179,-7.567,4.269,6.0
192.85,-7.621,3.226,9.0
138.388,-5.514,1.572,9.0
138.321,-5.56,0.815,8.0
0.0,0.0,0.0,0.0
0.0,0.0,0.0,0.0
193.923,-7.965,4.435,23.0
138.133,-5.718,2.418,33.0
0.0,0.0,0.0,0.0
138.043,-5.809,0.923,17.0
0.0,0.0,0.0,0.0
0.0,0.0,0.0,0.0
193.431,-8.311,4.582,17.0
192.832,-8.349,3.534,26.0
0.0,0.0,0.0,0.0
138.032,-6.069,1.038,16.0
0.0,0.0,0.0,0.0
0.0,0.0,0.0,0.0
20.155,-0.904,0.494,0.0
193.551,-8.742,3.712,14.0
138.048,-6.281,1.909,12.0
138.273,-6.337,1.158,17.0
0.0,0.0,0.0,0.0
20.02,-0.93,-0.046,8.0
20.123,-0.939,0.511,17.0
20.138,-0.946,0.403,19.0
20.158,-0.954,0.296,4.0
138.181,-6.585,1.28,19.0
20.036,-0.961,0.078,0.0
19.976,-0.965,-0.028,17.0
20.132,-0.976,0.529,26.0
20.14,-0.983,0.422,24.0
20.153,-0.99,0.314,25.0
20.174,-0.997,0.205,25.0
20.022,-0.996,0.096,15.0
19.987,-1.001,-0.009,15.0
20.058,-1.008,0.546,18.0
20.01,-1.012,0.438,10.0
20.0,-1.018,0.331,10.0
20.016,-1.025,0.222,25.0
19.984,-1.03,0.115,17.0
19.973,-1.036,0.009,26.0
19.972,-1.039,0.563,19.0
19.961,-1.045,0.456,17.0
19.947,-1.05,0.349,16.0
20.001,-1.059,0.242,28.0
19.979,-1.065,0.135,26.0
19.979,-1.071,0.029,25.0
19.982,-1.075,0.583,24.0
19.957,-1.079,0.476,20.0
19.956,-1.085,0.37,19.0
19.952,-1.092,0.261,19.0
20.011,-1.101,0.155,24.0
20.009,-1.107,0.049,21.0
19.966,-1.108,0.603,25.0
19.958,-1.114,0.496,24.0
19.953,-1.119,0.39,25.0
19.958,-1.126,0.282,25.0
20.011,-1.135,0.176,10.0
20.097,-1.146,0.07,3.0
19.967,-1.142,0.624,26.0
19.953,-1.147,0.517,26.0
19.936,-1.152,0.411,18.0
19.917,-1.157,0.302,19.0
20.015,-1.168,0.198,16.0
20.002,-1.174,0.091,57.0
19.97,-1.175,0.645,24.0
19.957,-1.18,0.539,22.0
19.931,-1.184,0.432,19.0
19.899,-1.188,0.324,17.0
19.984,-1.199,0.219,69.0
19.987,-1.205,0.113,150.0
19.956,-1.206,0.667,19.0
19.95,-1.212,0.561,25.0
19.934,-1.216,0.454,19.0
19.936,-1.222,0.346,24.0
19.968,-1.23,0.241,24.0
19.98,-1.237,0.135,28.0
19.959,-1.238,0.689,18.0
19.945,-1.243,0.583,25.0
19.925,-1.247,0.476,19.0
19.899,-1.251,0.368,19.0
19.965,-1.261,0.264,29.0
19.967,-1.267,0.158,22.0
19.966,-1.27,0.712,16.0
19.947,-1.274,0.606,20.0
19.929,-1.278,0.499,17.0
19.916,-1.283,0.391,16.0
19.946,-1.29,0.286,25.0
19.958,-1.297,0.181,24.0
19.991,-1.302,0.737,13.0
19.971,-1.306,0.63,11.0
19.974,-1.311,0.524,11.0
19.953,-1.315,0.416,10.0
19.957,-1.321,0.31,10.0
19.981,-1.328,0.205,17.0
20.035,-1.335,0.762,7.0
20.012,-1.338,0.655,10.0
20.073,-1.348,0.551,14.0
20.062,-1.352,0.442,1.0
119.414,-8.082,2.002,51.0
119.303,-8.106,1.37,15.0
67.895,-4.623,2.666,32.0
20.011,-1.367,0.679,11.0
20.016,-1.373,0.574,8.0
20.017,-1.378,0.466,8.0
20.04,-1.384,0.36,9.0
20.059,-1.391,0.254,3.0
67.906,-4.72,2.75,61.0
20.027,-1.396,0.704,8.0
20.0,-1.4,0.598,9.0
19.992,-1.404,0.49,10.0
19.999,-1.409,0.384,11.0
20.011,-1.415,0.279,12.0
67.928,-4.814,2.835,58.0
67.891,-4.828,2.474,30.0
20.017,-1.428,0.623,8.0
20.007,-1.432,0.515,9.0
20.014,-1.438,0.41,9.0
20.005,-1.442,0.304,10.0
67.917,-4.907,2.922,61.0
67.905,-4.922,2.562,47.0
102.836,-7.478,3.336,20.0
20.028,-1.461,0.542,3.0
20.024,-1.465,0.436,2.0
20.029,-1.47,0.33,2.0
67.928,-4.997,3.01,63.0
67.907,-5.01,2.65,45.0
72.036,-5.331,2.43,20.0
71.609,-5.316,2.03,35.0
119.331,-8.887,2.754,16.0
119.394,-8.919,2.126,20.0
67.937,-5.084,3.1,56.0
67.916,-5.097,2.739,42.0
67.876,-5.109,2.379,14.0
71.674,-5.41,2.126,29.0
72.712,-5.505,1.773,14.0
72.258,-5.487,1.381,6.0
67.939,-5.167,3.188,7.0
67.949,-5.183,2.83,28.0
67.93,-5.195,2.47,48.0
67.916,-5.208,2.104,73.0
67.89,-5.221,1.745,77.0
67.882,-5.235,1.387,84.0
67.933,-5.248,3.279,87.0
67.922,-5.261,2.92,79.0
67.923,-5.275,2.561,71.0
67.914,-5.289,2.196,52.0
67.913,-5.303,1.837,42.0
67.903,-5.316,1.48,31.0
71.505,-5.607,3.548,15.0
71.384,-5.611,3.165,27.0
72.809,-5.737,2.844,8.0
72.281,-5.71,2.434,7.0
71.709,-5.679,2.037,7.0
72.557,-5.76,1.679,20.0
71.09,-5.654,3.624,29.0
71.124,-5.67,3.25,26.0
72.231,-5.771,2.92,17.0
72.075,-5.772,2.525,7.0
74.792,-6.004,2.226,3.0
71.563,-5.759,1.754,22.0
70.999,-5.724,3.717,27.0
67.953,-5.489,3.199,9.0
67.942,-5.501,2.84,44.0
67.919,-5.511,2.474,44.0
72.703,-5.912,2.265,11.0
71.68,-5.842,1.855,8.0
71.288,-5.821,3.832,25.0
67.95,-5.559,3.293,44.0
67.968,-5.572,2.935,43.0
67.938,-5.581,2.568,44.0
71.912,-5.919,2.34,13.0
72.685,-5.996,1.982,15.0
71.423,-5.902,3.938,15.0
67.953,-5.626,3.388,55.0
67.955,-5.637,3.029,43.0
67.952,-5.648,2.664,45.0
67.922,-5.656,2.305,22.0
72.585,-6.057,2.081,8.0
71.461,-5.973,4.041,26.0
67.946,-5.689,3.482,44.0
67.957,-5.7,3.124,51.0
67.96,-5.711,2.759,45.0
67.933,-5.719,2.399,43.0
103.25,-8.708,3.104,13.0
71.523,-6.043,4.145,20.0
67.911,-5.747,3.576,7.0
67.969,-5.762,3.221,46.0
67.959,-5.77,2.855,44.0
67.959,-5.781,2.497,43.0
71.748,-6.114,2.258,14.0
71.503,-6.103,4.245,10.0
71.283,-6.093,3.855,31.0
67.977,-5.82,3.317,49.0
67.982,-5.829,2.952,44.0
67.963,-5.837,2.593,44.0
67.904,-5.842,2.233,6.0
71.573,-6.168,4.351,14.0
70.759,-6.107,3.928,39.0
67.962,-5.873,3.414,53.0
67.978,-5.883,3.048,43.0
67.968,-5.892,2.691,41.0
67.92,-5.897,2.331,31.0
71.778,-6.242,4.467,8.0
70.8,-6.165,4.031,18.0
67.967,-5.926,3.511,28.0
67.982,-5.935,3.146,46.0
67.975,-5.943,2.788,47.0
67.942,-5.948,2.428,37.0
71.151,-6.24,4.529,9.0
71.067,-6.24,4.148,17.0
71.28,-6.266,3.784,11.0
67.982,-5.983,3.243,46.0
67.98,-5.991,2.885,34.0
67.95,-5.996,2.526,8.0
71.228,-6.296,4.637,18.0
71.188,-6.299,4.257,26.0
71.139,-6.302,3.879,41.0
70.994,-6.296,3.488,24.0
70.815,-6.287,3.106,10.0
72.318,-6.428,2.791,14.0
70.688,-6.294,4.703,12.0
71.068,-6.334,4.352,9.0
70.696,-6.307,3.956,28.0
71.345,-6.371,3.608,26.0
71.522,-6.394,3.239,16.0
70.98,-6.352,2.841,8.0
70.643,-6.333,4.801,21.0
71.172,-6.386,4.46,10.0
0.0,0.0,0.0,0.0
71.4,-6.417,3.712,16.0
71.603,-6.442,3.344,7.0
71.001,-6.393,2.942,17.0
73.571,-6.637,5.105,9.0
70.693,-6.382,4.531,12.0
69.845,-6.31,4.107,24.0
70.792,-6.4,3.782,17.0
71.326,-6.454,3.434,8.0
71.149,-6.443,3.05,9.0
69.952,-6.347,4.955,28.0
33.189,-3.013,2.175,1.0
70.318,-6.388,4.237,9.0
70.739,-6.431,3.881,24.0
71.341,-6.49,3.536,13.0
71.186,-6.48,3.153,15.0
70.319,-6.413,5.081,48.0
70.762,-6.457,4.739,18.0
70.955,-6.478,4.374,19.0
70.254,-6.418,3.953,26.0
71.522,-6.537,3.646,12.0
71.365,-6.527,3.261,7.0
70.566,-6.466,5.2,28.0
70.865,-6.496,4.846,33.0
70.515,-6.466,4.449,24.0
69.7,-6.395,4.021,24.0
70.821,-6.501,3.711,13.0
71.157,-6.535,3.352,6.0
70.282,-6.467,5.279,20.0
70.366,-6.476,4.911,26.0
70.532,-6.494,4.549,21.0
69.784,-6.427,4.123,25.0
70.413,-6.487,3.789,26.0
71.234,-6.566,3.456,9.0
70.636,-6.523,5.405,49.0
70.276,-6.492,5.005,32.0
33.225,-3.069,2.189,6.0
69.816,-6.452,4.224,27.0
71.335,-6.594,3.938,8.0
71.401,-6.602,3.564,16.0
71.09,-6.586,5.54,21.0
70.449,-6.528,5.116,39.0
70.282,-6.513,4.73,28.0
69.928,-6.481,4.328,20.0
73.933,-6.854,4.184,2.0
71.377,-6.618,3.662,28.0
71.149,-6.61,5.645,9.0
70.351,-6.536,5.208,14.0
70.491,-6.549,4.843,21.0
69.797,-6.485,4.418,36.0
69.765,-6.483,4.046,9.0
70.371,-6.54,3.71,19.0
73.678,-6.86,5.95,17.0
70.369,-6.552,5.308,24.0
70.2,-6.536,4.921,21.0
69.878,-6.505,4.52,37.0
69.943,-6.511,4.153,18.0
70.314,-6.546,3.803,6.0
73.612,-6.866,6.046,7.0
70.906,-6.613,5.445,24.0
70.012,-6.528,5.004,21.0
33.211,-3.096,2.193,4.0
69.97,-6.522,4.25,27.0
71.362,-6.652,3.956,4.0
74.509,-6.959,6.222,10.0
71.105,-6.639,5.558,10.0
70.085,-6.542,5.104,20.0
33.2,-3.098,2.238,3.0
69.812,-6.513,4.335,28.0
71.351,-6.656,4.051,5.0
0.0,0.0,0.0,0.0
73.721,-6.888,5.862,13.0
70.165,-6.554,5.205,22.0
33.199,-3.1,2.282,1.0
69.785,-6.514,4.426,42.0
73.754,-6.882,4.287,8.0
76.305,-7.135,6.578,25.0
73.602,-6.879,5.951,8.0
70.481,-6.584,5.323,22.0
69.991,-6.535,4.906,17.0
69.907,-6.525,4.527,34.0
70.049,-6.536,4.164,16.0
75.79,-7.086,6.635,15.0
81.358,-7.602,6.687,9.0
70.91,-6.622,5.448,22.0
69.986,-6.532,4.997,21.0
33.22,-3.099,2.195,4.0
69.966,-6.525,4.25,25.0
74.617,-6.972,6.631,22.0
74.516,-6.958,6.222,10.0
71.091,-6.634,5.555,10.0
70.102,-6.538,5.096,21.0
70.446,-6.566,4.745,14.0
69.866,-6.508,4.334,25.0
74.494,-6.954,6.716,13.0
74.325,-6.933,6.302,10.0
73.709,-6.87,5.855,9.0
70.273,-6.545,5.199,16.0
70.596,-6.571,4.846,18.0
69.806,-6.492,4.42,31.0
79.557,-7.416,7.274,10.0
76.151,-7.092,6.553,9.0
73.641,-6.852,5.943,23.0
70.307,-6.537,5.29,25.0
70.313,-6.532,4.915,19.0
69.93,-6.491,4.515,15.0
79.255,-7.373,7.347,9.0
75.048,-6.975,6.553,18.0
73.684,-6.842,6.039,22.0
70.674,-6.556,5.405,48.0
70.239,-6.51,4.996,35.0
33.225,-3.077,2.186,5.0
47.301,-4.39,4.443,3.0
74.691,-6.925,6.614,24.0
73.801,-6.835,6.139,26.0
71.02,-6.571,5.518,23.0
70.364,-6.504,5.091,37.0
70.535,-6.513,4.725,13.0
47.327,-4.38,4.503,8.0
74.774,-6.912,6.712,11.0
73.717,-6.806,6.221,32.0
71.002,-6.548,5.603,10.0
70.351,-6.482,5.174,19.0
70.649,-6.503,4.817,28.0
47.417,-4.374,4.569,9.0
79.879,-7.359,7.266,5.0
73.766,-6.787,6.313,22.0
71.069,-6.532,5.692,12.0
70.288,-6.453,5.252,21.0
70.608,-6.474,4.897,29.0
70.224,-5.711,7.904,26.0
71.496,-5.799,7.651,19.0
72.964,-5.901,7.406,21.0
71.808,-5.792,6.886,10.0
70.948,-5.708,6.413,7.0
70.693,-5.673,6.001,15.0
0.0,0.0,0.0,0.0
71.553,-5.736,7.704,30.0
71.726,-5.734,7.326,10.0
71.727,-5.718,6.923,24.0
70.866,-5.634,6.449,21.0
70.668,-5.603,6.042,18.0
70.527,-5.601,8.028,17.0
71.135,-5.633,7.702,24.0
71.655,-5.658,7.361,10.0
71.176,-5.604,6.911,23.0
70.746,-5.555,6.479,18.0
72.844,-5.704,6.27,11.0
70.47,-5.527,8.062,18.0
71.444,-5.586,7.776,25.0
71.478,-5.572,7.384,24.0
71.182,-5.533,6.951,12.0
68.016,-5.271,6.267,17.0
68.007,-5.256,5.89,77.0
70.89,-5.487,8.148,42.0
71.334,-5.504,7.802,38.0
70.594,-5.431,7.329,16.0
71.714,-5.501,7.04,11.0
68.013,-5.201,6.301,57.0
72.651,-5.54,6.329,10.0
70.183,-5.359,8.101,19.0
70.981,-5.403,7.798,17.0
71.112,-5.396,7.417,15.0
68.005,-5.143,6.709,6.0
70.931,-5.349,6.604,21.0
70.969,-5.335,6.215,14.0
69.927,-5.264,8.104,45.0
71.143,-5.338,7.848,30.0
71.505,-5.348,7.49,22.0
68.032,-5.072,6.741,39.0
71.258,-5.295,6.665,7.0
70.911,-5.253,6.239,8.0
70.013,-5.193,8.144,31.0
70.818,-5.236,7.841,33.0
71.472,-5.266,7.515,19.0
68.023,-4.996,6.766,34.0
73.39,-5.373,6.892,6.0
70.773,-5.165,6.254,15.0
71.093,-5.195,8.296,15.0
70.695,-5.149,7.853,48.0
71.789,-5.21,7.574,24.0
68.04,-4.921,6.792,11.0
73.282,-5.283,6.907,12.0
71.167,-5.113,6.313,22.0
70.624,-5.08,8.265,49.0
70.855,-5.079,7.894,23.0
70.244,-5.017,7.433,8.0
71.425,-5.084,7.152,8.0
73.447,-5.21,6.945,4.0
72.964,-5.159,6.493,10.0
70.086,-4.96,8.222,45.0
71.274,-5.026,7.961,42.0
70.468,-4.952,7.476,35.0
0.0,0.0,0.0,0.0
69.617,-4.857,6.601,27.0
72.813,-5.063,6.498,13.0
70.163,-4.882,8.249,48.0
70.944,-4.918,7.941,14.0
70.608,-4.877,7.508,26.0
70.751,-4.869,7.119,17.0
70.035,-4.803,6.656,36.0
64.343,-4.397,5.755,22.0
70.038,-4.79,8.248,42.0
70.186,-4.782,7.871,20.0
70.862,-4.81,7.548,22.0
71.154,-4.812,7.173,27.0
64.068,-4.317,6.1,8.0
64.289,-4.316,5.761,24.0
69.941,-4.698,8.249,36.0
70.528,-4.72,7.92,12.0
71.265,-4.751,7.601,9.0
59.498,-3.951,6.006,5.0
64.117,-4.242,6.113,33.0
64.167,-4.23,5.758,35.0
70.058,-4.621,8.27,17.0
70.704,-4.644,7.948,34.0
70.773,-4.631,7.556,17.0
59.436,-3.874,6.005,26.0
64.086,-4.161,6.116,37.0
64.166,-4.151,5.763,30.0
69.93,-4.525,8.261,27.0
70.527,-4.545,7.933,32.0
70.523,-4.526,7.534,12.0
59.493,-3.804,6.014,32.0
64.078,-4.08,6.118,28.0
64.026,-4.062,5.753,36.0
69.872,-4.433,8.256,32.0
70.312,-4.443,7.91,36.0
70.435,-4.432,7.526,15.0
59.208,-3.711,5.986,32.0
59.468,-3.712,5.677,28.0
63.945,-3.976,5.745,33.0
69.946,-4.35,8.264,25.0
58.868,-3.645,6.621,33.0
58.851,-3.629,6.286,25.0
59.171,-3.633,5.98,33.0
59.124,-3.615,5.642,32.0
63.932,-3.893,5.741,36.0
70.206,-4.275,8.291,25.0
58.716,-3.56,6.6,33.0
58.93,-3.558,6.29,33.0
59.099,-3.552,5.968,33.0
59.163,-3.542,5.64,31.0
63.868,-3.808,5.729,38.0
65.043,-3.877,7.674,23.0
58.705,-3.484,6.592,33.0
59.018,-3.487,6.293,33.0
58.8,-3.459,5.931,33.0
59.294,-3.474,5.645,32.0
63.627,-3.712,5.699,38.0
59.014,-3.441,6.954,25.0
58.786,-3.412,6.593,33.0
58.438,-3.377,6.221,32.0
58.36,-3.357,5.876,32.0
59.014,-3.38,5.608,33.0
62.93,-3.589,5.625,37.0
58.97,-3.36,6.938,25.0
58.365,-3.311,6.534,19.0
58.305,-3.292,6.195,32.0
58.244,-3.274,5.852,32.0
57.925,-3.242,5.492,32.0
62.631,-3.49,5.584,19.0
58.097,-3.234,6.821,10.0
52.088,-2.886,5.818,26.0
58.354,-3.218,6.186,32.0
58.195,-3.194,5.832,32.0
57.296,-3.13,5.417,30.0
62.337,-3.391,5.541,8.0
52.008,-2.826,6.091,24.0
52.076,-2.817,5.802,19.0
58.627,-3.156,6.198,32.0
58.074,-3.111,5.802,32.0
56.844,-3.031,5.357,30.0
57.036,-3.028,5.051,26.0
52.044,-2.759,6.079,24.0
58.461,-3.084,6.494,8.0
58.921,-3.093,6.209,33.0
0.0,0.0,0.0,0.0
56.803,-2.953,5.333,30.0
62.19,-3.218,5.486,7.0
51.996,-2.686,6.054,29.0
52.046,-2.676,5.761,26.0
0.0,0.0,0.0,0.0
56.665,-2.884,5.62,31.0
57.044,-2.889,5.332,29.0
56.986,-2.873,5.003,9.0
51.944,-2.613,6.026,23.0
52.047,-2.605,5.739,26.0
46.761,-2.329,4.889,20.0
56.687,-2.809,5.597,31.0
56.898,-2.805,5.293,30.0
56.943,-2.793,4.974,18.0
51.91,-2.541,5.998,29.0
52.079,-2.536,5.718,26.0
46.786,-2.267,4.869,30.0
46.623,-2.247,4.581,21.0
47.193,-2.263,4.367,20.0
47.367,-2.26,4.113,9.0
51.977,-2.474,5.978,31.0
52.123,-2.467,5.696,20.0
46.77,-2.203,4.843,31.0
46.584,-2.182,4.552,45.0
47.092,-2.195,4.332,36.0
44.066,-2.043,3.803,35.0
51.934,-2.402,5.945,28.0
46.83,-2.154,5.091,19.0
46.724,-2.138,4.811,30.0
46.6,-2.121,4.527,41.0
46.904,-2.124,4.288,4.0
44.138,-1.988,3.783,37.0
51.834,-2.328,5.902,30.0
46.742,-2.088,5.053,20.0
46.74,-2.076,4.785,31.0
46.46,-2.053,4.485,29.0
44.297,-1.946,4.022,34.0
44.119,-1.928,3.754,36.0
51.844,-2.259,5.87,22.0
46.677,-2.022,5.016,33.0
46.882,-2.02,4.768,31.0
46.275,-1.983,4.436,35.0
44.262,-1.886,3.989,43.0
44.219,-1.874,3.732,38.0
51.757,-2.186,5.825,39.0
52.654,-2.211,5.622,28.0
46.666,-1.948,4.714,31.0
46.249,-1.92,4.401,36.0
44.309,-1.829,3.962,22.0
44.204,-1.814,3.7,42.0
51.854,-2.12,5.797,9.0
52.223,-2.123,5.537,26.0
46.838,-1.893,4.696,27.0
46.168,-1.855,4.358,15.0
44.333,-1.771,3.93,32.0
44.101,-1.751,3.657,38.0
44.82,-1.772,4.975,33.0
51.599,-2.028,5.43,25.0
46.724,-1.825,4.647,28.0
44.183,-1.716,4.136,33.0
46.689,-1.803,4.102,4.0
44.258,-1.699,3.634,34.0
44.705,-1.708,4.926,34.0
46.548,-1.768,4.86,19.0
46.622,-1.761,4.599,32.0
44.184,-1.658,4.099,25.0
44.128,-1.646,3.84,33.0
44.232,-1.641,3.595,39.0
44.594,-1.646,4.875,42.0
46.575,-1.708,4.823,30.0
46.781,-1.705,4.573,21.0
44.136,-1.598,4.055,37.0
43.945,-1.582,3.785,38.0
44.169,-1.58,3.55,43.0
44.824,-1.595,4.86,39.0
46.297,-1.637,4.751,20.0
46.446,-1.632,4.497,31.0
44.137,-1.541,4.015,23.0
43.778,-1.519,3.73,41.0
44.449,-1.532,3.531,33.0
44.762,-1.535,4.81,32.0
53.018,-1.806,5.39,6.0
46.569,-1.576,4.465,32.0
44.147,-1.484,3.973,32.0
43.814,-1.464,3.69,46.0
44.593,-1.48,3.499,37.0
44.107,-1.455,4.696,47.0
45.498,-1.491,4.58,21.0
46.728,-1.521,4.433,8.0
43.88,-1.419,3.905,27.0
43.7,-1.404,3.636,43.0
44.694,-1.427,3.462,41.0
44.177,-1.401,4.658,51.0
44.062,-1.388,4.39,18.0
43.605,-1.364,4.092,40.0
43.724,-1.359,3.845,45.0
43.905,-1.355,3.608,41.0
44.706,-1.371,3.416,34.0
44.117,-1.344,4.604,32.0
43.716,-1.322,4.309,30.0
43.97,-1.321,4.078,18.0
43.598,-1.301,3.787,40.0
43.808,-1.298,3.552,40.0
44.826,-1.319,3.376,30.0
44.203,-1.291,4.564,33.0
43.615,-1.265,4.249,27.0
43.577,-1.255,3.993,40.0
43.695,-1.249,3.746,44.0
43.892,-1.246,3.509,42.0
45.089,-1.271,3.344,25.0
44.796,-1.252,4.573,21.0
43.583,-1.209,4.195,31.0
43.608,-1.201,3.944,31.0
43.621,-1.193,3.688,40.0
44.368,-1.205,3.494,32.0
45.023,-1.214,3.286,19.0
45.582,-1.218,4.598,21.0
43.567,-1.156,4.141,23.0
43.515,-1.145,3.883,41.0
43.702,-1.142,3.642,36.0
44.405,-1.152,3.443,18.0
44.8,-1.154,3.214,14.0
45.95,-1.173,4.578,4.0
43.505,-1.101,4.081,21.0
43.516,-1.094,3.829,18.0
43.668,-1.089,3.584,43.0
44.869,-1.111,3.423,26.0
55.457,-1.362,3.91,7.0
43.694,-1.063,4.297,32.0
42.992,-1.038,3.978,35.0
43.904,-1.052,3.807,18.0
43.69,-1.038,3.53,30.0
44.891,-1.059,3.367,10.0
51.452,-1.204,3.561,19.0
43.578,-1.009,4.229,36.0
42.816,-0.983,3.905,46.0
43.791,-0.998,3.739,28.0
0.0,0.0,0.0,0.0
48.406,-1.086,3.567,1.0
50.348,-1.121,3.418,23.0
12.523,-1.2,-0.855,0.0
11.767,-1.13,-0.868,0.0
11.163,-1.074,-0.884,0.0
10.502,-1.013,-0.891,0.0
10.013,-0.968,-0.904,0.0
9.513,-0.922,-0.912,0.0
12.642,-1.223,-0.855,0.0
11.805,-1.145,-0.863,0.0
11.242,-1.092,-0.883,0.0
10.578,-1.03,-0.89,0.0
10.056,-0.982,-0.901,0.0
9.585,-0.938,-0.912,0.0
12.728,-1.243,-0.851,0.0
11.912,-1.166,-0.862,0.0
11.292,-1.107,-0.879,0.0
10.708,-1.052,-0.893,0.0
10.168,-1.001,-0.904,0.0
9.695,-0.957,-0.915,0.0
12.825,-1.264,-0.848,0.0
12.097,-1.194,-0.866,0.0
11.361,-1.124,-0.875,0.0
10.797,-1.07,-0.892,0.0
10.2,-1.013,-0.899,0.0
9.75,-0.971,-0.912,0.0
12.901,-1.282,-0.843,0.0
12.169,-1.212,-0.862,0.0
11.45,-1.142,-0.873,0.0
10.831,-1.083,-0.886,0.0
10.315,-1.033,-0.9,0.0
9.817,-0.985,-0.911,0.0
13.021,-1.305,-0.841,0.0
12.229,-1.227,-0.856,0.0
11.526,-1.159,-0.87,0.0
10.94,-1.102,-0.886,0.0
10.372,-1.047,-0.897,0.0
9.872,-0.998,-0.908,0.0
13.309,-1.344,-0.848,0.0
12.344,-1.248,-0.854,0.0
11.68,-1.183,-0.871,0.0
11.045,-1.121,-0.885,0.0
10.436,-1.061,-0.893,0.0
9.971,-1.016,-0.908,0.0
13.393,-1.362,-0.842,0.0
12.55,-1.278,-0.857,0.0
11.767,-1.201,-0.868,0.0
11.146,-1.139,-0.883,0.0
10.552,-1.08,-0.894,0.0
10.061,-1.032,-0.907,0.0
13.463,-1.379,-0.834,0.0
12.625,-1.295,-0.851,0.0
11.913,-1.224,-0.868,0.0
11.226,-1.155,-0.88,0.0
10.626,-1.095,-0.89,0.0
10.149,-1.048,-0.906,0.0
13.68,-1.41,-0.835,0.0
12.753,-1.316,-0.848,0.0
11.984,-1.239,-0.861,0.0
11.363,-1.176,-0.879,0.0
10.762,-1.116,-0.891,0.0
10.209,-1.06,-0.901,0.0
14.032,-1.455,-0.843,0.0
12.932,-1.343,-0.847,0.0
12.123,-1.261,-0.86,0.0
11.496,-1.197,-0.879,0.0
10.928,-1.14,-0.894,0.0
10.32,-1.078,-0.901,0.0
14.174,-1.478,-0.838,0.0
13.087,-1.366,-0.844,0.0
12.216,-1.277,-0.854,0.0
11.612,-1.216,-0.876,0.0
10.994,-1.153,-0.889,0.0
10.388,-1.091,-0.896,0.0
14.086,-1.477,-0.819,0.0
13.285,-1.394,-0.844,0.0
12.432,-1.306,-0.857,0.0
11.682,-1.229,-0.869,0.0
11.168,-1.177,-0.891,0.0
10.446,-1.102,-0.89,0.0
13.993,-1.474,-0.799,0.0
13.386,-1.412,-0.836,0.0
12.625,-1.333,-0.857,0.0
11.81,-1.248,-0.867,0.0
11.242,-1.19,-0.886,0.0
10.622,-1.126,-0.894,0.0
13.847,-1.465,-0.776,0.0
13.683,-1.449,-0.841,0.0
12.788,-1.356,-0.855,0.0
11.99,-1.273,-0.867,0.0
11.365,-1.208,-0.883,0.0
10.785,-1.147,-0.896,0.0
13.745,-1.46,-0.756,0.0
13.618,-1.448,-0.822,0.0
13.056,-1.39,-0.858,0.0
12.078,-1.287,-0.86,0.0
11.442,-1.22,-0.877,0.0
10.926,-1.166,-0.896,0.0
13.633,-1.453,-0.735,0.0
13.617,-1.453,-0.807,0.0
13.179,-1.407,-0.852,0.0
12.296,-1.314,-0.862,0.0
11.584,-1.239,-0.875,0.0
11.044,-1.183,-0.893,0.0
13.562,-1.45,-0.716,0.0
13.524,-1.447,-0.786,0.0
13.277,-1.422,-0.843,0.0
12.433,-1.333,-0.858,0.0
11.735,-1.259,-0.873,0.0
11.151,-1.198,-0.889,0.0
13.558,-1.454,-0.7,1.0
13.441,-1.442,-0.766,0.0
13.383,-1.437,-0.835,0.0
12.578,-1.352,-0.854,0.0
11.834,-1.273,-0.867,0.0
11.263,-1.212,-0.885,0.0
13.629,-1.465,-0.689,1.0
13.405,-1.442,-0.749,0.0
13.394,-1.442,-0.82,0.0
12.901,-1.39,-0.861,0.0
12.021,-1.296,-0.866,0.0
11.399,-1.23,-0.883,0.0
13.807,-1.487,-0.682,1.0
13.363,-1.44,-0.731,1.0
13.347,-1.439,-0.802,0.0
13.165,-1.42,-0.863,0.0
12.23,-1.32,-0.867,0.0
11.486,-1.241,-0.876,0.0
14.112,-1.522,-0.68,1.0
13.322,-1.438,-0.713,1.0
13.321,-1.438,-0.784,0.0
13.217,-1.428,-0.85,0.0
12.404,-1.341,-0.864,0.0
11.631,-1.258,-0.873,0.0
14.357,-1.551,-0.674,3.0
13.39,-1.447,-0.701,1.0
13.264,-1.434,-0.765,0.0
13.244,-1.432,-0.836,0.0
12.503,-1.353,-0.856,0.0
11.813,-1.279,-0.872,0.0
14.502,-1.567,-0.664,4.0
13.514,-1.461,-0.691,1.0
13.246,-1.433,-0.748,0.0
13.261,-1.435,-0.821,0.0
12.856,-1.392,-0.864,0.0
11.988,-1.298,-0.87,0.0
14.867,-1.607,-0.662,5.0
13.716,-1.483,-0.684,1.0
13.241,-1.432,-0.731,0.0
13.236,-1.432,-0.803,0.0
13.08,-1.416,-0.863,0.0
12.148,-1.315,-0.867,0.0
15.058,-1.628,-0.652,11.0
14.019,-1.516,-0.682,1.0
13.302,-1.439,-0.718,1.0
13.235,-1.432,-0.786,0.0
13.212,-1.429,-0.855,0.0
12.365,-1.338,-0.867,0.0
15.269,-1.65,-0.642,14.0
14.308,-1.546,-0.678,2.0
13.34,-1.442,-0.703,1.0
13.283,-1.436,-0.772,0.0
13.268,-1.434,-0.842,0.0
12.5,-1.352,-0.86,0.0
15.492,-1.673,-0.632,16.0
14.455,-1.561,-0.667,4.0
13.509,-1.459,-0.695,1.0
13.293,-1.435,-0.756,0.0
13.324,-1.439,-0.829,0.0
12.753,-1.377,-0.862,0.0
15.75,-1.698,-0.623,16.0
14.868,-1.603,-0.667,2.0
13.708,-1.478,-0.688,1.0
13.344,-1.439,-0.742,1.0
13.352,-1.439,-0.814,0.0
13.049,-1.407,-0.865,0.0
16.183,-1.742,-0.619,15.0
15.14,-1.63,-0.66,6.0
13.961,-1.502,-0.683,1.0
13.409,-1.443,-0.728,1.0
13.401,-1.442,-0.8,0.0
13.248,-1.425,-0.861,0.0
16.422,-1.764,-0.608,15.0
15.243,-1.637,-0.645,12.0
14.269,-1.532,-0.68,1.0
13.475,-1.446,-0.715,1.0
13.482,-1.447,-0.787,0.0
13.297,-1.427,-0.847,0.0
17.134,-1.836,-0.612,19.0
15.555,-1.666,-0.638,14.0
14.454,-1.548,-0.67,1.0
13.612,-1.457,-0.704,1.0
13.56,-1.451,-0.774,0.0
13.488,-1.443,-0.842,0.0
16.177,0.02,-0.806,0.0
14.955,0.016,-0.823,0.0
13.764,0.014,-0.829,0.0
12.966,0.011,-0.85,0.0
12.065,0.009,-0.854,0.0
11.357,0.007,-0.864,0.0
16.532,0.011,-0.793,0.0
15.256,0.008,-0.811,0.0
14.234,0.006,-0.831,0.0
13.412,0.004,-0.854,0.0
12.427,0.002,-0.856,0.0
11.586,0.001,-0.859,0.0
17.074,0.002,-0.786,0.0
15.729,0.0,-0.806,0.0
14.587,-0.001,-0.824,0.0
13.589,-0.002,-0.84,0.0
12.63,-0.003,-0.846,0.0
11.838,-0.004,-0.855,0.0
17.662,-0.006,-0.78,0.0
16.297,-0.007,-0.804,0.0
15.03,-0.008,-0.82,0.0
14.023,-0.009,-0.839,0.0
13.069,-0.01,-0.851,0.0
12.194,-0.01,-0.857,0.0
18.034,-0.015,-0.762,0.0
16.857,-0.016,-0.8,0.0
15.267,-0.016,-0.804,0.0
14.383,-0.016,-0.833,0.0
13.433,-0.016,-0.848,0.0
12.507,-0.016,-0.855,0.0
18.921,-0.024,-0.762,0.0
17.407,-0.024,-0.792,0.0
15.78,-0.023,-0.8,0.0
14.644,-0.023,-0.82,0.0
13.68,-0.022,-0.837,0.0
12.787,-0.022,-0.849,0.0
19.603,-0.033,-0.752,0.0
17.757,-0.031,-0.773,0.0
16.526,-0.031,-0.805,0.0
15.129,-0.029,-0.817,0.0
14.178,-0.029,-0.84,0.0
13.225,-0.028,-0.852,0.0
20.284,-0.042,-0.738,0.0
18.459,-0.039,-0.767,0.0
16.924,-0.037,-0.791,0.0
15.593,-0.036,-0.811,0.0
14.549,-0.034,-0.833,0.0
13.571,-0.033,-0.847,0.0
20.969,-0.05,-0.721,0.0
19.229,-0.047,-0.76,0.0
17.569,-0.045,-0.786,0.0
16.129,-0.042,-0.807,0.0
14.911,-0.04,-0.823,0.0
13.924,-0.038,-0.841,0.0
22.07,-0.06,-0.714,0.0
19.968,-0.055,-0.749,0.0
18.101,-0.051,-0.773,0.0
16.656,-0.048,-0.799,0.0
15.449,-0.046,-0.822,0.0
14.328,-0.043,-0.836,0.0
23.081,-0.069,-0.7,0.0
20.711,-0.063,-0.736,0.0
18.73,-0.058,-0.762,0.0
17.238,-0.054,-0.792,0.0
15.825,-0.051,-0.809,0.0
14.713,-0.048,-0.829,0.0
24.088,-0.077,-0.682,0.0
21.959,-0.071,-0.735,0.0
19.549,-0.065,-0.756,0.0
17.74,-0.059,-0.779,0.0
16.342,-0.056,-0.803,0.0
15.203,-0.052,-0.825,0.0
25.679,-0.087,-0.675,0.0
22.152,-0.076,-0.696,0.0
20.32,-0.071,-0.744,0.0
18.364,-0.065,-0.769,0.0
16.912,-0.06,-0.795,0.0
15.567,-0.056,-0.812,0.0
27.614,-0.098,-0.668,0.0
23.605,-0.085,-0.693,0.0
21.144,-0.077,-0.73,0.0
19.219,-0.07,-0.764,0.0
17.492,-0.065,-0.786,0.0
16.099,-0.06,-0.807,0.0
27.955,-0.103,-0.618,0.0
24.817,-0.092,-0.677,0.0
22.054,-0.083,-0.715,0.0
19.875,-0.075,-0.749,0.0
18.213,-0.069,-0.78,0.0
16.747,-0.064,-0.804,0.0
30.315,-0.114,-0.607,0.0
25.956,-0.098,-0.654,0.0
23.223,-0.088,-0.704,0.0
20.767,-0.08,-0.739,0.0
18.805,-0.072,-0.766,0.0
17.254,-0.067,-0.792,0.0
32.254,-0.123,-0.579,0.0
27.776,-0.106,-0.641,0.0
24.379,-0.094,-0.688,0.0
21.761,-0.084,-0.728,0.0
19.634,-0.076,-0.759,0.0
17.835,-0.069,-0.781,0.0
0.0,0.0,0.0,0.0
30.205,-0.116,-0.634,0.0
25.727,-0.099,-0.672,0.0
22.618,-0.087,-0.71,0.0
20.432,-0.079,-0.747,0.0
18.454,-0.071,-0.769,0.0
0.0,0.0,0.0,0.0
0.0,0.0,0.0,0.0
27.425,-0.104,-0.659,0.0
23.744,-0.09,-0.695,0.0
21.311,-0.081,-0.734,0.0
19.385,-0.074,-0.767,0.0
0.0,0.0,0.0,0.0
0.0,0.0,0.0,0.0
27.956,-0.104,-0.612,0.0
25.403,-0.094,-0.69,0.0
22.093,-0.082,-0.714,0.0
20.086,-0.074,-0.752,0.0
45.087,-0.164,-0.429,1.0
0.0,0.0,0.0,0.0
30.609,-0.11,-0.606,0.0
26.463,-0.095,-0.663,0.0
23.353,-0.083,-0.705,0.0
20.868,-0.074,-0.738,0.0
0.0,0.0,0.0,0.0
0.0,0.0,0.0,0.0
33.172,-0.114,-0.586,0.0
27.746,-0.095,-0.636,1.0
24.742,-0.084,-0.695,0.0
22.021,-0.074,-0.731,2.0
0.0,0.0,0.0,0.0
45.074,-0.148,-0.469,0.0
0.0,0.0,0.0,0.0
0.0,0.0,0.0,0.0
25.87,-0.083,-0.671,0.0
22.735,-0.072,-0.707,0.0
0.0,0.0,0.0,0.0
0.0,0.0,0.0,0.0
0.0,0.0,0.0,0.0
0.0,0.0,0.0,0.0
27.274,-0.08,-0.649,0.0
23.776,-0.069,-0.688,0.0
0.0,0.0,0.0,0.0
0.0,0.0,0.0,0.0
41.449,-0.114,-0.468,0.0
33.997,-0.092,-0.563,0.0
28.852,-0.077,-0.626,0.0
25.508,-0.067,-0.685,0.0
0.0,0.0,0.0,0.0
0.0,0.0,0.0,0.0
45.169,-0.11,-0.415,1.0
0.0,0.0,0.0,0.0
30.901,-0.072,-0.605,0.0
26.618,-0.061,-0.658,0.0
101.205,-0.224,0.324,1.0
0.0,0.0,0.0,0.0
0.0,0.0,0.0,0.0
41.267,-0.084,-0.508,0.0
32.649,-0.065,-0.57,0.0
0.0,0.0,0.0,0.0
110.616,-0.205,0.589,9.0
0.0,0.0,0.0,0.0
0.0,0.0,0.0,0.0
45.444,-0.075,-0.464,0.0
35.454,-0.056,-0.544,0.0
30.199,-0.046,-0.619,0.0
111.267,-0.161,0.826,12.0
0.0,0.0,0.0,0.0
0.0,0.0,0.0,0.0
45.468,-0.056,-0.369,0.0
0.0,0.0,0.0,0.0
32.287,-0.035,-0.594,0.0
117.389,-0.118,1.118,20.0
0.0,0.0,0.0,0.0
0.0,0.0,0.0,0.0
0.0,0.0,0.0,0.0
41.634,-0.028,-0.464,0.0
34.33,-0.021,-0.56,0.0
111.149,-0.058,1.293,9.0
110.876,-0.049,0.719,11.0
95.48,-0.034,0.127,1.0
0.0,0.0,0.0,0.0
45.316,-0.008,-0.41,1.0
37.328,-0.003,-0.53,0.0
111.116,-0.001,1.524,10.0
111.144,0.008,0.952,7.0
96.807,0.016,0.33,1.0
0.0,0.0,0.0,0.0
49.792,0.017,-0.347,0.0
0.0,0.0,0.0,0.0
111.126,0.06,1.756,5.0
111.159,0.07,1.183,15.0
110.592,0.081,0.608,6.0
0.0,0.0,0.0,0.0
0.0,0.0,0.0,0.0
45.49,0.047,-0.458,1.0
113.678,0.128,2.03,7.0
111.152,0.136,1.412,20.0
110.93,0.148,0.838,8.0
0.0,0.0,0.0,0.0
0.0,0.0,0.0,0.0
0.0,0.0,0.0,0.0
113.296,0.198,2.255,3.0
111.115,0.206,1.638,11.0
111.106,0.218,1.063,15.0
103.282,0.214,0.445,3.0
0.0,0.0,0.0,0.0
40.711,0.093,-0.245,0.0
113.149,0.272,2.482,6.0
119.897,0.301,2.011,17.0
111.21,0.293,1.29,14.0
110.712,0.304,0.701,7.0
0.0,0.0,0.0,0.0
0.0,0.0,0.0,0.0
112.577,0.348,2.697,6.0
119.905,0.385,2.253,3.0
119.877,0.4,1.634,22.0
110.998,0.384,0.927,9.0
94.69,0.34,0.302,2.0
0.0,0.0,0.0,0.0
119.825,0.458,3.113,27.0
119.843,0.474,2.494,23.0
119.88,0.489,1.874,20.0
111.092,0.467,1.15,21.0
104.096,0.452,0.54,6.0
0.0,0.0,0.0,0.0
111.184,0.51,3.112,1.0
111.144,0.524,2.533,9.0
111.141,0.539,1.959,23.0
111.051,0.554,1.37,27.0
110.899,0.568,0.794,10.0
88.065,0.464,0.175,5.0
111.109,0.597,3.327,23.0
111.113,0.612,2.751,25.0
111.076,0.628,2.176,26.0
111.086,0.644,1.588,31.0
111.069,0.66,1.013,19.0
0.0,0.0,0.0,0.0
111.045,0.689,3.545,20.0
111.059,0.705,2.969,26.0
111.077,0.722,2.394,27.0
111.06,0.739,1.806,20.0
101.626,0.691,1.124,1.0
104.709,0.728,0.617,9.0
104.669,0.74,3.545,17.0
104.826,0.757,3.007,18.0
104.802,0.773,2.461,25.0
104.772,0.789,1.907,2.0
100.72,0.775,1.311,1.0
104.785,0.822,0.82,23.0
69.708,0.556,2.496,9.0
104.682,0.851,3.206,22.0
104.726,0.868,2.662,29.0
101.166,0.855,2.037,1.0
100.176,0.863,1.496,3.0
104.791,0.92,1.022,4.0
104.561,0.931,3.946,20.0
69.832,0.633,2.272,10.0
104.709,0.967,2.862,36.0
100.269,0.943,2.209,1.0
104.727,1.002,1.763,20.0
98.731,0.961,1.148,24.0
97.946,0.967,3.882,23.0
69.803,0.701,2.403,8.0
98.779,1.008,2.886,21.0
98.7,1.025,2.36,22.0
98.669,1.041,1.845,27.0
98.588,1.057,1.331,25.0
98.652,1.071,4.093,15.0
69.822,0.77,2.533,11.0
98.715,1.107,3.067,21.0
98.605,1.123,2.539,20.0
98.556,1.14,2.025,29.0
98.545,1.157,1.512,31.0
98.609,1.172,4.276,20.0
98.606,1.189,3.759,17.0
98.395,1.206,3.239,22.0
98.571,1.225,2.72,30.0
98.564,1.244,2.206,31.0
98.556,1.261,1.691,28.0
98.828,1.279,4.465,17.0
98.285,1.29,3.927,21.0
98.37,1.31,3.416,14.0
98.46,1.329,2.896,30.0
98.546,1.349,2.383,28.0
98.584,1.368,1.869,29.0
45.83,3.726,0.772,43.0
45.825,3.714,0.513,43.0
45.792,3.701,0.254,34.0
45.464,3.663,-0.008,26.0
0.0,0.0,0.0,0.0
39.505,3.165,-0.453,7.0
45.96,3.66,0.739,11.0
45.961,3.649,0.48,17.0
45.898,3.633,0.22,22.0
45.391,3.582,-0.042,19.0
40.866,3.216,-0.268,11.0
40.077,3.144,-0.489,2.0
99.254,7.74,1.524,8.0
99.321,7.721,0.964,8.0
99.308,7.694,0.405,3.0
45.355,3.503,-0.074,17.0
40.976,3.155,-0.298,15.0
36.603,2.809,-0.472,0.0
100.256,7.646,1.468,8.0
100.341,7.627,0.904,10.0
52.209,3.955,0.176,5.0
45.302,3.42,-0.106,19.0
41.131,3.095,-0.328,5.0
36.579,2.744,-0.497,0.0
101.443,7.56,1.417,2.0
101.369,7.528,0.845,4.0
52.067,3.854,0.141,14.0
45.271,3.34,-0.135,19.0
41.343,3.039,-0.356,2.0
35.403,2.594,-0.504,0.0
102.215,7.438,1.362,12.0
52.253,3.789,0.402,18.0
51.916,3.751,0.108,16.0
45.264,3.258,-0.164,19.0
41.832,3.001,-0.386,2.0
35.281,2.522,-0.524,0.0
52.223,3.706,0.663,20.0
52.193,3.69,0.37,23.0
51.817,3.649,0.076,15.0
45.034,3.159,-0.19,19.0
42.446,2.967,-0.418,9.0
35.075,2.443,-0.542,0.0
52.203,3.609,0.632,37.0
52.18,3.593,0.34,21.0
51.727,3.549,0.046,15.0
44.815,3.062,-0.215,20.0
43.044,2.93,-0.447,0.0
33.626,2.281,-0.538,0.0
52.221,3.516,0.604,37.0
52.204,3.5,0.311,22.0
51.615,3.446,0.019,18.0
44.808,2.98,-0.238,19.0
41.039,2.718,-0.448,0.0
33.105,2.184,-0.547,0.0
52.312,3.425,0.579,36.0
52.259,3.407,0.285,18.0
51.527,3.346,-0.006,19.0
44.959,2.907,-0.261,15.0
39.559,2.547,-0.451,0.0
32.547,2.087,-0.553,0.0
110.412,7.023,1.169,8.0
52.406,3.319,0.261,6.0
51.499,3.247,-0.03,19.0
45.132,2.833,-0.283,11.0
38.131,2.383,-0.452,0.0
32.019,1.992,-0.558,0.0
111.097,6.857,1.127,62.0
52.431,3.221,0.239,10.0
51.473,3.147,-0.052,25.0
45.805,2.788,-0.307,15.0
37.976,2.301,-0.466,1.0
0.0,0.0,0.0,0.0
114.071,6.822,1.11,7.0
59.189,3.522,0.245,1.0
51.4,3.044,-0.073,22.0
46.44,2.737,-0.329,11.0
37.899,2.223,-0.48,0.0
31.495,1.839,-0.574,0.0
116.091,6.719,1.086,8.0
59.369,3.419,0.224,14.0
51.364,2.943,-0.091,19.0
47.373,2.7,-0.353,6.0
0.0,0.0,0.0,0.0
31.419,1.773,-0.584,0.0
59.35,3.319,0.535,21.0
59.279,3.298,0.204,18.0
51.347,2.841,-0.108,22.0
48.133,2.649,-0.374,0.0
0.0,0.0,0.0,0.0
30.806,1.677,-0.582,0.0
59.34,3.201,0.516,25.0
59.26,3.178,0.186,17.0
51.501,2.747,-0.124,21.0
46.561,2.47,-0.376,0.0
36.729,1.937,-0.5,0.0
0.0,0.0,0.0,0.0
91.848,1.723,0.84,23.0
84.343,1.553,0.312,4.0
0.0,0.0,0.0,0.0
0.0,0.0,0.0,0.0
39.446,0.686,-0.502,0.0
0.0,0.0,0.0,0.0
91.871,1.529,0.874,31.0
81.017,1.319,0.33,7.0
0.0,0.0,0.0,0.0
0.0,0.0,0.0,0.0
0.0,0.0,0.0,0.0
31.881,0.476,-0.566,0.0
98.601,1.434,0.978,22.0
85.203,1.21,0.382,10.0
0.0,0.0,0.0,0.0
0.0,0.0,0.0,0.0
40.781,0.537,-0.485,0.0
0.0,0.0,0.0,0.0
98.522,1.228,1.02,28.0
85.417,1.035,0.421,12.0
0.0,0.0,0.0,0.0
0.0,0.0,0.0,0.0
40.944,0.454,-0.468,1.0
0.0,0.0,0.0,0.0
98.618,1.021,1.069,24.0
97.978,0.981,0.531,5.0
0.0,0.0,0.0,0.0
52.872,0.493,-0.291,0.0
40.439,0.363,-0.441,0.0
0.0,0.0,0.0,0.0
100.704,0.835,1.144,3.0
97.924,0.777,0.582,7.0
85.622,0.651,0.045,1.0
0.0,0.0,0.0,0.0
40.654,0.281,-0.422,1.0
0.0,0.0,0.0,0.0
111.055,0.69,1.323,28.0
104.566,0.614,0.68,8.0
88.122,0.487,0.097,2.0
0.0,0.0,0.0,0.0
42.791,0.208,-0.419,0.0
0.0,0.0,0.0,0.0
119.76,0.498,1.497,12.0
110.788,0.422,0.787,6.0
0.0,0.0,0.0,0.0
0.0,0.0,0.0,0.0
42.896,0.118,-0.393,1.0
0.0,0.0,0.0,0.0
111.088,0.232,1.458,23.0
110.833,0.193,0.857,12.0
92.706,0.131,0.217,1.0
0.0,0.0,0.0,0.0
45.609,0.033,-0.389,2.0
36.492,0.014,-0.508,0.0
111.158,0.006,1.532,10.0
117.27,-0.031,0.985,7.0
98.659,-0.06,0.297,1.0
0.0,0.0,0.0,0.0
45.578,-0.058,-0.358,1.0
0.0,0.0,0.0,0.0
0.0,0.0,0.0,0.0
114.472,-0.261,1.041,150.0
102.763,-0.269,0.382,1.0
0.0,0.0,0.0,0.0
0.0,0.0,0.0,0.0
39.843,-0.144,-0.498,0.0
119.817,-0.475,1.822,27.0
119.705,-0.514,1.177,18.0
0.0,0.0,0.0,0.0
0.0,0.0,0.0,0.0
0.0,0.0,0.0,0.0
40.232,-0.226,-0.472,0.0
119.826,-0.715,1.914,27.0
119.723,-0.754,1.269,17.0
111.213,-0.736,0.582,6.0
0.0,0.0,0.0,0.0
0.0,0.0,0.0,0.0
41.442,-0.316,-0.453,0.0
119.756,-0.952,2.008,77.0
119.68,-0.991,1.365,18.0
114.294,-0.983,0.691,5.0
0.0,0.0,0.0,0.0
0.0,0.0,0.0,0.0
41.811,-0.401,-0.423,0.0
119.738,-1.187,2.108,150.0
119.748,-1.227,1.467,56.0
119.79,-1.266,0.825,8.0
0.0,0.0,0.0,0.0
0.0,0.0,0.0,0.0
47.017,-0.544,-0.435,0.0
204.34,-2.423,3.774,17.0
0.0,0.0,0.0,0.0
139.165,-1.746,1.083,20.0
0.0,0.0,0.0,0.0
0.0,0.0,0.0,0.0
46.817,-0.633,-0.39,0.0
41.28,-0.218,4.573,16.0
41.249,-0.212,4.328,44.0
41.237,-0.207,4.086,42.0
41.607,-0.203,3.876,43.0
41.31,-0.197,3.608,43.0
41.486,-0.193,3.383,46.0
41.178,-0.18,4.505,27.0
41.242,-0.175,4.27,39.0
41.6,-0.171,4.065,41.0
41.599,-0.166,3.818,35.0
41.386,-0.16,3.557,40.0
41.58,-0.155,3.332,47.0
41.182,-0.143,4.447,33.0
41.258,-0.138,4.213,38.0
41.805,-0.134,4.025,27.0
41.885,-0.129,3.784,36.0
41.639,-0.124,3.519,36.0
41.991,-0.12,3.304,42.0
41.352,-0.106,4.404,32.0
41.342,-0.102,4.161,42.0
41.717,-0.098,3.955,40.0
41.47,-0.092,3.686,36.0
41.444,-0.088,3.442,41.0
41.973,-0.085,3.242,31.0
41.575,-0.072,4.367,38.0
41.389,-0.067,4.104,45.0
42.021,-0.064,3.922,29.0
41.36,-0.058,3.614,45.0
41.546,-0.054,3.389,40.0
45.773,-0.055,3.468,26.0
41.503,-0.038,4.296,42.0
41.571,-0.034,4.06,43.0
42.22,-0.03,3.876,17.0
41.519,-0.025,3.565,39.0
41.669,-0.021,3.335,36.0
50.925,-0.02,3.779,1.0
41.332,-0.005,4.213,43.0
41.961,-0.001,4.032,31.0
42.051,0.002,3.795,17.0
41.483,0.006,3.497,48.0
41.706,0.01,3.273,13.0
50.11,0.017,3.641,3.0
41.341,0.026,4.149,48.0
42.353,0.03,4.003,27.0
41.546,0.033,3.684,27.0
41.488,0.037,3.432,39.0
47.822,0.048,3.677,10.0
60.707,0.066,4.315,6.0
41.388,0.056,4.088,40.0
42.149,0.061,3.915,25.0
41.536,0.064,3.616,40.0
41.693,0.067,3.382,37.0
45.701,0.078,3.44,11.0
67.871,0.122,4.714,9.0
41.395,0.085,4.02,42.0
41.48,0.089,3.785,27.0
41.552,0.093,3.548,43.0
41.767,0.097,3.319,31.0
45.665,0.109,3.362,5.0
60.483,0.15,4.1,10.0
41.759,0.115,3.986,30.0
41.399,0.117,3.708,37.0
41.451,0.12,3.47,45.0
41.874,0.125,3.256,40.0
47.799,0.146,3.439,20.0
60.386,0.19,3.991,22.0
41.684,0.141,3.907,34.0
41.548,0.144,3.65,38.0
41.652,0.147,3.416,42.0
45.758,0.165,3.48,9.0
47.751,0.176,3.353,8.0
60.295,0.227,3.882,7.0
41.387,0.166,3.807,41.0
41.527,0.169,3.576,42.0
41.707,0.173,3.347,44.0
45.653,0.192,3.392,42.0
60.771,0.261,4.161,20.0
60.247,0.262,3.774,18.0
41.49,0.19,3.743,37.0
41.553,0.194,3.505,47.0
41.829,0.197,3.284,10.0
45.682,0.218,3.314,15.0
66.756,0.324,4.454,12.0
71.754,0.352,4.369,5.0
41.608,0.214,3.68,30.0
41.782,0.218,3.45,50.0
41.881,0.22,3.213,11.0
68.222,0.363,4.828,6.0
60.515,0.326,3.928,6.0
70.338,0.382,4.156,4.0
41.474,0.235,3.593,47.0
41.862,0.24,3.38,16.0
47.621,0.275,3.567,6.0
60.809,0.354,4.193,24.0
67.926,0.399,4.287,3.0
80.433,0.477,4.607,9.0
41.439,1.346,-0.408,1.0
34.303,1.122,-0.534,0.0
28.642,0.943,-0.61,1.0
24.794,0.822,-0.673,0.0
21.629,0.722,-0.711,0.0
19.558,0.657,-0.755,0.0
40.785,1.382,-0.462,0.0
32.822,1.119,-0.56,0.0
27.575,0.947,-0.628,0.0
23.94,0.827,-0.685,0.0
21.069,0.733,-0.724,0.0
18.873,0.661,-0.757,0.0
37.486,1.323,-0.481,0.0
0.0,0.0,0.0,0.0
26.647,0.952,-0.648,0.0
23.045,0.828,-0.695,0.0
20.283,0.734,-0.728,0.0
18.624,0.678,-0.776,0.0
35.554,1.303,-0.511,0.0
29.952,1.104,-0.602,0.0
25.433,0.943,-0.657,0.0
22.382,0.834,-0.709,0.0
19.755,0.741,-0.739,0.0
17.991,0.679,-0.777,0.0
33.917,1.288,-0.54,0.0
28.328,1.081,-0.613,0.0
24.48,0.939,-0.671,0.0
21.536,0.831,-0.716,0.0
19.099,0.741,-0.745,0.0
17.397,0.679,-0.779,0.0
0.0,0.0,0.0,0.0
27.283,1.076,-0.634,0.0
23.532,0.933,-0.682,0.0
20.986,0.837,-0.731,0.0
18.711,0.75,-0.759,0.0
16.883,0.68,-0.782,0.0
30.35,1.229,-0.579,0.0
26.029,1.059,-0.646,0.0
22.867,0.935,-0.699,0.0
20.236,0.832,-0.736,0.0
18.104,0.747,-0.763,0.0
16.551,0.687,-0.793,0.0
28.907,1.206,-0.597,0.0
24.978,1.047,-0.659,0.0
21.98,0.925,-0.707,0.0
19.608,0.829,-0.745,0.0
17.748,0.754,-0.777,0.0
16.21,0.692,-0.803,0.0
27.956,1.199,-0.622,0.0
24.102,1.038,-0.675,0.0
21.335,0.923,-0.72,0.0
19.153,0.832,-0.759,0.0
17.169,0.749,-0.779,0.0
15.677,0.687,-0.802,0.0
26.621,1.172,-0.636,0.0
23.241,1.028,-0.689,0.0
20.562,0.913,-0.728,0.0
18.331,0.817,-0.756,0.0
16.762,0.75,-0.788,0.0
15.298,0.688,-0.808,0.0
25.567,1.154,-0.653,0.0
22.527,1.021,-0.705,0.0
19.967,0.909,-0.74,0.0
17.886,0.817,-0.768,0.0
16.287,0.747,-0.793,0.0
15.005,0.691,-0.817,0.0
24.66,1.14,-0.67,0.0
21.568,1.001,-0.71,0.0
19.299,0.899,-0.747,0.0
17.333,0.81,-0.772,0.0
15.802,0.741,-0.795,0.0
14.571,0.686,-0.818,0.0
23.276,1.1,-0.672,0.0
20.85,0.989,-0.721,0.0
18.803,0.895,-0.759,0.0
16.874,0.806,-0.78,0.0
15.563,0.746,-0.81,0.0
14.346,0.69,-0.829,0.0
22.732,1.097,-0.693,0.0
20.145,0.975,-0.731,0.0
18.125,0.88,-0.762,0.0
16.481,0.803,-0.79,0.0
15.075,0.737,-0.809,0.0
13.96,0.685,-0.83,0.0
21.856,1.075,-0.704,0.0
19.52,0.963,-0.741,0.0
17.584,0.871,-0.769,0.0
15.986,0.794,-0.793,0.0
14.698,0.732,-0.814,0.0
13.696,0.685,-0.838,0.0
21.138,1.059,-0.716,0.0
18.936,0.951,-0.75,0.0
17.147,0.864,-0.778,0.0
15.688,0.793,-0.804,0.0
14.37,0.729,-0.82,0.0
13.364,0.68,-0.84,0.0
22.116,-0.346,-0.708,0.0
20.03,-0.313,-0.744,0.0
18.226,-0.284,-0.772,0.0
16.665,-0.26,-0.793,0.0
15.507,-0.241,-0.819,0.0
14.41,-0.224,-0.835,0.0
23.386,-0.36,-0.702,0.0
20.88,-0.321,-0.734,0.0
18.924,-0.29,-0.763,0.0
17.322,-0.265,-0.79,0.0
16.006,-0.244,-0.813,0.0
14.804,-0.225,-0.828,0.0
24.528,-0.37,-0.687,0.0
21.777,-0.328,-0.722,0.0
19.751,-0.297,-0.757,0.0
17.928,-0.269,-0.781,0.0
16.508,-0.247,-0.805,0.0
15.214,-0.227,-0.82,0.0
26.046,-0.384,-0.676,0.0
22.81,-0.336,-0.71,0.0
20.189,-0.296,-0.733,0.0
18.408,-0.269,-0.765,0.0
16.935,-0.247,-0.791,0.0
15.678,-0.228,-0.814,0.0
26.824,-0.386,-0.643,0.0
23.665,-0.339,-0.689,0.0
21.413,-0.306,-0.734,0.0
19.277,-0.274,-0.762,0.0
17.706,-0.251,-0.791,0.0
16.172,-0.228,-0.806,0.0
0.0,0.0,0.0,0.0
24.899,-0.346,-0.675,0.0
22.298,-0.309,-0.719,0.0
20.031,-0.276,-0.751,0.0
18.245,-0.25,-0.779,0.0
16.752,-0.229,-0.801,0.0
30.683,-0.415,-0.611,0.0
26.45,-0.356,-0.663,0.0
23.208,-0.311,-0.701,0.0
20.759,-0.276,-0.737,0.0
18.782,-0.249,-0.764,0.0
17.247,-0.227,-0.79,0.0
0.0,0.0,0.0,0.0
28.114,-0.364,-0.648,0.0
24.455,-0.315,-0.69,0.0
21.698,-0.278,-0.726,0.0
19.577,-0.249,-0.756,0.0
17.89,-0.226,-0.783,0.0
0.0,0.0,0.0,0.0
29.482,-0.366,-0.62,0.0
25.9,-0.32,-0.678,0.0
22.711,-0.278,-0.714,0.0
20.614,-0.251,-0.754,0.0
18.418,-0.222,-0.769,0.0
0.0,0.0,0.0,0.0
31.269,-0.37,-0.594,0.0
27.09,-0.318,-0.654,0.0
23.725,-0.277,-0.698,0.0
21.139,-0.245,-0.731,0.0
19.143,-0.22,-0.761,0.0
40.237,-0.456,-0.476,0.0
33.223,-0.373,-0.564,0.0
28.642,-0.319,-0.634,0.0
24.772,-0.273,-0.679,0.0
22.274,-0.244,-0.725,0.0
20.005,-0.217,-0.755,0.0
45.279,-0.484,-0.445,0.0
35.873,-0.38,-0.538,0.0
0.0,0.0,0.0,0.0
26.388,-0.274,-0.67,0.0
23.087,-0.237,-0.706,0.0
20.694,-0.21,-0.739,0.0
0.0,0.0,0.0,0.0
0.0,0.0,0.0,0.0
0.0,0.0,0.0,0.0
27.669,-0.267,-0.647,0.0
24.221,-0.231,-0.691,0.0
21.627,-0.204,-0.729,1.0
0.0,0.0,0.0,0.0
41.409,-0.38,-0.455,0.0
34.545,-0.313,-0.558,0.0
29.246,-0.261,-0.626,0.0
25.641,-0.226,-0.681,0.0
22.538,-0.196,-0.715,0.0
0.0,0.0,0.0,0.0
0.0,0.0,0.0,0.0
0.0,0.0,0.0,0.0
30.634,-0.25,-0.595,0.0
26.81,-0.215,-0.659,0.0
23.689,-0.187,-0.705,0.0
0.0,0.0,0.0,0.0
0.0,0.0,0.0,0.0
0.0,0.0,0.0,0.0
0.0,0.0,0.0,0.0
28.514,-0.206,-0.645,0.0
24.727,-0.175,-0.688,0.0
72.247,2.555,3.747,28.0
72.408,2.58,3.366,31.0
72.445,2.601,2.98,36.0
72.446,2.62,2.584,27.0
72.481,2.641,2.198,24.0
50.099,1.838,1.25,4.0
66.291,2.456,3.512,22.0
66.268,2.473,3.155,26.0
72.518,2.725,3.062,13.0
190.716,7.22,7.012,20.0
210.801,8.036,6.62,8.0
49.866,1.914,1.298,11.0
72.78,2.819,3.934,7.0
66.241,2.584,3.224,16.0
66.143,2.597,2.863,26.0
66.157,2.615,2.501,24.0
210.065,8.361,6.815,8.0
49.745,1.992,1.346,14.0
65.741,2.658,3.622,42.0
65.972,2.685,3.279,28.0
66.016,2.705,2.926,28.0
66.02,2.723,2.563,33.0
66.06,2.742,2.209,36.0
49.888,2.084,1.4,12.0
65.637,2.768,3.683,42.0
65.945,2.798,3.343,26.0
65.957,2.816,2.988,13.0
65.997,2.835,2.627,14.0
66.036,2.855,2.273,28.0
50.052,2.177,1.453,12.0
41.748,1.832,2.382,2.0
52.873,2.334,2.731,4.0
66.028,2.932,3.053,6.0
52.617,2.35,2.144,5.0
66.183,2.974,2.339,3.0
50.192,2.269,1.503,13.0
41.704,1.902,2.418,26.0
52.92,2.428,2.782,22.0
52.762,2.434,2.488,4.0
52.897,2.455,2.203,26.0
52.769,2.463,1.912,0.0
50.24,2.359,1.549,15.0
41.676,1.973,2.453,31.0
59.459,2.831,3.178,18.0
59.445,2.846,2.854,29.0
52.886,2.545,2.247,20.0
0.0,0.0,0.0,0.0
50.328,2.449,1.593,16.0
41.464,2.035,2.476,34.0
59.524,2.937,3.231,11.0
52.51,2.605,2.565,20.0
59.424,2.963,2.574,15.0
59.458,2.981,2.253,28.0
50.401,2.541,1.637,20.0
41.302,2.099,2.499,24.0
41.599,2.125,2.291,7.0
52.702,2.706,2.616,26.0
59.386,3.066,2.619,14.0
59.401,3.082,2.296,38.0
50.455,2.631,1.677,20.0
40.935,2.153,2.508,48.0
59.35,3.137,3.314,19.0
59.343,3.152,2.99,7.0
52.492,2.802,2.353,26.0
59.44,3.189,2.342,27.0
50.516,2.724,1.716,18.0
40.989,2.228,2.541,41.0
41.569,2.271,2.35,16.0
52.669,2.89,2.691,22.0
52.497,2.895,2.391,26.0
119.673,6.63,4.798,27.0
50.531,2.813,1.75,15.0
41.076,2.305,2.575,37.0
41.628,2.347,2.382,26.0
52.326,2.964,2.709,17.0
52.479,2.986,2.424,4.0
119.422,6.828,4.866,15.0
50.569,2.904,1.785,11.0
41.468,2.401,2.627,16.0
41.597,2.418,2.407,19.0
52.487,3.065,2.75,26.0
91.417,5.363,4.28,12.0
115.426,6.8,4.773,25.0
50.323,2.978,1.806,6.0
41.445,2.472,2.65,38.0
41.453,2.483,2.423,34.0
52.943,3.185,2.805,4.0
115.379,6.971,5.468,8.0
115.456,7.006,4.84,24.0
49.969,3.045,1.822,5.0
41.606,2.556,2.684,26.0
41.43,2.555,2.444,36.0
52.861,3.273,2.829,26.0
90.101,5.602,4.319,13.0
111.045,6.932,4.713,10.0
49.873,3.126,1.844,5.0
41.475,2.619,2.696,25.0
41.54,2.633,2.472,40.0
52.262,3.326,2.823,35.0
52.301,3.342,2.532,33.0
52.365,3.359,2.248,26.0
52.408,3.375,1.962,7.0
52.202,3.387,3.418,6.0
41.579,2.708,2.493,41.0
52.257,3.416,2.846,42.0
52.24,3.428,2.552,40.0
52.251,3.442,2.266,46.0
52.232,3.455,1.978,32.0
41.538,2.768,2.738,30.0
52.288,3.496,3.158,5.0
52.277,3.509,2.869,29.0
52.241,3.519,2.574,26.0
52.229,3.531,2.286,41.0
52.216,3.544,1.998,37.0
41.58,2.842,2.757,30.0
41.561,2.851,2.526,41.0
52.31,3.601,2.89,25.0
52.321,3.614,2.597,19.0
52.281,3.624,2.307,24.0
52.282,3.637,2.019,19.0
41.881,2.935,2.792,23.0
41.593,2.924,2.542,40.0
74.355,5.245,4.133,7.0
90.403,6.4,4.517,12.0
90.519,6.429,4.022,17.0
90.497,6.451,3.522,6.0
41.854,3.005,2.802,31.0
52.503,3.781,3.225,9.0
80.67,5.83,4.508,10.0
81.099,5.879,4.075,10.0
90.478,6.582,4.046,13.0
90.599,6.612,3.552,20.0
41.903,3.079,2.817,39.0
81.614,6.017,5.034,26.0
79.096,5.85,4.44,14.0
72.094,5.349,3.64,6.0
71.443,5.318,3.212,10.0
90.656,6.77,3.574,24.0
45.94,3.455,3.099,36.0
81.961,6.182,5.073,12.0
79.436,6.01,4.476,17.0
91.371,6.935,4.632,16.0
71.44,5.439,3.226,21.0
91.189,6.964,3.612,12.0
45.93,3.532,3.107,6.0
45.929,3.542,2.851,19.0
45.984,3.557,2.599,20.0
45.952,3.564,2.337,11.0
71.78,5.585,3.252,19.0
72.158,5.63,2.869,17.0
45.945,3.609,3.114,12.0
45.853,3.612,2.853,15.0
45.887,3.624,2.599,16.0
45.852,3.632,2.337,16.0
45.882,3.645,2.084,26.0
45.877,3.655,1.829,31.0
45.731,3.668,3.104,28.0
45.766,3.68,2.851,41.0
45.808,3.694,2.599,40.0
45.806,3.703,2.339,44.0
45.815,3.715,2.084,44.0
45.818,3.725,1.83,40.0
45.677,3.739,3.103,10.0
45.744,3.754,2.852,46.0
45.785,3.767,2.6,40.0
45.801,3.778,2.34,39.0
45.796,3.788,2.085,41.0
45.809,3.799,1.83,40.0
41.75,3.485,2.838,32.0
45.76,3.829,2.854,38.0
45.806,3.843,2.601,37.0
45.835,3.855,2.342,35.0
45.847,3.866,2.087,34.0
45.851,3.877,1.832,27.0
45.85,3.902,3.115,8.0
45.787,3.905,2.855,28.0
45.862,3.921,2.602,27.0
45.945,3.938,2.346,5.0
91.846,7.892,4.177,12.0
96.326,8.297,3.842,18.0
45.273,3.924,3.073,21.0
45.861,3.984,2.856,34.0
85.296,7.427,4.834,16.0
85.95,7.502,4.382,13.0
92.036,8.053,4.177,23.0
93.113,8.167,3.706,53.0
41.705,3.681,2.827,14.0
73.263,6.481,4.555,10.0
84.667,7.506,4.79,40.0
85.498,7.597,4.349,23.0
92.229,8.213,4.175,14.0
93.041,8.305,3.691,13.0
41.736,3.748,2.824,25.0
72.53,6.528,4.499,18.0
84.88,7.655,4.789,30.0
85.502,7.728,4.336,25.0
92.961,8.421,4.193,23.0
93.044,8.448,3.675,26.0
41.738,3.812,2.816,11.0
72.635,6.648,4.493,17.0
84.695,7.768,4.762,30.0
85.429,7.852,4.315,33.0
93.027,8.569,4.177,21.0
92.973,8.583,3.653,21.0
44.59,4.14,2.999,34.0
72.68,6.762,4.479,12.0
84.636,7.89,4.74,17.0
85.356,7.972,4.291,13.0
92.498,8.657,4.131,12.0
92.236,8.651,3.602,15.0
44.049,4.155,2.951,20.0
73.005,6.9,4.48,24.0
73.716,6.98,4.109,20.0
91.866,8.716,4.594,15.0
91.678,8.716,4.069,14.0
