X,Y,Z,Reflectivity
10.682,0.212,-0.871,0.0
10.096,0.2,-0.883,0.0
9.667,0.192,-0.902,0.0
9.202,0.182,-0.913,0.0
11.754,0.23,-0.841,0.0
11.173,0.218,-0.865,0.0
10.465,0.204,-0.871,0.0
9.946,0.193,-0.887,0.0
9.517,0.185,-0.904,0.0
9.033,0.175,-0.911,0.0
11.542,0.221,-0.845,0.0
10.997,0.21,-0.869,0.0
10.32,0.197,-0.876,0.0
9.853,0.187,-0.895,0.0
9.341,0.177,-0.903,0.0
8.916,0.169,-0.914,0.0
11.403,0.213,-0.854,1.0
10.752,0.2,-0.868,0.0
10.234,0.19,-0.886,0.0
9.717,0.18,-0.899,0.0
9.244,0.171,-0.909,0.0
8.796,0.162,-0.916,0.0
11.254,0.205,-0.861,0.0
10.551,0.191,-0.869,0.0
10.043,0.182,-0.885,0.0
9.635,0.174,-0.907,0.0
9.097,0.164,-0.909,0.0
8.667,0.155,-0.917,0.0
11.079,0.196,-0.865,0.0
10.411,0.183,-0.874,0.0
9.901,0.174,-0.889,0.0
9.431,0.165,-0.903,0.0
8.945,0.156,-0.908,0.0
8.522,0.148,-0.915,0.0
10.869,0.186,-0.866,0.0
10.275,0.175,-0.878,0.0
9.815,0.167,-0.896,0.0
9.292,0.157,-0.904,0.0
8.856,0.149,-0.913,0.0
8.509,0.143,-0.927,0.0
10.693,0.177,-0.869,0.0
10.184,0.168,-0.887,0.0
9.693,0.159,-0.9,0.0
9.166,0.15,-0.906,0.0
8.759,0.142,-0.917,0.0
8.386,0.136,-0.927,0.0
10.487,0.167,-0.868,0.0
10.018,0.159,-0.887,0.0
9.549,0.151,-0.901,0.0
9.093,0.143,-0.912,0.0
8.645,0.135,-0.918,0.0
8.26,0.129,-0.925,0.0
10.39,0.159,-0.875,0.0
9.912,0.151,-0.892,0.0
9.385,0.142,-0.9,0.0
0.0,0.0,0.0,0.0
8.494,0.127,-0.914,0.0
8.175,0.122,-0.928,0.0
10.259,0.15,-0.879,0.0
9.754,0.142,-0.892,0.0
9.293,0.134,-0.904,0.0
8.839,0.127,-0.912,0.0
8.469,0.121,-0.924,0.0
8.081,0.115,-0.929,0.0
10.147,0.141,-0.884,0.0
9.69,0.134,-0.9,0.0
9.228,0.127,-0.911,0.0
0.0,0.0,0.0,0.0
8.359,0.113,-0.923,0.0
7.954,0.107,-0.925,0.0
9.992,0.132,-0.884,0.0
9.517,0.125,-0.897,0.0
9.042,0.117,-0.905,0.0
0.0,0.0,0.0,0.0
8.264,0.106,-0.924,0.0
7.887,0.1,-0.928,0.0
9.885,0.123,-0.888,0.0
9.388,0.116,-0.898,0.0
8.96,0.109,-0.909,0.0
0.0,0.0,0.0,0.0
8.231,0.099,-0.932,0.0
7.87,0.094,-0.937,0.0
9.801,0.114,-0.893,0.0
9.327,0.108,-0.904,0.0
8.927,0.102,-0.917,0.0
0.0,0.0,0.0,0.0
0.0,0.0,0.0,0.0
7.804,0.087,-0.939,0.0
9.668,0.105,-0.893,0.0
9.252,0.099,-0.909,0.0
8.846,0.094,-0.92,0.0
0.0,0.0,0.0,0.0
8.08,0.084,-0.935,0.0
7.695,0.079,-0.936,0.0
9.625,0.096,-0.901,0.0
9.143,0.09,-0.909,0.0
8.714,0.085,-0.917,0.0
8.366,0.081,-0.93,0.0
7.96,0.076,-0.931,0.0
7.64,0.072,-0.938,0.0
9.449,0.086,-0.896,0.0
9.085,0.082,-0.914,0.0
0.0,0.0,0.0,0.0
8.234,0.072,-0.925,0.0
7.898,0.068,-0.933,0.0
7.57,0.065,-0.939,0.0
9.368,0.077,-0.899,0.0
8.987,0.073,-0.915,0.0
8.529,0.068,-0.917,0.0
0.0,0.0,0.0,0.0
7.869,0.061,-0.939,0.0
7.506,0.057,-0.939,0.0
9.296,0.068,-0.903,0.0
8.887,0.064,-0.914,0.0
8.457,0.06,-0.919,0.0
0.0,0.0,0.0,0.0
7.75,0.053,-0.933,0.0
7.401,0.05,-0.934,0.0
9.194,0.059,-0.903,0.0
8.79,0.055,-0.914,0.0
8.378,0.052,-0.92,0.0
0.0,0.0,0.0,0.0
7.71,0.046,-0.937,0.0
7.401,0.043,-0.942,0.0
9.101,0.05,-0.903,0.0
8.741,0.047,-0.918,0.0
8.36,0.044,-0.926,0.0
0.0,0.0,0.0,0.0
7.648,0.038,-0.937,0.0
0.0,0.0,0.0,0.0
9.116,0.041,-0.914,0.0
0.0,0.0,0.0,0.0
8.295,0.035,-0.927,0.0
0.0,0.0,0.0,0.0
7.619,0.03,-0.941,0.0
7.238,0.028,-0.936,0.0
8.956,0.032,-0.907,0.0
8.574,0.029,-0.917,0.0
8.182,0.027,-0.923,0.0
0.0,0.0,0.0,0.0
7.53,0.022,-0.937,0.0
7.286,0.021,-0.949,0.0
8.921,0.023,-0.911,0.0
8.523,0.02,-0.92,0.0
8.196,0.018,-0.932,0.0
0.0,0.0,0.0,0.0
7.479,0.014,-0.938,0.0
7.191,0.013,-0.943,0.0
8.845,0.013,-0.911,0.0
8.437,0.012,-0.918,0.0
8.076,0.01,-0.925,0.0
0.0,0.0,0.0,0.0
0.0,0.0,0.0,0.0
7.133,0.005,-0.942,0.0
8.772,0.004,-0.911,0.0
8.429,0.003,-0.924,0.0
8.039,0.001,-0.928,0.0
7.683,0.0,-0.932,0.0
0.0,0.0,0.0,0.0
7.149,-0.001,-0.95,0.0
8.759,-0.004,-0.917,0.0
8.338,-0.005,-0.921,0.0
7.985,-0.006,-0.928,0.0
0.0,0.0,0.0,0.0
0.0,0.0,0.0,0.0
0.0,0.0,0.0,0.0
8.684,-0.013,-0.916,0.0
8.291,-0.014,-0.922,0.0
7.95,-0.014,-0.93,0.0
7.607,-0.015,-0.934,0.0
0.0,0.0,0.0,0.0
7.09,-0.016,-0.953,0.0
8.651,-0.022,-0.918,0.0
8.257,-0.023,-0.924,0.0
7.923,-0.023,-0.932,0.0
7.615,-0.023,-0.94,0.0
0.0,0.0,0.0,0.0
7.022,-0.024,-0.948,0.0
8.582,-0.032,-0.917,0.0
8.225,-0.032,-0.926,0.0
7.88,-0.032,-0.932,0.0
7.46,-0.031,-0.926,0.0
0.0,0.0,0.0,0.0
6.967,-0.031,-0.946,0.0
8.502,-0.041,-0.914,0.0
8.169,-0.04,-0.925,0.0
7.851,-0.04,-0.934,0.0
0.0,0.0,0.0,0.0
0.0,0.0,0.0,0.0
0.0,0.0,0.0,0.0
8.463,-0.05,-0.914,0.0
8.127,-0.049,-0.924,0.0
7.807,-0.049,-0.933,0.0
0.0,0.0,0.0,0.0
0.0,0.0,0.0,0.0
0.0,0.0,0.0,0.0
8.427,-0.059,-0.915,0.0
8.062,-0.058,-0.921,0.0
7.791,-0.057,-0.935,0.0
0.0,0.0,0.0,0.0
0.0,0.0,0.0,0.0
0.0,0.0,0.0,0.0
8.441,-0.069,-0.921,0.0
8.025,-0.067,-0.921,0.0
7.788,-0.066,-0.938,0.0
0.0,0.0,0.0,0.0
0.0,0.0,0.0,0.0
0.0,0.0,0.0,0.0
8.459,-0.079,-0.926,0.0
8.077,-0.076,-0.931,0.0
7.716,-0.074,-0.933,0.0
0.0,0.0,0.0,0.0
0.0,0.0,0.0,0.0
0.0,0.0,0.0,0.0
8.371,-0.087,-0.92,0.0
8.008,-0.085,-0.926,0.0
7.763,-0.084,-0.942,0.0
0.0,0.0,0.0,0.0
0.0,0.0,0.0,0.0
0.0,0.0,0.0,0.0
8.362,-0.097,-0.922,0.0
8.003,-0.094,-0.928,0.0
7.682,-0.092,-0.935,0.0
0.0,0.0,0.0,0.0
0.0,0.0,0.0,0.0
6.826,-0.085,-0.948,0.0
8.335,-0.106,-0.922,0.0
8.0,-0.103,-0.93,0.0
0.0,0.0,0.0,0.0
7.403,-0.098,-0.946,0.0
0.0,0.0,0.0,0.0
0.0,0.0,0.0,0.0
8.315,-0.115,-0.921,0.0
7.978,-0.112,-0.929,0.0
7.654,-0.109,-0.935,0.0
0.0,0.0,0.0,0.0
0.0,0.0,0.0,0.0
6.824,-0.101,-0.951,0.0
8.278,-0.124,-0.919,0.0
7.943,-0.121,-0.927,0.0
0.0,0.0,0.0,0.0
0.0,0.0,0.0,0.0
0.0,0.0,0.0,0.0
6.862,-0.11,-0.958,0.0
8.307,-0.134,-0.924,0.0
8.023,-0.131,-0.938,0.0
7.599,-0.126,-0.931,0.0
0.0,0.0,0.0,0.0
7.027,-0.119,-0.942,0.0
0.0,0.0,0.0,0.0
8.25,-0.143,-0.919,0.0
7.993,-0.14,-0.935,0.0
7.596,-0.135,-0.932,0.0
0.0,0.0,0.0,0.0
7.05,-0.128,-0.945,0.0
0.0,0.0,0.0,0.0
8.312,-0.154,-0.926,0.0
7.942,-0.148,-0.93,0.0
7.659,-0.145,-0.94,0.0
0.0,0.0,0.0,0.0
0.0,0.0,0.0,0.0
0.0,0.0,0.0,0.0
8.262,-0.162,-0.921,0.0
7.891,-0.156,-0.924,0.0
7.606,-0.152,-0.933,0.0
0.0,0.0,0.0,0.0
0.0,0.0,0.0,0.0
0.0,0.0,0.0,0.0
8.278,-0.172,-0.922,0.0
8.028,-0.168,-0.94,0.0
0.0,0.0,0.0,0.0
0.0,0.0,0.0,0.0
7.043,-0.152,-0.944,0.0
6.81,-0.148,-0.952,0.0
8.305,-0.182,-0.925,0.0
7.973,-0.176,-0.933,0.0
0.0,0.0,0.0,0.0
0.0,0.0,0.0,0.0
0.0,0.0,0.0,0.0
6.843,-0.157,-0.956,0.0
8.314,-0.191,-0.925,0.0
7.94,-0.184,-0.928,0.0
0.0,0.0,0.0,0.0
0.0,0.0,0.0,0.0
0.0,0.0,0.0,0.0
6.84,-0.165,-0.954,0.0
8.315,-0.201,-0.924,0.0
8.0,-0.195,-0.934,0.0
0.0,0.0,0.0,0.0
0.0,0.0,0.0,0.0
7.092,-0.177,-0.948,0.0
0.0,0.0,0.0,0.0
8.389,-0.212,-0.93,0.0
8.006,-0.204,-0.933,0.0
0.0,0.0,0.0,0.0
0.0,0.0,0.0,0.0
0.0,0.0,0.0,0.0
0.0,0.0,0.0,0.0
8.359,-0.22,-0.925,0.0
7.987,-0.212,-0.928,0.0
0.0,0.0,0.0,0.0
0.0,0.0,0.0,0.0
0.0,0.0,0.0,0.0
0.0,0.0,0.0,0.0
8.358,-0.23,-0.922,0.0
8.029,-0.222,-0.931,0.0
0.0,0.0,0.0,0.0
0.0,0.0,0.0,0.0
0.0,0.0,0.0,0.0
6.899,-0.197,-0.955,0.0
8.368,-0.239,-0.921,0.0
7.993,-0.23,-0.924,0.0
0.0,0.0,0.0,0.0
0.0,0.0,0.0,0.0
7.133,-0.21,-0.945,0.0
0.0,0.0,0.0,0.0
8.408,-0.249,-0.922,0.0
8.104,-0.242,-0.934,0.0
0.0,0.0,0.0,0.0
0.0,0.0,0.0,0.0
7.198,-0.219,-0.95,0.0
6.952,-0.213,-0.957,0.0
8.466,-0.26,-0.925,0.0
8.055,-0.249,-0.924,0.0
0.0,0.0,0.0,0.0
0.0,0.0,0.0,0.0
7.151,-0.225,-0.941,0.0
6.928,-0.22,-0.95,0.0
8.502,-0.27,-0.924,0.0
8.106,-0.259,-0.926,0.0
7.797,-0.25,-0.934,0.0
0.0,0.0,0.0,0.0
0.0,0.0,0.0,0.0
6.968,-0.228,-0.952,0.0
8.508,-0.279,-0.921,0.0
8.139,-0.268,-0.926,0.0
7.849,-0.26,-0.936,0.0
0.0,0.0,0.0,0.0
0.0,0.0,0.0,0.0
6.989,-0.236,-0.951,0.0
8.56,-0.289,-0.922,0.0
8.181,-0.278,-0.926,0.0
7.891,-0.27,-0.937,0.0
7.567,-0.26,-0.941,0.0
7.311,-0.253,-0.95,0.0
7.039,-0.245,-0.954,0.0
8.559,-0.298,-0.916,0.0
8.236,-0.288,-0.927,0.0
7.902,-0.278,-0.933,0.0
0.0,0.0,0.0,0.0
0.0,0.0,0.0,0.0
7.038,-0.252,-0.949,0.0
8.626,-0.308,-0.918,0.0
8.237,-0.296,-0.922,0.0
7.957,-0.287,-0.935,0.0
7.617,-0.277,-0.937,0.0
7.36,-0.269,-0.947,0.0
7.064,-0.259,-0.948,0.0
8.677,-0.318,-0.918,0.0
8.356,-0.308,-0.929,0.0
7.991,-0.296,-0.933,0.0
0.0,0.0,0.0,0.0
7.37,-0.276,-0.943,0.0
7.119,-0.268,-0.95,0.0
8.773,-0.33,-0.921,0.0
8.339,-0.315,-0.921,0.0
8.036,-0.306,-0.932,0.0
0.0,0.0,0.0,0.0
0.0,0.0,0.0,0.0
7.157,-0.276,-0.95,0.0
8.79,-0.339,-0.916,0.0
8.399,-0.325,-0.922,0.0
8.117,-0.316,-0.935,0.0
0.0,0.0,0.0,0.0
0.0,0.0,0.0,0.0
7.199,-0.284,-0.949,0.0
8.862,-0.35,-0.917,0.0
8.468,-0.336,-0.922,0.0
8.131,-0.324,-0.93,0.0
0.0,0.0,0.0,0.0
7.546,-0.303,-0.947,0.0
7.273,-0.294,-0.953,0.0
8.904,-0.359,-0.913,0.0
8.531,-0.345,-0.922,0.0
8.176,-0.333,-0.928,0.0
7.84,-0.32,-0.934,0.0
7.558,-0.31,-0.942,0.0
7.286,-0.3,-0.948,0.0
8.961,-0.369,-0.911,0.0
8.651,-0.358,-0.927,0.0
8.224,-0.341,-0.926,0.0
7.91,-0.33,-0.935,0.0
7.603,-0.318,-0.94,0.0
7.351,-0.309,-0.95,0.0
9.06,-0.38,-0.913,0.0
8.761,-0.369,-0.931,0.0
8.303,-0.351,-0.927,0.0
7.972,-0.339,-0.935,0.0
7.604,-0.325,-0.933,0.0
7.378,-0.316,-0.946,0.0
9.119,-0.39,-0.91,0.0
8.784,-0.377,-0.925,0.0
8.331,-0.359,-0.922,0.0
7.98,-0.345,-0.928,0.0
7.731,-0.336,-0.941,0.0
7.401,-0.323,-0.941,0.0
9.154,-0.399,-0.905,0.0
8.86,-0.387,-0.924,0.0
8.416,-0.369,-0.923,0.0
8.083,-0.356,-0.931,0.0
7.742,-0.342,-0.934,0.0
7.462,-0.331,-0.941,0.0
9.267,-0.41,-0.906,0.0
8.85,-0.393,-0.913,0.0
8.454,-0.377,-0.918,0.0
8.207,-0.367,-0.937,0.0
7.849,-0.353,-0.939,0.0
7.54,-0.34,-0.943,0.0
9.361,-0.421,-0.905,0.0
8.941,-0.404,-0.913,0.0
8.572,-0.388,-0.922,0.0
8.229,-0.374,-0.931,0.0
7.877,-0.359,-0.934,0.0
7.606,-0.348,-0.943,0.0
9.464,-0.432,-0.905,0.0
9.036,-0.414,-0.913,0.0
8.684,-0.399,-0.924,0.0
8.28,-0.382,-0.927,0.0
7.925,-0.367,-0.93,0.0
7.64,-0.355,-0.938,0.0
9.547,-0.442,-0.902,0.0
9.108,-0.423,-0.91,0.0
8.678,-0.405,-0.914,0.0
8.343,-0.39,-0.924,0.0
8.034,-0.377,-0.934,0.0
7.743,-0.365,-0.942,0.0
9.658,-0.454,-0.901,0.0
9.179,-0.432,-0.906,0.0
8.843,-0.418,-0.92,0.0
8.453,-0.401,-0.926,0.0
8.098,-0.385,-0.931,0.0
7.765,-0.37,-0.935,0.0
9.728,-0.463,-0.896,0.0
9.29,-0.443,-0.906,0.0
8.904,-0.426,-0.916,0.0
8.555,-0.41,-0.927,0.0
8.211,-0.395,-0.934,0.0
7.87,-0.38,-0.938,0.0
9.831,-0.473,-0.893,0.0
9.394,-0.453,-0.904,0.0
9.011,-0.436,-0.916,0.0
0.0,0.0,0.0,0.0
8.263,-0.402,-0.929,0.0
7.967,-0.389,-0.939,0.0
9.945,-0.484,-0.891,0.0
9.516,-0.464,-0.904,0.0
9.064,-0.443,-0.909,0.0
0.0,0.0,0.0,0.0
8.348,-0.41,-0.928,0.0
8.032,-0.396,-0.936,0.0
10.095,-0.496,-0.891,0.0
9.598,-0.473,-0.899,0.0
9.164,-0.453,-0.907,0.0
8.784,-0.435,-0.918,0.0
8.423,-0.418,-0.925,0.0
8.094,-0.403,-0.933,0.0
10.205,-0.506,-0.888,0.0
9.732,-0.484,-0.898,0.0
9.333,-0.465,-0.911,0.0
8.962,-0.448,-0.924,0.0
8.552,-0.428,-0.928,0.0
8.22,-0.413,-0.936,0.0
10.317,-0.516,-0.883,0.0
9.839,-0.493,-0.895,0.0
9.433,-0.474,-0.908,0.0
9.041,-0.455,-0.92,0.0
8.607,-0.435,-0.922,0.0
8.277,-0.419,-0.931,0.0
10.456,-0.527,-0.881,0.0
9.984,-0.505,-0.894,0.0
9.522,-0.482,-0.903,0.0
9.094,-0.462,-0.912,0.0
8.732,-0.444,-0.923,0.0
8.351,-0.426,-0.927,0.0
10.59,-0.538,-0.877,0.0
10.102,-0.514,-0.89,0.0
9.658,-0.492,-0.902,0.0
9.195,-0.47,-0.909,0.0
8.847,-0.453,-0.922,0.0
8.434,-0.433,-0.924,0.0
10.779,-0.551,-0.877,0.0
10.243,-0.525,-0.888,0.0
9.762,-0.501,-0.898,0.0
9.373,-0.482,-0.913,0.0
8.938,-0.46,-0.918,0.0
8.575,-0.442,-0.927,0.0
10.956,-0.563,-0.875,0.0
10.382,-0.535,-0.885,0.0
9.897,-0.51,-0.896,0.0
9.44,-0.488,-0.906,0.0
9.088,-0.47,-0.92,0.0
8.655,-0.449,-0.922,0.0
11.095,-0.573,-0.87,0.0
10.518,-0.544,-0.88,0.0
10.077,-0.522,-0.897,0.0
9.602,-0.498,-0.906,0.0
9.106,-0.473,-0.908,0.0
8.769,-0.456,-0.921,0.0
11.25,-0.583,-0.865,0.0
10.697,-0.556,-0.879,0.0
10.177,-0.529,-0.89,0.0
9.707,-0.506,-0.902,0.0
9.338,-0.487,-0.917,0.0
8.878,-0.464,-0.919,0.0
11.414,-0.594,-0.86,0.0
10.864,-0.566,-0.876,0.0
10.308,-0.538,-0.886,0.0
9.835,-0.514,-0.898,0.0
9.419,-0.493,-0.91,0.0
9.025,-0.473,-0.92,0.0
11.69,-0.61,-0.863,0.0
11.029,-0.576,-0.872,0.0
10.49,-0.549,-0.885,0.0
9.97,-0.522,-0.895,0.0
9.54,-0.5,-0.907,0.0
9.135,-0.479,-0.917,0.0
11.858,-0.62,-0.857,0.0
11.206,-0.586,-0.868,0.0
10.645,-0.558,-0.881,0.0
10.146,-0.532,-0.894,0.0
9.694,-0.509,-0.906,0.0
9.232,-0.485,-0.912,0.0
12.118,-0.634,-0.856,0.0
11.375,-0.596,-0.863,0.0
10.821,-0.567,-0.878,0.0
10.281,-0.539,-0.89,0.0
9.815,-0.515,-0.901,0.0
9.391,-0.493,-0.912,0.0
12.362,-0.647,-0.853,0.0
11.592,-0.607,-0.861,0.0
10.975,-0.575,-0.873,0.0
10.417,-0.546,-0.885,0.0
9.964,-0.523,-0.899,0.0
9.493,-0.499,-0.906,0.0
12.627,-0.661,-0.851,0.0
11.813,-0.619,-0.858,0.0
11.169,-0.585,-0.87,0.0
10.607,-0.556,-0.883,0.0
10.109,-0.53,-0.895,0.0
9.674,-0.508,-0.907,0.0
20.022,-1.047,-1.316,0.0
12.081,-0.632,-0.858,0.0
11.367,-0.595,-0.866,0.0
10.791,-0.565,-0.88,0.0
10.25,-0.536,-0.89,0.0
9.804,-0.513,-0.903,0.0
13.242,-0.691,-0.849,0.0
12.3,-0.642,-0.853,0.0
11.578,-0.604,-0.863,0.0
10.967,-0.573,-0.876,0.0
10.42,-0.544,-0.888,0.0
9.944,-0.519,-0.899,0.0
13.449,-0.7,-0.839,0.0
12.576,-0.654,-0.851,0.0
11.793,-0.614,-0.859,0.0
11.132,-0.579,-0.871,0.0
10.601,-0.552,-0.885,0.0
10.106,-0.526,-0.897,0.0
13.824,-0.717,-0.839,0.0
20.018,-1.038,-1.32,0.0
12.071,-0.626,-0.859,0.0
11.337,-0.588,-0.868,0.0
10.793,-0.559,-0.883,0.0
10.256,-0.531,-0.893,0.0
14.145,-0.73,-0.835,0.0
13.218,-0.682,-0.849,0.0
12.332,-0.636,-0.857,0.0
11.562,-0.596,-0.865,0.0
10.986,-0.566,-0.879,0.0
10.42,-0.537,-0.889,0.0
14.377,-0.738,-0.824,0.0
13.495,-0.693,-0.844,0.0
12.67,-0.65,-0.858,0.0
11.766,-0.603,-0.86,0.0
11.143,-0.571,-0.873,0.0
10.597,-0.543,-0.886,0.0
14.814,-0.756,-0.823,0.0
13.821,-0.705,-0.84,0.0
20.0,-1.02,-1.321,0.0
12.057,-0.614,-0.86,0.0
11.332,-0.577,-0.868,0.0
10.797,-0.55,-0.884,0.0
15.184,-0.77,-0.818,0.0
14.107,-0.715,-0.833,0.0
13.305,-0.674,-0.856,0.0
12.324,-0.623,-0.858,0.0
11.559,-0.584,-0.865,0.0
10.974,-0.554,-0.879,0.0
20.063,-1.01,-1.046,0.0
14.461,-0.727,-0.829,0.0
13.485,-0.677,-0.844,0.0
12.556,-0.63,-0.852,0.0
11.808,-0.592,-0.863,0.0
11.123,-0.557,-0.871,0.0
20.067,-1.001,-1.011,0.0
14.778,-0.737,-0.822,0.0
13.776,-0.686,-0.838,0.0
19.946,-0.992,-1.319,0.0
12.079,-0.6,-0.862,0.0
11.357,-0.563,-0.87,0.0
20.041,-0.991,-0.975,0.0
15.243,-0.752,-0.821,0.0
14.097,-0.695,-0.832,0.0
13.36,-0.658,-0.86,0.0
12.361,-0.608,-0.86,0.0
11.574,-0.568,-0.866,0.0
20.076,-0.982,-0.941,0.0
20.045,-0.979,-1.044,0.0
14.545,-0.709,-0.833,0.0
13.504,-0.658,-0.845,0.0
12.602,-0.613,-0.855,0.0
11.813,-0.573,-0.863,0.0
17.416,-0.842,-0.786,0.0
20.071,-0.969,-1.01,0.0
14.85,-0.716,-0.825,0.0
13.771,-0.662,-0.838,0.0
19.971,-0.96,-1.32,0.0
12.107,-0.581,-0.863,0.0
17.845,-0.852,-0.774,0.0
16.47,-0.785,-0.8,0.0
15.223,-0.724,-0.819,0.0
14.185,-0.674,-0.838,0.0
13.212,-0.626,-0.85,0.0
12.385,-0.586,-0.861,0.0
18.359,-0.865,-0.764,0.0
16.825,-0.791,-0.788,0.0
15.521,-0.728,-0.807,0.0
14.499,-0.679,-0.831,0.0
13.53,-0.632,-0.846,0.0
12.688,-0.592,-0.86,0.0
19.075,-0.886,-0.761,0.0
17.42,-0.807,-0.785,0.0
16.157,-0.747,-0.812,0.0
14.862,-0.686,-0.826,0.0
13.892,-0.639,-0.844,0.0
12.985,-0.596,-0.857,0.0
19.587,-0.896,-0.746,0.0
17.922,-0.818,-0.776,0.0
16.583,-0.755,-0.804,0.0
15.179,-0.689,-0.817,0.0
14.181,-0.642,-0.837,0.0
13.233,-0.598,-0.85,0.0
20.1,-0.904,-0.731,0.0
18.34,-0.823,-0.762,0.0
17.021,-0.761,-0.796,0.0
15.551,-0.694,-0.809,0.0
14.533,-0.647,-0.832,0.0
13.585,-0.603,-0.849,0.0
21.075,-0.931,-0.729,0.0
19.118,-0.842,-0.761,0.0
17.524,-0.77,-0.789,0.0
16.002,-0.701,-0.805,0.0
14.908,-0.651,-0.827,0.0
13.961,-0.608,-0.848,0.0
21.636,-0.938,-0.711,0.0
19.759,-0.854,-0.751,0.0
17.964,-0.773,-0.777,0.0
16.539,-0.71,-0.803,0.0
15.21,-0.651,-0.817,0.0
14.163,-0.604,-0.835,0.0
22.895,-0.972,-0.712,0.0
20.522,-0.868,-0.745,0.0
18.481,-0.779,-0.767,0.0
16.881,-0.709,-0.79,0.0
15.664,-0.656,-0.814,0.0
14.574,-0.608,-0.834,0.0
23.614,-0.981,-0.693,0.0
21.048,-0.871,-0.727,0.0
19.095,-0.787,-0.759,0.0
17.468,-0.718,-0.787,0.0
16.062,-0.657,-0.807,0.0
14.864,-0.606,-0.825,0.0
24.454,-0.992,-0.676,0.0
21.797,-0.881,-0.715,0.0
19.684,-0.792,-0.748,0.0
17.945,-0.719,-0.777,0.0
16.537,-0.66,-0.803,0.0
15.228,-0.606,-0.819,0.0
25.956,-1.028,-0.673,0.0
22.643,-0.893,-0.705,0.0
20.325,-0.798,-0.738,0.0
18.439,-0.721,-0.768,0.0
17.013,-0.662,-0.797,0.0
15.706,-0.609,-0.817,0.0
27.038,-1.042,-0.655,0.0
23.612,-0.906,-0.695,0.0
21.199,-0.81,-0.734,0.0
19.041,-0.724,-0.76,0.0
17.539,-0.664,-0.792,0.0
16.077,-0.606,-0.809,0.0
28.677,-1.075,-0.646,0.0
24.415,-0.911,-0.677,0.0
21.739,-0.807,-0.716,0.0
19.709,-0.728,-0.753,0.0
17.892,-0.657,-0.777,0.0
16.554,-0.605,-0.805,0.0
0.0,0.0,0.0,0.0
25.99,-0.94,-0.676,0.0
22.865,-0.823,-0.714,0.0
20.482,-0.733,-0.748,0.0
18.577,-0.661,-0.775,0.0
16.975,-0.601,-0.797,0.0
31.148,-1.097,-0.596,0.0
26.468,-0.927,-0.644,0.0
23.396,-0.815,-0.691,0.0
20.938,-0.725,-0.73,0.0
19.073,-0.657,-0.764,0.0
17.515,-0.6,-0.793,0.0
0.0,0.0,0.0,0.0
28.214,-0.954,-0.64,0.0
24.772,-0.833,-0.691,0.0
21.845,-0.73,-0.725,0.0
19.514,-0.648,-0.75,0.0
17.937,-0.592,-0.783,0.0
35.003,-1.149,-0.554,0.0
0.0,0.0,0.0,0.0
25.879,-0.838,-0.679,0.0
21.957,-0.706,-0.693,2.0
20.311,-0.649,-0.747,0.0
18.384,-0.584,-0.772,0.0
37.845,-1.194,-0.537,0.0
0.0,0.0,0.0,0.0
21.813,-0.679,-0.537,0.0
23.343,-0.721,-0.699,0.0
21.385,-0.656,-0.752,0.0
19.033,-0.579,-0.768,0.0
41.231,-1.247,-0.518,0.0
0.0,0.0,0.0,0.0
21.872,-0.652,-0.503,1.0
21.906,-0.648,-0.62,66.0
21.838,-0.641,-0.732,9.0
21.889,-0.638,-0.848,6.0
41.541,-1.201,-0.455,1.0
34.746,-0.997,-0.562,0.0
21.913,-0.624,-0.469,16.0
21.864,-0.617,-0.584,190.0
21.867,-0.612,-0.698,90.0
0.0,0.0,0.0,0.0
47.95,-1.321,-0.449,0.0
0.0,0.0,0.0,0.0
21.899,-0.593,-0.434,7.0
21.878,-0.587,-0.55,210.0
21.878,-0.582,-0.664,94.0
18.149,-0.478,-0.646,150.0
0.0,0.0,0.0,0.0
37.987,-0.985,-0.496,0.0
32.557,-0.836,-0.595,0.0
21.912,-0.557,-0.517,150.0
21.906,-0.552,-0.632,22.0
18.104,-0.452,-0.617,176.0
0.0,0.0,0.0,0.0
43.359,-1.062,-0.499,0.0
34.413,-0.834,-0.576,0.0
0.0,0.0,0.0,0.0
18.164,-0.431,-0.496,17.0
18.113,-0.425,-0.589,162.0
54.526,-1.269,-0.26,0.0
0.0,0.0,0.0,0.0
0.0,0.0,0.0,0.0
30.116,-0.678,-0.619,0.0
26.214,-0.584,-0.676,0.0
18.158,-0.4,-0.564,61.0
0.0,0.0,0.0,0.0
45.023,-0.97,-0.383,0.0
0.0,0.0,0.0,0.0
0.0,0.0,0.0,0.0
27.097,-0.563,-0.659,0.0
23.609,-0.484,-0.699,0.0
0.0,0.0,0.0,0.0
50.659,-1.014,-0.357,0.0
0.0,0.0,0.0,0.0
33.535,-0.654,-0.591,0.0
28.65,-0.551,-0.656,0.0
24.783,-0.47,-0.698,0.0
0.0,0.0,0.0,0.0
0.0,0.0,0.0,0.0
44.97,-0.819,-0.489,0.0
34.931,-0.627,-0.566,0.0
29.333,-0.519,-0.63,0.0
25.512,-0.444,-0.682,0.0
0.0,0.0,0.0,0.0
0.0,0.0,0.0,0.0
0.0,0.0,0.0,0.0
0.0,0.0,0.0,0.0
30.446,-0.489,-0.611,0.0
26.331,-0.416,-0.666,0.0
0.0,0.0,0.0,0.0
0.0,0.0,0.0,0.0
46.793,-0.702,-0.377,1.0
37.89,-0.558,-0.508,0.0
0.0,0.0,0.0,0.0
27.527,-0.39,-0.659,0.0
127.651,-1.777,0.489,2.0
0.0,0.0,0.0,0.0
51.11,-0.682,-0.341,0.0
0.0,0.0,0.0,0.0
0.0,0.0,0.0,0.0
0.0,0.0,0.0,0.0
0.0,0.0,0.0,0.0
0.0,0.0,0.0,0.0
51.13,-0.597,-0.273,0.0
0.0,0.0,0.0,0.0
35.292,-0.392,-0.564,0.0
29.491,-0.319,-0.627,0.0
119.767,-1.266,0.779,115.0
0.0,0.0,0.0,0.0
0.0,0.0,0.0,0.0
44.55,-0.431,-0.419,0.0
0.0,0.0,0.0,0.0
30.566,-0.279,-0.61,0.0
119.715,-1.059,0.934,11.0
0.0,0.0,0.0,0.0
0.0,0.0,0.0,0.0
0.0,0.0,0.0,0.0
38.008,-0.292,-0.51,0.0
31.594,-0.233,-0.591,0.0
119.74,-0.853,1.085,18.0
0.0,0.0,0.0,0.0
0.0,0.0,0.0,0.0
50.415,-0.315,-0.348,0.0
0.0,0.0,0.0,0.0
0.0,0.0,0.0,0.0
119.717,-0.642,1.233,16.0
110.885,-0.563,0.554,2.0
0.0,0.0,0.0,0.0
51.588,-0.23,-0.293,0.0
44.898,-0.187,-0.493,0.0
35.083,-0.136,-0.571,0.0
119.701,-0.43,1.375,16.0
111.202,-0.365,0.689,10.0
0.0,0.0,0.0,0.0
0.0,0.0,0.0,0.0
45.188,-0.107,-0.443,1.0
0.0,0.0,0.0,0.0
119.65,-0.213,1.516,6.0
111.234,-0.165,0.819,10.0
0.0,0.0,0.0,0.0
0.0,0.0,0.0,0.0
45.491,-0.026,-0.394,1.0
0.0,0.0,0.0,0.0
117.299,0.004,1.62,15.0
111.239,0.038,0.945,6.0
95.513,0.062,0.304,2.0
0.0,0.0,0.0,0.0
49.979,0.062,-0.377,0.0
38.214,0.06,-0.491,0.0
111.154,0.208,1.658,13.0
111.134,0.243,1.067,16.0
94.585,0.236,0.405,2.0
0.0,0.0,0.0,0.0
49.994,0.155,-0.323,0.0
42.805,0.146,-0.504,0.0
119.873,0.449,1.918,27.0
111.103,0.449,1.185,24.0
104.14,0.454,0.556,7.0
87.784,0.41,-0.007,1.0
0.0,0.0,0.0,0.0
42.883,0.226,-0.46,1.0
111.078,0.625,1.893,32.0
111.04,0.659,1.3,24.0
104.804,0.656,0.669,13.0
85.859,0.563,0.081,5.0
53.311,0.366,-0.234,0.0
42.891,0.308,-0.417,0.0
104.851,0.789,1.893,7.0
0.0,0.0,0.0,0.0
98.425,0.802,0.725,10.0
83.692,0.708,0.161,1.0
0.0,0.0,0.0,0.0
46.561,0.424,-0.407,1.0
99.801,0.942,1.9,5.0
98.682,0.963,1.35,25.0
98.492,0.993,0.821,17.0
85.439,0.888,0.247,6.0
0.0,0.0,0.0,0.0
49.21,0.542,-0.384,0.0
98.57,1.121,1.969,32.0
98.516,1.151,1.44,30.0
98.516,1.182,0.912,24.0
85.164,1.048,0.324,13.0
75.302,0.95,-0.116,1.0
48.961,0.633,-0.338,0.0
98.577,1.312,2.058,29.0
98.521,1.343,1.529,27.0
98.607,1.374,1.001,25.0
85.131,1.214,0.399,9.0
75.843,1.105,-0.05,1.0
0.0,0.0,0.0,0.0
189.62,2.895,4.125,18.0
91.945,1.433,1.506,33.0
91.903,1.462,1.012,39.0
91.734,1.487,0.508,10.0
73.932,1.222,0.012,4.0
0.0,0.0,0.0,0.0
91.857,1.582,2.074,34.0
91.849,1.611,1.581,40.0
91.865,1.642,1.087,7.0
91.828,1.669,0.583,9.0
73.847,1.365,0.072,3.0
0.0,0.0,0.0,0.0
88.806,1.704,2.076,4.0
87.29,1.703,1.571,40.0
85.405,1.694,1.077,4.0
85.28,1.718,0.608,17.0
72.018,1.474,0.125,6.0
0.0,0.0,0.0,0.0
85.286,1.808,2.06,31.0
85.273,1.833,1.599,38.0
85.245,1.861,1.139,38.0
85.195,1.887,0.671,25.0
72.042,1.618,0.178,15.0
67.587,1.54,-0.196,1.0
85.246,1.977,2.121,32.0
85.275,2.006,1.661,35.0
85.266,2.033,1.201,35.0
85.214,2.059,0.731,24.0
71.957,1.761,0.229,10.0
66.091,1.639,-0.146,3.0
120.002,3.024,3.068,20.0
78.993,2.015,1.592,25.0
78.924,2.038,1.164,30.0
78.881,2.062,0.729,31.0
72.037,1.907,0.276,10.0
64.723,1.734,-0.101,5.0
78.821,2.144,2.066,33.0
77.171,2.123,1.605,1.0
76.675,2.133,1.179,6.0
75.552,2.126,0.746,8.0
72.034,2.05,0.321,8.0
63.638,1.832,-0.06,6.0
78.897,2.305,2.116,6.0
74.71,2.206,1.599,4.0
79.007,2.358,1.263,7.0
78.945,2.381,0.826,17.0
72.231,2.202,0.364,14.0
64.53,1.988,-0.024,8.0
74.15,2.317,2.032,6.0
72.563,2.29,1.594,7.0
72.46,2.31,1.199,33.0
72.399,2.33,0.798,36.0
72.249,2.348,0.403,23.0
65.238,2.141,0.01,8.0
72.411,2.409,2.023,34.0
72.376,2.43,1.629,34.0
72.366,2.453,1.235,37.0
72.338,2.474,0.834,32.0
72.244,2.494,0.44,20.0
65.301,2.275,0.043,11.0
72.413,2.555,2.059,28.0
72.41,2.578,1.665,28.0
72.408,2.6,1.271,24.0
72.409,2.624,0.869,22.0
72.297,2.643,0.475,17.0
65.44,2.413,0.074,12.0
194.536,7.26,5.623,12.0
194.396,7.314,4.559,20.0
193.635,7.347,3.486,15.0
120.006,4.589,1.494,19.0
119.982,4.626,0.839,12.0
65.443,2.543,0.101,16.0
194.911,7.666,5.716,22.0
120.089,4.761,2.866,13.0
193.776,7.74,3.566,23.0
63.728,2.565,0.818,9.0
63.015,2.556,0.465,8.0
65.555,2.68,0.126,13.0
66.088,2.733,1.963,27.0
66.086,2.753,1.602,5.0
50.973,2.139,0.957,6.0
61.442,2.597,0.811,7.0
66.034,2.812,0.511,24.0
65.561,2.813,0.149,9.0
63.974,2.776,1.923,8.0
62.487,2.729,1.535,7.0
50.701,2.23,0.968,12.0
66.064,2.927,0.894,15.0
66.085,2.949,0.533,21.0
65.707,2.952,0.17,12.0
62.168,2.823,1.887,10.0
61.093,2.793,1.52,4.0
50.493,2.323,0.979,21.0
49.484,2.292,0.683,4.0
120.048,5.598,1.001,16.0
65.868,3.092,0.188,9.0
127.269,6.037,3.898,2.0
50.739,2.423,1.275,4.0
50.058,2.405,0.983,21.0
49.058,2.371,0.689,8.0
120.055,5.839,1.029,16.0
65.903,3.225,0.203,8.0
124.845,6.172,3.852,2.0
50.483,2.511,1.28,17.0
49.304,2.467,0.979,4.0
48.692,2.451,0.695,15.0
59.498,3.013,0.522,5.0
59.398,3.026,0.194,21.0
59.425,3.058,1.845,35.0
50.431,2.611,1.288,23.0
48.882,2.545,0.979,12.0
48.387,2.533,0.698,12.0
59.341,3.125,0.53,30.0
59.297,3.14,0.204,20.0
59.401,3.177,1.853,17.0
49.601,2.666,1.274,4.0
48.426,2.618,0.977,9.0
48.125,2.616,0.701,17.0
59.351,3.244,0.537,13.0
59.294,3.258,0.21,17.0
50.716,2.813,1.588,27.0
49.067,2.735,1.265,17.0
48.134,2.698,0.975,15.0
47.929,2.7,0.702,29.0
47.759,2.705,0.436,24.0
59.379,3.38,0.215,12.0
50.02,2.874,1.569,8.0
48.309,2.789,1.249,4.0
47.891,2.779,0.974,21.0
47.717,2.782,0.701,21.0
114.641,6.718,1.053,7.0
59.152,3.484,0.217,1.0
49.263,2.927,1.547,18.0
47.929,2.861,1.24,10.0
47.705,2.862,0.971,30.0
47.553,2.866,0.7,1.0
111.124,6.73,1.021,46.0
52.432,3.19,0.192,12.0
48.607,2.983,1.526,14.0
47.658,2.938,1.233,21.0
47.511,2.943,0.966,48.0
111.189,6.917,1.633,8.0
110.801,6.925,1.014,9.0
52.348,3.286,0.189,12.0
47.93,3.034,1.503,4.0
47.433,3.016,1.224,49.0
109.664,7.003,2.224,3.0
109.417,7.019,1.601,7.0
52.342,3.372,0.475,27.0
52.193,3.377,0.185,17.0
47.41,3.093,1.483,19.0
52.261,3.424,1.345,38.0
52.238,3.436,1.054,43.0
52.234,3.451,0.759,41.0
52.221,3.464,0.469,30.0
52.132,3.473,0.179,14.0
52.238,3.509,1.628,6.0
52.21,3.52,1.337,40.0
52.201,3.535,1.046,42.0
52.196,3.548,0.751,45.0
52.204,3.563,0.461,29.0
52.102,3.57,0.171,19.0
52.223,3.606,1.619,33.0
52.209,3.619,1.329,28.0
52.218,3.633,1.038,26.0
52.212,3.647,0.742,28.0
52.198,3.66,0.452,23.0
52.099,3.668,0.161,15.0
102.065,7.241,3.146,17.0
102.083,7.269,2.577,49.0
102.088,7.295,2.009,57.0
52.31,3.751,0.733,15.0
52.29,3.764,0.441,20.0
52.14,3.768,0.149,14.0
102.136,7.437,3.125,14.0
102.075,7.459,2.554,6.0
101.815,7.465,1.979,6.0
101.544,7.472,1.397,4.0
101.268,7.478,0.829,5.0
52.213,3.87,0.136,12.0
101.978,7.614,3.092,12.0
100.797,7.551,2.494,6.0
100.562,7.559,1.927,12.0
100.315,7.565,1.352,9.0
100.152,7.58,0.79,11.0
52.141,3.96,0.12,3.0
0.0,0.0,0.0,0.0
99.638,7.646,2.435,11.0
99.477,7.658,1.875,9.0
99.219,7.663,1.306,9.0
99.07,7.676,0.75,8.0
45.88,3.567,0.091,14.0
98.777,7.733,2.933,8.0
98.627,7.744,2.376,10.0
98.453,7.755,1.821,9.0
45.943,3.63,0.588,23.0
45.881,3.636,0.33,38.0
45.746,3.637,0.074,29.0
45.86,3.671,1.345,39.0
45.848,3.681,1.087,40.0
45.829,3.69,0.83,41.0
45.807,3.699,0.569,46.0
45.786,3.709,0.312,34.0
45.675,3.711,0.055,28.0
45.816,3.748,1.325,46.0
45.801,3.758,1.067,42.0
45.78,3.766,0.81,43.0
45.766,3.776,0.549,38.0
45.742,3.785,0.292,31.0
45.574,3.782,0.035,24.0
45.799,3.826,1.304,36.0
45.781,3.835,1.047,37.0
45.76,3.844,0.789,37.0
45.762,3.854,0.528,32.0
45.741,3.864,0.271,22.0
45.56,3.859,0.014,18.0
45.839,3.908,1.284,23.0
45.819,3.916,1.025,23.0
45.815,3.926,0.768,22.0
45.797,3.935,0.506,23.0
45.786,3.944,0.249,18.0
45.501,3.93,-0.008,19.0
93.141,8.096,2.562,55.0
93.12,8.114,2.037,75.0
93.154,8.137,1.514,66.0
93.227,8.165,0.982,30.0
93.252,8.188,0.457,11.0
45.552,4.01,-0.032,19.0
93.152,8.251,2.512,9.0
93.056,8.263,1.985,7.0
92.836,8.262,1.457,7.0
92.711,8.271,0.925,11.0
45.663,4.084,0.198,5.0
45.522,4.082,-0.058,19.0
92.284,8.323,2.436,5.0
92.088,8.325,1.911,5.0
91.993,8.337,1.391,10.0
91.841,8.342,0.862,11.0
91.702,8.349,0.345,10.0
45.401,4.144,-0.084,17.0
91.506,8.4,2.36,10.0
91.322,8.401,1.84,8.0
91.163,8.406,1.323,10.0
91.027,8.411,0.798,11.0
90.871,8.417,0.284,7.0
45.284,4.204,-0.113,19.0
90.702,8.468,2.282,12.0
90.567,8.473,1.766,10.0
90.422,8.478,1.253,11.0
90.303,8.486,0.733,11.0
88.517,8.337,0.219,13.0
44.816,4.23,-0.141,19.0
89.94,8.535,2.203,12.0
89.816,8.541,1.692,11.0
89.68,8.545,1.183,12.0
89.511,8.547,0.666,10.0
0.0,0.0,0.0,0.0
44.38,4.256,-0.17,19.0
89.202,8.599,2.122,12.0
89.119,8.609,1.616,11.0
88.957,8.61,1.111,13.0
88.855,8.616,0.598,12.0
88.234,8.574,0.096,8.0
43.391,4.225,-0.198,18.0
88.551,8.666,2.044,7.0
88.402,8.668,1.54,11.0
88.314,8.675,1.039,11.0
88.122,8.673,0.528,11.0
86.735,8.553,0.03,5.0
43.053,4.254,-0.228,18.0
87.893,8.728,1.963,11.0
87.747,8.729,1.462,10.0
87.574,8.728,0.963,11.0
87.492,8.736,0.459,11.0
70.015,7.005,-0.029,1.0
0.0,0.0,0.0,0.0
87.238,8.786,1.88,10.0
87.08,8.785,1.383,10.0
86.973,8.79,0.889,10.0
86.836,8.792,0.386,10.0
69.765,7.076,-0.084,3.0
40.508,4.116,-0.278,16.0
86.598,8.841,1.797,11.0
86.457,8.841,1.302,11.0
86.392,8.849,0.812,10.0
86.275,8.851,0.314,9.0
52.117,5.356,-0.105,3.0
40.088,4.127,-0.308,20.0
85.975,8.891,1.712,11.0
85.897,8.896,1.223,11.0
85.797,8.901,0.735,12.0
85.654,8.9,0.239,12.0
45.572,4.743,-0.131,6.0
39.648,4.134,-0.339,26.0
85.378,8.941,1.627,11.0
84.46,8.858,1.13,12.0
84.215,8.846,0.648,37.0
84.175,8.856,0.161,20.0
45.566,4.802,-0.171,6.0
39.397,4.158,-0.372,15.0
84.164,8.92,1.529,77.0
84.159,8.933,1.051,63.0
84.171,8.948,0.573,57.0
84.189,8.962,0.086,13.0
42.846,4.568,-0.199,16.0
39.116,4.177,-0.404,13.0
84.274,9.035,1.455,17.0
84.226,9.042,0.976,15.0
84.143,9.046,0.496,11.0
75.979,8.18,0.008,5.0
0.0,0.0,0.0,0.0
38.912,4.202,-0.438,7.0
83.858,9.09,1.371,7.0
83.711,9.086,0.892,7.0
83.665,9.093,0.415,8.0
70.262,7.647,-0.058,4.0
40.664,4.432,-0.264,15.0
38.866,4.242,-0.474,8.0
83.359,9.131,1.283,11.0
81.249,8.911,0.788,6.0
80.073,8.794,0.321,11.0
65.718,7.226,-0.117,10.0
40.105,4.416,-0.299,21.0
38.825,4.281,-0.511,8.0
82.881,9.17,1.196,11.0
82.801,9.172,0.723,8.0
82.684,9.17,0.251,5.0
65.814,7.309,-0.181,4.0
39.709,4.415,-0.335,33.0
38.76,4.316,-0.549,7.0
82.471,9.213,1.108,11.0
82.372,9.212,0.638,11.0
80.685,9.034,0.164,15.0
45.375,5.086,-0.17,14.0
39.32,4.413,-0.372,25.0
38.723,4.352,-0.586,1.0
82.046,9.249,1.02,11.0
81.965,9.25,0.552,10.0
80.08,9.047,0.082,9.0
42.874,4.849,-0.204,17.0
38.993,4.415,-0.408,14.0
0.0,0.0,0.0,0.0
81.672,9.286,0.933,11.0
81.546,9.282,0.466,7.0
67.111,7.646,0.001,9.0
0.0,0.0,0.0,0.0
38.721,4.421,-0.445,9.0
32.355,3.699,-0.556,0.0
81.272,9.318,0.844,11.0
67.813,7.781,0.317,5.0
67.765,7.784,-0.069,3.0
40.372,4.642,-0.276,16.0
38.692,4.454,-0.485,9.0
30.892,3.56,-0.564,0.0
66.495,7.683,0.62,12.0
66.395,7.678,0.24,31.0
66.35,7.68,-0.138,11.0
39.827,4.614,-0.314,27.0
38.674,4.485,-0.526,9.0
30.396,3.529,-0.587,1.0
66.341,7.721,0.548,64.0
66.347,7.728,0.17,66.0
45.663,5.323,-0.144,8.0
39.41,4.599,-0.353,34.0
38.633,4.512,-0.567,5.0
29.92,3.498,-0.61,1.0
66.34,7.774,0.476,63.0
66.349,7.782,0.097,44.0
45.47,5.337,-0.193,6.0
39.113,4.595,-0.393,15.0
38.63,4.543,-0.609,0.0
28.53,3.358,-0.613,0.0
66.489,7.843,0.405,21.0
66.537,7.854,0.025,10.0
0.0,0.0,0.0,0.0
38.683,4.573,-0.431,10.0
32.758,3.876,-0.552,0.0
27.761,3.288,-0.627,0.0
66.378,7.878,0.331,12.0
66.297,7.873,-0.049,8.0
40.57,4.822,-0.262,16.0
38.571,4.587,-0.473,9.0
30.621,3.645,-0.55,1.0
26.871,3.201,-0.637,0.0
66.126,7.892,0.256,13.0
62.801,7.5,-0.115,4.0
39.939,4.773,-0.302,25.0
38.554,4.611,-0.515,8.0
30.121,3.605,-0.575,14.0
26.192,3.137,-0.65,1.0
65.905,7.907,0.181,9.0
45.594,5.473,-0.135,7.0
39.355,4.727,-0.342,27.0
38.531,4.632,-0.559,6.0
29.974,3.606,-0.607,11.0
25.527,3.073,-0.663,0.0
65.626,7.912,0.105,8.0
45.432,5.48,-0.186,5.0
39.056,4.714,-0.384,14.0
30.16,3.642,-0.472,3.0
29.681,3.587,-0.634,2.0
24.889,3.01,-0.675,0.0
65.426,7.923,0.03,9.0
41.962,5.084,-0.22,18.0
38.642,4.684,-0.424,12.0
30.079,3.649,-0.505,3.0
27.574,3.347,-0.621,0.0
24.179,2.937,-0.683,0.0
65.218,7.93,-0.044,7.0
40.811,4.965,-0.261,16.0
38.523,4.689,-0.466,8.0
29.972,3.65,-0.538,3.0
26.9,3.277,-0.637,0.0
23.57,2.874,-0.693,0.0
65.002,7.933,-0.118,5.0
39.95,4.877,-0.301,27.0
38.52,4.705,-0.511,8.0
29.843,3.647,-0.57,4.0
26.146,3.197,-0.649,0.0
22.904,2.802,-0.7,0.0
45.725,5.599,-0.136,16.0
39.401,4.826,-0.342,22.0
30.063,3.684,-0.433,3.0
29.707,3.642,-0.602,5.0
25.63,3.144,-0.666,0.0
22.368,2.745,-0.71,0.0
0.0,0.0,0.0,0.0
38.99,4.79,-0.385,14.0
29.907,3.675,-0.466,3.0
29.3,3.602,-0.628,1.0
24.841,3.055,-0.675,0.0
21.831,2.686,-0.718,0.0
41.705,5.134,-0.221,17.0
38.604,4.754,-0.426,11.0
29.746,3.664,-0.499,1.0
27.49,3.388,-0.621,1.0
24.09,2.97,-0.683,0.0
21.255,2.621,-0.724,0.0
40.585,5.007,-0.263,17.0
38.493,4.75,-0.469,9.0
29.653,3.66,-0.531,2.0
26.729,3.3,-0.635,1.0
23.398,2.89,-0.69,0.0
20.647,2.551,-0.728,0.0
39.713,4.908,-0.303,16.0
38.504,4.76,-0.515,6.0
29.451,3.641,-0.563,5.0
26.108,3.229,-0.651,1.0
22.859,2.828,-0.701,0.0
20.212,2.501,-0.736,0.0
39.185,4.85,-0.345,27.0
29.947,3.707,-0.435,2.0
29.331,3.631,-0.594,8.0
25.34,3.138,-0.661,1.0
22.284,2.76,-0.709,0.0
19.812,2.455,-0.744,0.0
38.846,4.813,-0.387,14.0
29.682,3.678,-0.466,2.0
29.214,3.62,-0.626,3.0
24.622,3.052,-0.671,0.0
21.608,2.679,-0.713,0.0
19.424,2.409,-0.753,0.0
38.539,4.778,-0.429,9.0
29.606,3.67,-0.499,2.0
27.404,3.398,-0.619,0.0
23.956,2.971,-0.681,0.0
21.138,2.622,-0.722,0.0
18.853,2.339,-0.752,0.0
38.481,4.772,-0.473,8.0
29.577,3.668,-0.533,3.0
26.69,3.31,-0.634,1.0
23.356,2.897,-0.691,0.0
20.598,2.555,-0.728,0.0
18.441,2.288,-0.757,0.0
38.461,4.769,-0.517,5.0
29.365,3.641,-0.563,8.0
26.012,3.225,-0.648,1.0
22.755,2.821,-0.699,0.0
20.108,2.493,-0.733,0.0
18.146,2.251,-0.766,0.0
29.87,3.702,-0.435,2.0
29.334,3.635,-0.596,8.0
25.383,3.145,-0.661,0.0
22.236,2.755,-0.709,0.0
19.702,2.441,-0.741,0.0
17.826,2.209,-0.773,0.0
29.695,3.677,-0.466,2.0
29.231,3.619,-0.627,2.0
24.752,3.064,-0.673,0.0
21.607,2.675,-0.713,0.0
19.28,2.387,-0.747,0.0
17.445,2.16,-0.776,0.0
29.667,3.669,-0.499,2.0
27.387,3.386,-0.618,0.0
23.962,2.963,-0.678,0.0
21.095,2.608,-0.72,0.0
18.845,2.33,-0.751,0.0
17.078,2.111,-0.779,0.0
29.654,3.661,-0.532,2.0
26.695,3.295,-0.632,1.0
23.394,2.887,-0.688,0.0
20.589,2.541,-0.725,0.0
18.438,2.275,-0.755,0.0
16.815,2.075,-0.786,0.0
29.672,3.656,-0.566,3.0
26.025,3.206,-0.645,1.0
22.881,2.818,-0.698,0.0
20.204,2.488,-0.734,0.0
18.155,2.236,-0.764,0.0
16.501,2.032,-0.789,0.0
29.669,3.647,-0.598,3.0
25.429,3.125,-0.659,0.0
22.392,2.751,-0.708,0.0
19.665,2.416,-0.737,0.0
17.817,2.188,-0.77,0.0
16.273,1.999,-0.796,0.0
29.28,3.59,-0.622,1.0
24.812,3.041,-0.669,0.0
21.741,2.664,-0.711,0.0
19.356,2.371,-0.746,0.0
17.448,2.137,-0.773,0.0
16.04,1.964,-0.802,0.0
27.444,3.354,-0.613,0.0
24.178,2.954,-0.678,0.0
21.237,2.594,-0.717,0.0
18.963,2.316,-0.751,0.0
17.158,2.095,-0.778,0.0
15.733,1.92,-0.804,0.0
26.833,3.268,-0.627,1.0
23.498,2.861,-0.684,0.0
20.707,2.52,-0.721,0.0
18.541,2.256,-0.754,0.0
16.93,2.059,-0.785,0.0
15.436,1.877,-0.805,0.0
26.219,3.181,-0.64,0.0
22.96,2.785,-0.692,0.0
20.38,2.471,-0.731,0.0
18.255,2.212,-0.761,0.0
16.659,2.018,-0.79,0.0
15.338,1.858,-0.815,0.0
25.647,3.099,-0.653,0.0
22.485,2.715,-0.701,0.0
19.812,2.392,-0.731,0.0
17.912,2.161,-0.765,0.0
16.293,1.965,-0.789,0.0
15.066,1.817,-0.816,0.0
25.041,3.012,-0.662,0.0
21.915,2.634,-0.705,0.0
19.612,2.356,-0.743,0.0
17.513,2.103,-0.765,0.0
16.208,1.946,-0.801,0.0
14.825,1.779,-0.818,0.0
24.411,2.922,-0.67,0.0
21.431,2.563,-0.71,0.0
19.055,2.278,-0.741,0.0
17.245,2.061,-0.771,0.0
15.952,1.905,-0.804,0.0
14.665,1.751,-0.823,0.0
23.74,2.826,-0.674,0.0
20.981,2.496,-0.715,0.0
18.311,2.177,-0.729,0.0
16.998,2.02,-0.776,0.0
15.6,1.853,-0.801,0.0
14.46,1.717,-0.826,0.0
23.338,2.763,-0.685,0.0
20.718,2.451,-0.726,0.0
18.447,2.181,-0.752,0.0
16.774,1.982,-0.782,0.0
15.442,1.823,-0.808,0.0
14.308,1.689,-0.83,0.0
22.872,2.691,-0.693,0.0
20.196,2.374,-0.727,0.0
18.288,2.149,-0.762,0.0
16.589,1.948,-0.788,0.0
15.218,1.786,-0.81,0.0
14.081,1.651,-0.83,0.0
22.585,2.64,-0.704,0.0
19.943,2.33,-0.735,0.0
17.865,2.085,-0.761,0.0
16.339,1.906,-0.791,0.0
15.047,1.754,-0.814,0.0
13.933,1.623,-0.834,0.0
21.971,2.551,-0.704,0.0
19.595,2.273,-0.74,0.0
17.697,2.051,-0.769,0.0
16.187,1.875,-0.798,0.0
14.877,1.722,-0.818,0.0
13.779,1.594,-0.836,0.0
21.518,2.48,-0.708,0.0
19.244,2.216,-0.743,0.0
17.451,2.008,-0.773,0.0
15.95,1.834,-0.799,0.0
14.641,1.682,-0.818,0.0
13.642,1.566,-0.84,0.0
21.209,2.426,-0.716,0.0
19.049,2.177,-0.751,0.0
17.184,1.962,-0.776,0.0
15.753,1.797,-0.803,0.0
14.5,1.653,-0.822,0.0
13.536,1.542,-0.844,0.0
20.74,2.353,-0.717,0.0
18.634,2.112,-0.75,0.0
16.961,1.921,-0.779,0.0
15.555,1.76,-0.805,0.0
14.348,1.622,-0.824,0.0
13.261,1.498,-0.838,0.0
20.362,2.291,-0.719,0.0
18.327,2.06,-0.752,0.0
16.729,1.878,-0.781,0.0
15.318,1.719,-0.804,0.0
14.232,1.595,-0.828,0.0
13.187,1.477,-0.843,0.0
20.192,2.252,-0.729,0.0
18.154,2.023,-0.758,0.0
16.598,1.847,-0.788,0.0
15.182,1.688,-0.809,0.0
14.064,1.562,-0.829,0.0
13.12,1.456,-0.848,0.0
19.949,2.204,-0.734,0.0
17.941,1.98,-0.762,0.0
16.468,1.816,-0.794,0.0
15.056,1.658,-0.813,0.0
13.921,1.531,-0.831,0.0
12.96,1.424,-0.847,0.0
19.665,2.152,-0.738,0.0
17.692,1.934,-0.764,0.0
16.237,1.773,-0.793,0.0
14.944,1.63,-0.817,0.0
13.846,1.508,-0.836,0.0
12.862,1.4,-0.849,0.0
19.348,2.096,-0.739,0.0
17.593,1.903,-0.772,0.0
16.012,1.73,-0.793,0.0
14.777,1.595,-0.817,0.0
13.761,1.484,-0.84,0.0
12.814,1.38,-0.855,0.0
19.081,2.046,-0.741,0.0
17.344,1.857,-0.771,0.0
15.851,1.695,-0.795,0.0
14.655,1.565,-0.82,0.0
13.664,1.457,-0.842,0.0
12.713,1.354,-0.856,0.0
18.916,2.006,-0.746,0.0
17.108,1.812,-0.771,0.0
15.738,1.664,-0.799,0.0
14.537,1.535,-0.822,0.0
13.559,1.43,-0.844,0.0
12.496,1.316,-0.848,0.0
18.762,1.967,-0.75,0.0
17.032,1.783,-0.778,0.0
15.633,1.634,-0.802,0.0
14.413,1.505,-0.823,0.0
13.399,1.397,-0.841,0.0
12.418,1.293,-0.85,0.0
18.446,1.911,-0.748,0.0
16.925,1.751,-0.782,0.0
15.457,1.597,-0.801,0.0
14.343,1.48,-0.826,0.0
13.418,1.382,-0.849,0.0
12.426,1.278,-0.857,0.0
18.269,1.87,-0.75,0.0
16.727,1.709,-0.781,0.0
15.454,1.577,-0.809,0.0
14.257,1.453,-0.828,0.0
13.325,1.356,-0.85,0.0
12.261,1.246,-0.851,0.0
18.215,1.841,-0.756,0.0
16.62,1.677,-0.784,0.0
15.319,1.543,-0.809,0.0
14.117,1.42,-0.827,0.0
13.049,1.311,-0.838,0.0
12.251,1.229,-0.856,0.0
18.023,1.798,-0.756,0.0
16.525,1.646,-0.786,0.0
15.247,1.516,-0.811,0.0
14.06,1.396,-0.829,0.0
12.999,1.288,-0.84,0.0
12.209,1.208,-0.858,0.0
18.03,1.775,-0.763,0.0
16.427,1.614,-0.788,0.0
15.13,1.484,-0.811,0.0
13.997,1.37,-0.831,0.0
12.975,1.268,-0.844,0.0
12.083,1.179,-0.854,0.0
17.894,1.737,-0.764,0.0
16.413,1.59,-0.793,0.0
15.04,1.454,-0.812,0.0
13.939,1.345,-0.832,0.0
12.968,1.249,-0.847,0.0
12.037,1.158,-0.855,0.0
17.801,1.703,-0.766,0.0
16.263,1.553,-0.791,0.0
14.949,1.425,-0.811,0.0
13.87,1.319,-0.832,0.0
12.83,1.218,-0.842,0.0
11.961,1.134,-0.853,0.0
17.736,1.671,-0.768,0.0
16.203,1.524,-0.793,0.0
14.913,1.4,-0.814,0.0
13.832,1.296,-0.834,0.0
12.938,1.21,-0.853,0.0
11.907,1.111,-0.852,0.0
17.644,1.637,-0.769,0.0
16.107,1.492,-0.792,0.0
14.868,1.374,-0.815,0.0
13.766,1.27,-0.833,0.0
12.824,1.18,-0.848,0.0
11.94,1.097,-0.857,0.0
17.645,1.611,-0.773,0.0
16.162,1.473,-0.799,0.0
14.803,1.346,-0.814,0.0
13.754,1.248,-0.835,0.0
12.778,1.157,-0.848,0.0
11.889,1.075,-0.856,0.0
17.57,1.579,-0.773,0.0
16.053,1.439,-0.796,0.0
14.817,1.325,-0.818,0.0
13.733,1.225,-0.836,0.0
12.701,1.131,-0.845,0.0
11.836,1.052,-0.854,0.0
17.525,1.548,-0.773,0.0
16.012,1.411,-0.796,0.0
14.808,1.302,-0.819,0.0
13.751,1.206,-0.839,0.0
12.757,1.116,-0.85,0.0
11.839,1.034,-0.855,0.0
17.463,1.515,-0.772,0.0
16.031,1.388,-0.799,0.0
14.762,1.275,-0.818,0.0
13.719,1.182,-0.838,0.0
12.811,1.101,-0.855,0.0
11.846,1.016,-0.857,0.0
17.464,1.489,-0.773,0.0
15.982,1.359,-0.797,0.0
14.733,1.25,-0.817,0.0
13.691,1.158,-0.837,0.0
12.774,1.078,-0.853,0.0
11.809,0.994,-0.854,0.0
17.455,1.461,-0.773,0.0
15.963,1.332,-0.796,0.0
14.824,1.234,-0.822,0.0
13.715,1.139,-0.839,0.0
12.82,1.062,-0.855,0.0
11.825,0.977,-0.855,0.0
17.428,1.43,-0.772,0.0
16.022,1.311,-0.799,0.0
14.753,1.204,-0.818,0.0
13.624,1.109,-0.832,0.0
12.831,1.042,-0.856,0.0
11.847,0.96,-0.856,0.0
17.505,1.409,-0.774,0.0
16.041,1.287,-0.799,0.0
14.726,1.178,-0.815,0.0
13.636,1.088,-0.832,0.0
12.754,1.015,-0.849,0.0
11.855,0.941,-0.856,0.0
17.522,1.381,-0.773,0.0
16.133,1.268,-0.801,0.0
14.818,1.162,-0.819,0.0
13.706,1.071,-0.835,0.0
12.766,0.995,-0.848,0.0
11.862,0.922,-0.854,0.0
17.607,1.36,-0.775,0.0
16.08,1.238,-0.797,0.0
14.773,1.134,-0.814,0.0
13.727,1.051,-0.834,0.0
12.855,0.981,-0.852,0.0
11.857,0.902,-0.852,0.0
17.644,1.333,-0.773,0.0
16.186,1.22,-0.799,0.0
14.799,1.112,-0.812,0.0
13.758,1.03,-0.833,0.0
12.939,0.966,-0.855,0.0
11.892,0.885,-0.852,0.0
17.719,1.31,-0.772,0.0
16.235,1.196,-0.797,0.0
14.974,1.1,-0.818,0.0
13.796,1.01,-0.832,0.0
12.931,0.944,-0.851,0.0
11.927,0.868,-0.851,0.0
17.734,1.281,-0.768,0.0
16.281,1.172,-0.795,0.0
15.012,1.077,-0.816,0.0
13.849,0.991,-0.831,0.0
13.019,0.928,-0.853,0.0
11.967,0.85,-0.851,0.0
17.836,1.259,-0.767,0.0
16.363,1.151,-0.794,0.0
15.015,1.052,-0.812,0.0
13.896,0.971,-0.829,0.0
13.009,0.906,-0.848,0.0
12.043,0.836,-0.852,0.0
17.996,1.24,-0.768,0.0
16.535,1.135,-0.797,0.0
15.156,1.037,-0.814,0.0
14.004,0.955,-0.83,0.0
13.047,0.886,-0.846,0.0
12.12,0.82,-0.853,0.0
18.075,1.215,-0.764,0.0
16.548,1.108,-0.791,0.0
15.272,1.019,-0.814,0.0
14.089,0.936,-0.83,0.0
13.122,0.869,-0.845,0.0
12.213,0.806,-0.854,0.0
18.169,1.19,-0.761,0.0
16.685,1.089,-0.79,0.0
15.357,0.998,-0.812,0.0
14.118,0.914,-0.825,0.0
13.2,0.852,-0.844,0.0
12.279,0.789,-0.853,0.0
18.304,1.168,-0.758,0.0
16.804,1.068,-0.788,0.0
15.407,0.975,-0.807,0.0
14.255,0.899,-0.826,0.0
13.294,0.835,-0.843,0.0
12.327,0.771,-0.85,0.0
18.452,1.146,-0.754,0.0
16.856,1.043,-0.781,0.0
15.355,0.946,-0.796,0.0
14.329,0.879,-0.823,0.0
13.382,0.818,-0.842,0.0
12.397,0.754,-0.848,0.0
18.744,1.132,-0.756,0.0
17.034,1.024,-0.78,0.0
15.732,0.942,-0.806,0.0
14.442,0.861,-0.821,0.0
13.574,0.806,-0.846,0.0
12.55,0.742,-0.851,0.0
18.832,1.105,-0.748,0.0
17.075,0.998,-0.771,0.0
15.893,0.924,-0.805,0.0
14.496,0.84,-0.815,0.0
13.598,0.784,-0.839,0.0
12.638,0.725,-0.849,0.0
19.186,1.093,-0.75,0.0
17.299,0.981,-0.771,0.0
15.919,0.899,-0.796,0.0
14.729,0.828,-0.818,0.0
13.671,0.765,-0.834,0.0
12.748,0.71,-0.848,0.0
19.39,1.072,-0.745,0.0
17.694,0.973,-0.776,0.0
16.173,0.885,-0.797,0.0
14.927,0.813,-0.819,0.0
13.786,0.748,-0.831,0.0
12.946,0.699,-0.851,0.0
19.748,1.058,-0.745,0.0
17.811,0.949,-0.768,0.0
16.355,0.867,-0.794,0.0
15.085,0.796,-0.816,0.0
13.973,0.734,-0.832,0.0
13.044,0.682,-0.848,0.0
19.975,1.035,-0.738,0.0
18.012,0.929,-0.763,0.0
16.569,0.85,-0.792,0.0
15.181,0.775,-0.81,0.0
14.173,0.72,-0.833,0.0
13.247,0.67,-0.851,0.0
20.236,1.015,-0.731,0.0
18.199,0.908,-0.756,0.0
16.803,0.834,-0.789,0.0
15.36,0.758,-0.807,0.0
14.339,0.704,-0.831,0.0
13.29,0.649,-0.842,0.0
20.632,0.999,-0.728,0.0
18.75,0.903,-0.763,0.0
17.042,0.816,-0.786,0.0
15.63,0.744,-0.807,0.0
14.467,0.685,-0.825,0.0
13.566,0.639,-0.848,0.0
20.992,0.981,-0.722,0.0
18.945,0.88,-0.754,0.0
17.196,0.794,-0.778,0.0
15.792,0.725,-0.801,0.0
14.62,0.668,-0.821,0.0
13.682,0.621,-0.842,0.0
21.387,0.963,-0.716,0.0
19.209,0.86,-0.747,0.0
17.451,0.776,-0.773,0.0
16.046,0.71,-0.799,0.0
14.909,0.656,-0.823,0.0
13.772,0.602,-0.834,0.0
21.705,0.941,-0.706,0.0
19.659,0.847,-0.746,0.0
17.881,0.766,-0.774,0.0
16.303,0.694,-0.795,0.0
15.088,0.638,-0.818,0.0
13.989,0.588,-0.834,0.0
22.512,0.938,-0.71,0.0
20.003,0.828,-0.739,0.0
17.993,0.741,-0.761,0.0
16.641,0.681,-0.795,0.0
15.266,0.62,-0.812,0.0
14.214,0.574,-0.832,0.0
22.698,0.909,-0.692,0.0
20.273,0.806,-0.727,0.0
18.383,0.726,-0.758,0.0
16.917,0.664,-0.79,0.0
15.591,0.607,-0.812,0.0
14.369,0.556,-0.826,0.0
23.478,0.901,-0.691,0.0
20.87,0.795,-0.726,0.0
18.745,0.709,-0.753,0.0
17.258,0.649,-0.787,0.0
15.885,0.593,-0.81,0.0
14.595,0.541,-0.822,0.0
23.991,0.881,-0.679,0.0
21.502,0.784,-0.724,0.0
19.276,0.698,-0.752,0.0
17.446,0.627,-0.776,0.0
16.031,0.572,-0.799,0.0
14.884,0.527,-0.822,0.0
24.653,0.865,-0.67,0.0
21.841,0.761,-0.71,0.0
19.655,0.68,-0.744,0.0
17.917,0.615,-0.776,0.0
16.486,0.562,-0.802,0.0
15.128,0.511,-0.817,0.0
25.359,0.849,-0.659,0.0
22.476,0.747,-0.704,0.0
20.127,0.663,-0.738,0.0
18.173,0.594,-0.765,0.0
16.732,0.543,-0.794,0.0
15.351,0.494,-0.81,0.0
26.212,0.836,-0.649,0.0
23.13,0.731,-0.696,0.0
20.568,0.645,-0.729,0.0
18.553,0.577,-0.758,0.0
17.009,0.525,-0.786,0.0
15.706,0.481,-0.809,0.0
28.367,0.86,-0.667,0.0
23.858,0.717,-0.688,0.0
21.249,0.633,-0.726,0.0
18.993,0.561,-0.752,0.0
17.446,0.511,-0.783,0.0
15.968,0.463,-0.802,0.0
28.486,0.819,-0.633,2.0
24.707,0.704,-0.68,0.0
21.824,0.616,-0.717,0.0
19.473,0.545,-0.745,0.0
17.65,0.489,-0.769,0.0
16.31,0.448,-0.798,0.0
28.594,0.777,-0.598,1.0
25.391,0.684,-0.665,0.0
22.504,0.6,-0.709,0.0
20.071,0.53,-0.741,0.0
18.178,0.476,-0.767,0.0
16.705,0.433,-0.794,0.0
28.659,0.735,-0.56,0.0
26.208,0.665,-0.65,0.0
0.0,0.0,0.0,0.0
20.64,0.514,-0.733,0.0
18.476,0.455,-0.754,0.0
17.12,0.418,-0.79,0.0
32.068,0.774,-0.581,0.0
27.473,0.656,-0.643,0.0
23.974,0.567,-0.688,0.0
21.352,0.499,-0.728,0.0
19.239,0.445,-0.758,0.0
17.458,0.4,-0.78,0.0
0.0,0.0,0.0,0.0
28.465,0.637,-0.626,0.0
24.714,0.547,-0.674,0.0
21.994,0.481,-0.718,0.0
19.704,0.426,-0.747,0.0
17.903,0.383,-0.774,0.0
35.222,0.745,-0.537,0.0
29.572,0.618,-0.607,0.0
25.903,0.535,-0.668,0.0
22.471,0.459,-0.7,0.0
20.403,0.412,-0.743,0.0
18.342,0.366,-0.765,0.0
37.742,0.744,-0.519,0.0
30.732,0.598,-0.584,0.0
26.623,0.511,-0.646,0.0
23.35,0.443,-0.692,0.0
21.142,0.396,-0.738,0.0
18.92,0.35,-0.76,0.0
0.0,0.0,0.0,0.0
0.0,0.0,0.0,0.0
28.046,0.499,-0.637,0.0
24.333,0.427,-0.683,0.0
21.69,0.375,-0.723,0.0
19.471,0.332,-0.752,0.0
41.734,0.703,-0.444,1.0
0.0,0.0,0.0,0.0
29.311,0.48,-0.62,0.0
25.4,0.41,-0.673,0.0
22.45,0.357,-0.713,0.0
20.095,0.315,-0.744,0.0
0.0,0.0,0.0,0.0
36.52,0.556,-0.522,0.0
30.484,0.457,-0.596,0.0
26.378,0.389,-0.657,0.0
23.149,0.336,-0.698,0.0
20.893,0.299,-0.739,0.0
0.0,0.0,0.0,0.0
0.0,0.0,0.0,0.0
0.0,0.0,0.0,0.0
27.605,0.37,-0.642,0.0
23.987,0.316,-0.683,0.0
21.674,0.281,-0.731,0.0
0.0,0.0,0.0,0.0
41.025,0.514,-0.452,0.0
34.114,0.42,-0.555,0.0
29.049,0.351,-0.628,0.0
25.259,0.3,-0.678,0.0
22.472,0.262,-0.721,0.0
0.0,0.0,0.0,0.0
46.448,0.522,-0.435,0.0
36.386,0.401,-0.531,0.0
30.376,0.328,-0.605,0.0
26.388,0.279,-0.664,0.0
23.2,0.241,-0.705,0.0
0.0,0.0,0.0,0.0
46.661,0.465,-0.358,0.0
38.913,0.379,-0.501,0.0
31.945,0.305,-0.582,0.0
27.454,0.256,-0.643,0.0
24.008,0.219,-0.688,0.0
0.0,0.0,0.0,0.0
49.568,0.432,-0.294,0.0
42.768,0.364,-0.477,0.0
33.556,0.278,-0.552,0.0
28.928,0.234,-0.628,0.0
25.145,0.198,-0.676,0.0
85.307,0.657,0.086,3.0
55.214,0.414,-0.232,0.0
42.918,0.313,-0.403,0.0
36.659,0.26,-0.539,0.0
30.387,0.209,-0.605,0.0
26.503,0.177,-0.666,0.0
86.953,0.566,0.242,4.0
0.0,0.0,0.0,0.0
0.0,0.0,0.0,0.0
0.0,0.0,0.0,0.0
31.97,0.182,-0.579,0.0
27.863,0.154,-0.65,0.0
90.794,0.485,0.415,3.0
0.0,0.0,0.0,0.0
49.665,0.246,-0.288,0.0
42.822,0.204,-0.476,0.0
34.728,0.158,-0.567,0.0
29.311,0.128,-0.63,0.0
104.283,0.438,0.667,8.0
0.0,0.0,0.0,0.0
0.0,0.0,0.0,0.0
42.838,0.156,-0.398,0.0
37.287,0.129,-0.54,0.0
30.811,0.1,-0.606,0.0
111.029,0.344,0.913,17.0
92.687,0.27,0.281,1.0
0.0,0.0,0.0,0.0
49.626,0.127,-0.369,0.0
38.287,0.091,-0.484,0.0
33.248,0.073,-0.592,0.0
111.178,0.224,1.122,18.0
103.129,0.191,0.505,1.0
0.0,0.0,0.0,0.0
0.0,0.0,0.0,0.0
42.804,0.056,-0.46,0.0
35.288,0.04,-0.563,0.0
111.135,0.109,1.33,18.0
110.76,0.089,0.752,10.0
0.0,0.0,0.0,0.0
0.0,0.0,0.0,0.0
45.413,0.013,-0.402,2.0
37.295,0.005,-0.523,0.0
117.303,-0.002,1.626,13.0
117.207,-0.022,1.018,8.0
0.0,0.0,0.0,0.0
0.0,0.0,0.0,0.0
48.58,-0.033,-0.337,0.0
0.0,0.0,0.0,0.0
112.511,-0.112,1.775,14.0
119.718,-0.138,1.269,9.0
110.657,-0.146,0.6,9.0
0.0,0.0,0.0,0.0
0.0,0.0,0.0,0.0
45.255,-0.08,-0.461,0.0
113.819,-0.221,2.016,4.0
119.698,-0.25,1.499,10.0
114.489,-0.257,0.842,150.0
0.0,0.0,0.0,0.0
0.0,0.0,0.0,0.0
45.327,-0.122,-0.374,0.0
119.827,-0.342,2.355,56.0
113.467,-0.339,1.642,2.0
119.673,-0.375,1.112,16.0
103.564,-0.34,0.417,2.0
0.0,0.0,0.0,0.0
51.243,-0.183,-0.322,0.0
119.787,-0.446,2.588,14.0
119.78,-0.463,1.97,4.0
119.7,-0.479,1.35,15.0
111.035,-0.46,0.668,3.0
0.0,0.0,0.0,0.0
0.0,0.0,0.0,0.0
119.797,-0.547,2.826,37.0
119.792,-0.563,2.207,24.0
119.695,-0.578,1.587,3.0
119.701,-0.594,0.958,11.0
0.0,0.0,0.0,0.0
0.0,0.0,0.0,0.0
119.745,-0.643,3.064,12.0
194.566,-1.069,3.972,16.0
119.78,-0.673,1.827,17.0
119.697,-0.688,1.197,16.0
111.089,-0.652,0.536,5.0
0.0,0.0,0.0,0.0
119.789,-0.736,3.305,25.0
119.797,-0.75,2.687,47.0
119.821,-0.764,2.067,44.0
119.7,-0.777,1.435,16.0
119.661,-0.791,0.818,6.0
0.0,0.0,0.0,0.0
205.567,-1.412,6.082,9.0
119.714,-0.836,2.923,11.0
119.732,-0.849,2.306,14.0
119.721,-0.862,1.677,24.0
119.693,-0.875,1.059,16.0
0.0,0.0,0.0,0.0
0.0,0.0,0.0,0.0
119.724,-0.918,3.166,99.0
119.728,-0.931,2.548,85.0
119.757,-0.943,1.919,88.0
119.701,-0.955,1.3,19.0
114.296,-0.924,0.653,8.0
0.0,0.0,0.0,0.0
119.706,-0.996,3.408,30.0
119.731,-1.008,2.792,75.0
119.731,-1.019,2.161,97.0
119.727,-1.03,1.543,64.0
119.685,-1.041,0.927,16.0
190.55,-1.686,6.797,22.0
210.65,-1.882,6.425,12.0
119.725,-1.08,3.035,150.0
119.717,-1.091,2.406,150.0
119.739,-1.102,1.79,150.0
119.739,-1.112,1.172,147.0
190.533,-1.797,7.185,36.0
210.872,-2.007,6.865,11.0
119.708,-1.148,3.279,150.0
119.737,-1.158,2.65,151.0
119.753,-1.169,2.034,152.0
119.767,-1.179,1.419,151.0
189.802,-1.893,7.546,102.0
190.547,-1.916,6.594,16.0
211.278,-2.14,6.221,7.0
119.726,-1.222,2.898,16.0
119.718,-1.23,2.279,27.0
119.751,-1.239,1.663,50.0
189.802,-1.99,7.935,53.0
190.505,-2.01,6.98,33.0
210.68,-2.238,6.632,7.0
209.249,-2.236,5.487,10.0
210.456,-2.263,4.433,10.0
119.801,-1.296,1.907,3.0
112.212,-1.229,4.921,9.0
190.368,-2.097,7.365,21.0
210.49,-2.332,7.059,9.0
209.311,-2.331,5.918,15.0
210.262,-2.353,4.859,6.0
0.0,0.0,0.0,0.0
95.0,-1.081,4.359,11.0
189.778,-2.17,7.729,20.0
190.548,-2.19,6.778,23.0
209.944,-2.424,6.366,10.0
208.96,-2.422,5.259,5.0
0.0,0.0,0.0,0.0
81.249,-0.956,3.895,20.0
112.019,-1.324,4.793,18.0
190.395,-2.26,7.163,28.0
210.272,-2.504,6.802,10.0
209.117,-2.5,5.689,8.0
210.428,-2.525,4.642,9.0
81.427,-0.988,4.071,13.0
94.915,-1.156,4.257,16.0
112.58,-1.374,4.467,3.0
190.591,-2.335,6.559,8.0
209.476,-2.574,6.131,6.0
0.0,0.0,0.0,0.0
60.684,-0.755,3.159,5.0
84.923,-1.06,3.982,8.0
