X,Y,Z,Reflectivity
71.107,-5.219,6.574,13.0
72.381,-5.31,6.308,8.0
72.83,-5.341,5.961,23.0
0.0,0.0,0.0,0.0
75.9,-5.562,5.4,8.0
76.35,-5.594,5.028,4.0
71.365,-5.244,6.704,8.0
70.82,-5.2,6.277,13.0
70.475,-5.173,5.872,7.0
73.545,-5.396,5.73,9.0
78.978,-5.792,5.735,19.0
71.821,-5.265,4.835,6.0
73.459,-5.401,7.01,2.0
70.952,-5.212,6.393,21.0
70.481,-5.175,5.976,11.0
73.304,-5.379,5.819,39.0
72.527,-5.32,5.373,7.0
71.842,-5.266,4.942,15.0
72.396,-5.322,7.015,11.0
71.022,-5.217,6.504,19.0
72.304,-5.308,6.237,11.0
72.957,-5.352,5.898,41.0
74.664,-5.473,5.64,8.0
71.846,-5.264,5.047,7.0
71.908,-5.284,7.073,13.0
71.221,-5.228,6.626,12.0
70.719,-5.187,6.203,6.0
72.751,-5.332,5.986,13.0
78.085,-5.718,6.01,8.0
79.151,-5.793,5.672,8.0
68.05,-4.995,6.791,31.0
71.34,-5.231,6.739,7.0
70.806,-5.186,6.311,26.0
70.429,-5.154,5.895,7.0
73.428,-5.369,5.756,15.0
79.07,-5.777,5.779,16.0
68.044,-4.985,6.888,18.0
73.387,-5.371,7.036,10.0
70.957,-5.188,6.424,26.0
0.0,0.0,0.0,0.0
73.152,-5.338,5.835,20.0
74.654,-5.443,5.558,8.0
74.311,-5.433,7.624,7.0
78.039,-5.699,7.589,8.0
71.194,-5.193,6.543,11.0
72.366,-5.272,6.257,10.0
72.885,-5.304,5.913,19.0
74.624,-5.425,5.657,13.0
71.846,-5.238,7.47,11.0
78.02,-5.681,7.694,7.0
73.272,-5.328,6.834,8.0
70.716,-5.135,6.21,7.0
72.258,-5.241,5.96,17.0
74.349,-5.387,5.735,10.0
71.799,-5.217,7.563,25.0
68.047,-4.937,6.802,27.0
73.461,-5.323,6.949,9.0
70.865,-5.128,6.317,23.0
72.113,-5.211,6.043,12.0
74.469,-5.375,5.843,28.0
71.676,-5.188,7.645,28.0
68.051,-4.918,6.892,32.0
73.517,-5.305,7.051,8.0
71.13,-5.126,6.434,17.0
72.172,-5.194,6.141,17.0
0.0,0.0,0.0,0.0
70.188,-5.058,7.578,13.0
68.053,-4.896,6.981,14.0
0.0,0.0,0.0,0.0
72.893,-5.227,6.687,15.0
71.962,-5.153,6.215,12.0
72.221,-5.164,5.852,29.0
70.75,-5.073,7.73,49.0
72.036,-5.156,7.481,7.0
72.267,-5.164,7.116,7.0
78.044,-5.567,7.258,13.0
71.268,-5.075,6.245,22.0
72.455,-5.152,5.96,23.0
41.245,-0.26,4.489,37.0
41.158,-0.254,4.238,41.0
41.949,-0.253,4.075,41.0
41.314,-0.244,3.768,41.0
41.533,-0.24,3.546,41.0
41.801,-0.237,3.327,46.0
41.181,-0.222,4.424,42.0
41.16,-0.217,4.181,42.0
41.783,-0.215,4.0,39.0
41.306,-0.207,3.709,42.0
41.456,-0.202,3.481,41.0
41.978,-0.2,3.281,35.0
41.128,-0.184,4.359,45.0
41.282,-0.18,4.133,40.0
41.667,-0.177,3.928,40.0
41.324,-0.17,3.651,40.0
41.484,-0.166,3.424,40.0
42.458,-0.166,3.258,25.0
41.304,-0.149,4.317,40.0
41.193,-0.144,4.064,49.0
41.664,-0.141,3.867,41.0
41.422,-0.136,3.599,40.0
41.603,-0.131,3.372,50.0
42.141,-0.128,3.17,3.0
41.261,-0.114,4.25,42.0
41.912,-0.112,4.072,32.0
41.864,-0.107,3.822,36.0
41.512,-0.101,3.543,37.0
41.974,-0.098,3.338,31.0
60.988,-0.136,4.496,9.0
41.423,-0.081,4.203,40.0
41.831,-0.077,3.999,44.0
41.584,-0.072,3.732,38.0
41.435,-0.068,3.473,41.0
41.934,-0.064,3.27,45.0
61.062,-0.087,4.407,7.0
41.35,-0.048,4.13,46.0
42.372,-0.045,3.984,27.0
41.389,-0.04,3.65,43.0
41.504,-0.036,3.413,36.0
45.704,-0.035,3.491,16.0
60.973,-0.04,4.304,14.0
41.479,-0.016,4.077,45.0
42.049,-0.013,3.887,21.0
41.561,-0.008,3.598,44.0
41.567,-0.005,3.352,41.0
45.742,-0.001,3.422,4.0
60.633,0.003,4.183,6.0
42.188,0.013,4.077,19.0
42.318,0.017,3.842,20.0
41.499,0.021,3.525,45.0
41.656,0.024,3.29,22.0
57.089,0.039,4.176,2.0
60.573,0.047,4.079,5.0
42.351,0.043,4.023,18.0
41.497,0.046,3.699,25.0
41.488,0.049,3.455,40.0
42.006,0.054,3.248,15.0
60.822,0.083,4.348,9.0
50.405,0.073,3.31,2.0
42.126,0.072,3.93,20.0
41.544,0.074,3.632,37.0
41.699,0.078,3.402,39.0
45.611,0.089,3.45,8.0
67.892,0.137,4.739,6.0
60.409,0.127,3.864,6.0
41.445,0.097,3.795,42.0
41.565,0.101,3.562,43.0
41.748,0.104,3.334,39.0
57.05,0.147,4.216,3.0
67.433,0.178,4.59,10.0
67.195,0.183,4.182,16.0
41.417,0.123,3.721,34.0
41.453,0.126,3.48,37.0
41.867,0.13,3.269,38.0
47.762,0.152,3.446,6.0
60.389,0.196,4.005,20.0
67.682,0.225,4.093,6.0
41.56,0.147,3.659,38.0
41.661,0.151,3.424,46.0
45.707,0.168,3.488,5.0
47.811,0.179,3.364,17.0
60.309,0.23,3.891,7.0
73.42,0.284,4.31,2.0
41.519,0.17,3.58,40.0
41.704,0.174,3.351,42.0
45.68,0.193,3.404,18.0
60.681,0.26,4.161,11.0
60.295,0.262,3.782,15.0
80.551,0.354,4.582,8.0
41.574,0.192,3.509,48.0
41.852,0.196,3.287,14.0
47.789,0.226,3.473,4.0
60.569,0.29,4.041,30.0
71.751,0.347,4.369,6.0
80.3,0.392,4.421,15.0
41.783,0.213,3.449,53.0
41.861,0.216,3.21,12.0
61.152,0.318,4.332,2.0
60.427,0.317,3.92,7.0
70.356,0.373,4.154,4.0
81.052,0.434,4.312,5.0
41.887,0.233,3.38,19.0
47.637,0.267,3.565,5.0
60.798,0.343,4.193,31.0
60.163,0.342,3.791,6.0
80.3,0.46,4.591,10.0
78.709,0.454,4.041,10.0
41.847,0.25,3.298,14.0
44.895,0.27,3.275,3.0
60.761,0.368,4.076,13.0
0.0,0.0,0.0,0.0
80.687,0.494,4.46,10.0
80.825,0.498,3.996,3.0
41.798,0.266,3.214,4.0
60.998,0.39,4.332,7.0
60.588,0.39,3.948,3.0
73.9,0.477,4.376,2.0
81.328,0.527,4.341,14.0
80.778,0.526,3.839,9.0
44.925,0.301,3.368,9.0
60.626,0.408,4.189,8.0
60.013,0.406,3.794,8.0
80.475,0.546,4.609,7.0
78.651,0.536,4.045,8.0
97.607,0.668,4.45,21.0
44.932,0.315,3.281,20.0
68.302,0.481,4.587,8.0
70.302,0.497,4.308,3.0
81.237,0.575,4.494,14.0
78.703,0.559,3.895,4.0
70.042,0.499,3.057,20.0
67.848,0.495,4.82,7.0
73.982,0.541,4.822,8.0
78.426,0.575,4.652,9.0
81.376,0.598,4.342,23.0
80.536,0.593,3.827,11.0
104.782,0.773,4.367,16.0
67.499,0.509,4.661,19.0
60.037,0.453,3.794,7.0
78.464,0.593,4.499,9.0
81.239,0.615,4.175,8.0
97.63,0.74,4.446,16.0
69.891,0.53,2.775,7.0
60.503,0.468,4.058,7.0
0.0,0.0,0.0,0.0
81.32,0.631,4.5,10.0
78.632,0.61,3.884,5.0
70.099,0.544,3.052,14.0
69.853,0.542,2.634,9.0
60.098,0.475,3.91,7.0
78.361,0.619,4.638,13.0
81.412,0.644,4.341,11.0
80.578,0.637,3.816,15.0
97.785,0.773,4.061,13.0
69.679,0.551,2.486,11.0
60.004,0.482,3.781,19.0
80.746,0.649,4.616,4.0
78.656,0.631,4.035,4.0
97.618,0.783,4.426,10.0
69.876,0.56,2.759,13.0
69.837,0.559,2.35,12.0
78.348,0.637,4.777,11.0
81.366,0.661,4.483,14.0
78.674,0.638,3.874,5.0
70.037,0.567,3.033,9.0
104.637,0.846,3.919,15.0
104.658,0.845,3.309,22.0
78.305,0.641,4.615,11.0
81.38,0.665,4.319,13.0
80.602,0.657,3.805,13.0
97.808,0.795,4.034,15.0
69.695,0.566,2.467,14.0
104.704,0.848,3.095,31.0
80.655,0.661,4.587,9.0
78.677,0.644,4.013,7.0
70.057,0.571,3.163,5.0
69.859,0.568,2.738,17.0
69.812,0.567,2.328,13.0
104.725,0.847,2.881,31.0
81.409,0.666,4.462,15.0
80.672,0.658,3.949,5.0
97.763,0.795,4.212,17.0
104.674,0.848,3.886,18.0
104.686,0.845,3.273,25.0
104.73,0.842,2.663,27.0
81.349,0.661,4.289,10.0
80.573,0.652,3.775,10.0
104.812,0.844,4.297,9.0
69.656,0.559,2.44,10.0
104.725,0.837,3.058,29.0
104.787,0.834,2.447,8.0
78.674,0.631,3.984,9.0
70.054,0.559,3.137,9.0
69.871,0.555,2.72,18.0
69.844,0.552,2.304,10.0
104.75,0.825,2.842,28.0
104.726,0.82,2.23,2.0
80.625,0.636,3.915,9.0
97.778,0.767,4.176,14.0
104.757,0.817,3.861,15.0
104.695,0.812,3.235,23.0
104.748,0.808,2.624,30.0
101.747,0.781,1.955,1.0
97.64,0.753,4.538,12.0
104.782,0.804,4.257,18.0
69.715,0.531,2.424,10.0
104.769,0.793,3.018,26.0
104.769,0.788,2.406,28.0
101.355,0.757,1.735,1.0
70.068,0.526,3.109,13.0
104.75,0.78,4.034,19.0
69.835,0.516,2.281,9.0
104.756,0.769,2.796,33.0
104.813,0.764,2.186,18.0
0.0,0.0,0.0,0.0
70.133,0.508,2.964,11.0
69.717,0.501,2.538,19.0
104.783,0.747,3.203,22.0
104.816,0.741,2.58,23.0
104.958,0.736,1.97,5.0
0.0,0.0,0.0,0.0
104.809,0.73,4.211,16.0
104.699,0.723,3.595,19.0
104.857,0.717,2.986,15.0
111.045,0.752,2.501,11.0
111.123,0.745,1.852,7.0
104.93,0.697,1.137,5.0
69.993,0.464,2.665,8.0
104.811,0.688,3.378,13.0
111.058,0.722,2.931,26.0
111.065,0.714,2.271,25.0
111.085,0.706,1.621,10.0
104.978,0.66,0.917,22.0
69.773,0.438,2.511,22.0
111.046,0.688,3.346,27.0
111.042,0.68,2.697,31.0
111.036,0.672,2.038,28.0
111.067,0.664,1.388,21.0
104.68,0.617,0.696,9.0
111.081,0.652,3.764,10.0
111.049,0.643,3.112,30.0
111.076,0.634,2.463,25.0
111.066,0.625,1.802,32.0
111.022,0.616,1.153,21.0
92.314,0.504,0.419,1.0
111.054,0.602,3.528,23.0
111.088,0.593,2.88,23.0
111.064,0.583,2.23,27.0
111.061,0.574,1.569,31.0
110.897,0.564,0.92,9.0
88.028,0.44,0.217,5.0
111.147,0.55,3.301,21.0
111.151,0.54,2.652,23.0
111.102,0.53,2.002,23.0
111.076,0.52,1.343,30.0
104.28,0.478,0.651,6.0
0.0,0.0,0.0,0.0
119.864,0.532,3.312,20.0
111.181,0.483,2.423,10.0
111.186,0.472,1.772,20.0
111.065,0.46,1.109,19.0
94.819,0.384,0.394,2.0
0.0,0.0,0.0,0.0
119.857,0.465,3.062,13.0
119.858,0.453,2.361,41.0
119.794,0.44,1.66,11.0
110.787,0.396,0.876,8.0
0.0,0.0,0.0,0.0
0.0,0.0,0.0,0.0
119.871,0.394,2.815,50.0
119.874,0.382,2.116,150.0
119.766,0.369,1.414,17.0
103.939,0.309,0.609,6.0
0.0,0.0,0.0,0.0
52.8,0.145,-0.306,0.0
112.641,0.3,2.414,8.0
119.867,0.306,1.868,14.0
111.125,0.272,1.085,15.0
92.943,0.217,0.354,1.0
0.0,0.0,0.0,0.0
0.0,0.0,0.0,0.0
112.696,0.226,2.185,11.0
111.136,0.209,1.505,18.0
110.753,0.196,0.853,7.0
0.0,0.0,0.0,0.0
0.0,0.0,0.0,0.0
42.882,0.061,-0.423,1.0
112.914,0.148,1.96,5.0
111.167,0.132,1.281,20.0
103.167,0.11,0.588,5.0
0.0,0.0,0.0,0.0
0.0,0.0,0.0,0.0
39.977,0.028,-0.475,0.0
111.103,0.065,1.707,15.0
111.148,0.051,1.058,7.0
95.576,0.032,0.354,6.0
0.0,0.0,0.0,0.0
45.563,0.003,-0.368,2.0
35.537,-0.001,-0.494,0.0
111.071,-0.02,1.483,13.0
110.926,-0.034,0.835,13.0
0.0,0.0,0.0,0.0
0.0,0.0,0.0,0.0
40.832,-0.028,-0.411,0.0
34.361,-0.029,-0.546,0.0
117.399,-0.115,1.334,16.0
0.0,0.0,0.0,0.0
0.0,0.0,0.0,0.0
0.0,0.0,0.0,0.0
0.0,0.0,0.0,0.0
31.236,-0.052,-0.558,0.0
117.334,-0.213,1.101,6.0
0.0,0.0,0.0,0.0
0.0,0.0,0.0,0.0
45.433,-0.102,-0.372,0.0
35.891,-0.085,-0.503,0.0
29.626,-0.074,-0.588,0.0
111.249,-0.298,0.828,11.0
0.0,0.0,0.0,0.0
0.0,0.0,0.0,0.0
41.733,-0.13,-0.423,0.0
35.114,-0.114,-0.56,0.0
28.306,-0.097,-0.617,0.0
111.102,-0.398,0.61,1.0
0.0,0.0,0.0,0.0
0.0,0.0,0.0,0.0
39.142,-0.158,-0.473,0.0
31.637,-0.133,-0.567,0.0
0.0,0.0,0.0,0.0
0.0,0.0,0.0,0.0
0.0,0.0,0.0,0.0
0.0,0.0,0.0,0.0
0.0,0.0,0.0,0.0
0.0,0.0,0.0,0.0
25.597,-0.135,-0.656,0.0
0.0,0.0,0.0,0.0
0.0,0.0,0.0,0.0
0.0,0.0,0.0,0.0
34.587,-0.206,-0.55,0.0
0.0,0.0,0.0,0.0
24.428,-0.154,-0.673,0.0
0.0,0.0,0.0,0.0
0.0,0.0,0.0,0.0
39.83,-0.272,-0.472,0.0
0.0,0.0,0.0,0.0
26.74,-0.191,-0.631,0.0
23.378,-0.171,-0.688,0.0
0.0,0.0,0.0,0.0
0.0,0.0,0.0,0.0
0.0,0.0,0.0,0.0
29.731,-0.239,-0.584,0.0
25.357,-0.208,-0.646,0.0
22.292,-0.187,-0.697,0.0
0.0,0.0,0.0,0.0
41.465,-0.363,-0.405,0.0
34.431,-0.308,-0.536,0.0
0.0,0.0,0.0,0.0
24.669,-0.229,-0.673,0.0
21.406,-0.203,-0.709,0.0
0.0,0.0,0.0,0.0
0.0,0.0,0.0,0.0
0.0,0.0,0.0,0.0
27.161,-0.277,-0.632,0.0
23.299,-0.242,-0.678,0.0
20.678,-0.219,-0.722,0.0
45.437,-0.491,-0.343,0.0
37.265,-0.409,-0.498,0.0
30.548,-0.341,-0.586,0.0
26.171,-0.297,-0.657,0.0
22.556,-0.26,-0.697,0.0
20.081,-0.236,-0.737,0.0
0.0,0.0,0.0,0.0
0.0,0.0,0.0,0.0
28.758,-0.355,-0.602,0.0
24.661,-0.309,-0.662,0.0
21.644,-0.275,-0.707,0.0
19.417,-0.251,-0.747,0.0
0.0,0.0,0.0,0.0
32.581,-0.434,-0.55,0.0
27.389,-0.371,-0.622,0.0
23.691,-0.325,-0.678,0.0
20.923,-0.291,-0.72,0.0
18.666,-0.264,-0.751,0.0
37.476,-0.538,-0.481,0.0
30.728,-0.447,-0.572,0.0
26.189,-0.386,-0.64,0.0
22.781,-0.341,-0.691,0.0
20.059,-0.304,-0.725,0.0
18.273,-0.281,-0.766,0.0
34.758,-0.542,-0.505,0.0
29.359,-0.464,-0.597,0.0
25.153,-0.402,-0.657,0.0
21.764,-0.353,-0.697,0.0
19.599,-0.322,-0.741,0.0
17.716,-0.294,-0.773,0.0
33.617,-0.567,-0.544,0.0
28.213,-0.481,-0.62,0.0
0.0,0.0,0.0,0.0
21.311,-0.373,-0.718,0.0
18.855,-0.334,-0.744,0.0
17.397,-0.311,-0.788,0.0
31.148,-0.565,-0.555,0.0
26.832,-0.492,-0.634,0.0
23.272,-0.432,-0.685,0.0
20.419,-0.384,-0.721,0.0
18.097,-0.344,-0.744,15.0
16.749,-0.322,-0.786,0.0
29.687,-0.578,-0.577,0.0
26.02,-0.512,-0.657,0.0
18.144,-0.361,-0.563,0.0
18.161,-0.365,-0.67,2.0
18.093,-0.368,-0.773,8.0
18.155,-0.373,-0.881,0.0
0.0,0.0,0.0,0.0
24.69,-0.519,-0.662,0.0
18.153,-0.385,-0.591,152.0
18.136,-0.389,-0.698,40.0
18.062,-0.392,-0.8,2.0
18.141,-0.398,-0.909,26.0
27.404,-0.607,-0.619,0.0
18.164,-0.407,-0.515,26.0
18.09,-0.409,-0.618,163.0
18.12,-0.414,-0.725,63.0
18.065,-0.417,-0.828,7.0
18.151,-0.423,-0.937,26.0
21.899,-0.515,-0.528,0.0
18.156,-0.431,-0.542,151.0
18.145,-0.435,-0.647,153.0
18.111,-0.439,-0.752,23.0
18.14,-0.444,-0.859,22.0
18.125,-0.448,-0.963,8.0
21.905,-0.546,-0.56,151.0
18.109,-0.456,-0.568,155.0
18.127,-0.46,-0.673,42.0
18.054,-0.463,-0.776,5.0
18.132,-0.469,-0.885,8.0
18.148,-0.474,-0.991,0.0
21.888,-0.577,-0.591,155.0
21.872,-0.582,-0.717,12.0
21.891,-0.587,-0.844,7.0
17.751,-0.48,-0.789,0.0
21.879,-0.598,-1.099,0.0
14.572,-0.402,-0.816,0.0
21.887,-0.608,-0.622,150.0
21.864,-0.613,-0.748,10.0
21.889,-0.619,-0.875,30.0
21.875,-0.624,-1.003,1.0
21.858,-0.629,-1.129,0.0
14.31,-0.415,-0.822,0.0
21.904,-0.641,-0.653,43.0
21.771,-0.642,-0.775,3.0
18.212,-0.542,-0.753,1.0
16.622,-0.499,-0.785,0.0
15.248,-0.461,-0.808,0.0
14.052,-0.429,-0.826,0.0
21.885,-0.673,-0.682,7.0
19.788,-0.613,-0.731,0.0
17.865,-0.558,-0.763,0.0
16.381,-0.516,-0.796,0.0
14.979,-0.476,-0.814,0.0
13.837,-0.443,-0.832,0.0
21.938,-0.707,-0.713,11.0
19.338,-0.628,-0.74,0.0
17.576,-0.575,-0.773,0.0
15.965,-0.527,-0.796,0.0
14.74,-0.49,-0.82,0.0
13.602,-0.456,-0.835,0.0
21.12,-0.713,-0.713,0.0
18.785,-0.639,-0.742,0.0
17.13,-0.587,-0.776,0.0
15.72,-0.543,-0.804,0.0
14.38,-0.5,-0.818,0.0
13.391,-0.469,-0.839,0.0
20.511,-0.724,-0.718,0.0
18.425,-0.655,-0.751,0.0
16.796,-0.601,-0.781,0.0
15.269,-0.551,-0.8,0.0
14.206,-0.516,-0.826,0.0
13.2,-0.483,-0.844,0.0
20.097,-0.74,-0.728,0.0
17.986,-0.667,-0.755,0.0
16.465,-0.615,-0.786,0.0
15.035,-0.566,-0.805,0.0
13.985,-0.53,-0.83,0.0
13.026,-0.497,-0.848,0.0
19.606,-0.753,-0.733,0.0
17.652,-0.682,-0.761,0.0
16.215,-0.631,-0.792,0.0
14.809,-0.58,-0.81,0.0
13.753,-0.543,-0.832,0.0
12.814,-0.509,-0.849,0.0
19.266,-0.77,-0.742,0.0
17.379,-0.699,-0.769,0.0
15.807,-0.64,-0.79,0.0
14.594,-0.595,-0.815,0.0
13.577,-0.557,-0.836,0.0
12.562,-0.519,-0.846,0.0
18.908,-0.785,-0.749,0.0
17.203,-0.719,-0.78,0.0
15.61,-0.657,-0.797,0.0
14.424,-0.611,-0.821,0.0
13.415,-0.572,-0.841,0.0
12.42,-0.533,-0.85,0.0
18.419,-0.794,-0.749,0.0
16.801,-0.729,-0.779,0.0
15.299,-0.668,-0.797,0.0
14.207,-0.625,-0.823,0.0
13.31,-0.589,-0.848,0.0
12.274,-0.547,-0.852,0.0
18.178,-0.813,-0.757,0.0
16.518,-0.743,-0.783,0.0
15.193,-0.688,-0.807,0.0
14.077,-0.641,-0.83,0.0
13.095,-0.601,-0.847,0.0
12.139,-0.56,-0.855,0.0
17.925,-0.83,-0.764,0.0
16.243,-0.757,-0.785,0.0
14.943,-0.701,-0.808,0.0
13.871,-0.655,-0.831,0.0
12.867,-0.611,-0.845,0.0
11.961,-0.572,-0.854,0.0
17.639,-0.846,-0.769,0.0
20.101,-0.97,-0.991,0.0
14.784,-0.717,-0.813,0.0
13.596,-0.664,-0.827,0.0
19.993,-0.982,-1.331,0.0
11.811,-0.583,-0.854,0.0
20.109,-0.997,-0.894,0.0
20.063,-1.0,-1.006,0.0
14.572,-0.731,-0.814,0.0
13.503,-0.681,-0.833,0.0
12.523,-0.635,-0.844,0.0
11.72,-0.598,-0.857,0.0
20.116,-1.03,-0.912,0.0
20.075,-1.033,-1.024,0.0
14.422,-0.747,-0.818,0.0
13.422,-0.699,-0.839,0.0
12.424,-0.651,-0.848,0.0
11.591,-0.61,-0.857,0.0
17.064,-0.901,-0.787,0.0
15.431,-0.819,-0.799,0.0
14.255,-0.761,-0.82,0.0
13.294,-0.714,-0.842,0.0
12.337,-0.666,-0.852,0.0
11.5,-0.625,-0.86,0.0
16.642,-0.906,-0.78,0.0
15.356,-0.84,-0.807,0.0
14.215,-0.782,-0.828,0.0
13.133,-0.727,-0.841,0.0
12.196,-0.679,-0.851,0.0
11.426,-0.639,-0.863,0.0
16.532,-0.927,-0.787,0.0
15.16,-0.854,-0.808,0.0
14.029,-0.795,-0.827,0.0
13.102,-0.746,-0.849,0.0
12.134,-0.695,-0.855,0.0
11.333,-0.653,-0.863,0.0
16.34,-0.943,-0.789,0.0
15.036,-0.872,-0.812,0.0
13.793,-0.804,-0.823,0.0
20.016,-1.173,-1.31,0.0
12.024,-0.708,-0.855,0.0
11.262,-0.667,-0.865,0.0
16.193,-0.961,-0.792,0.0
14.891,-0.888,-0.813,0.0
13.758,-0.825,-0.829,0.0
20.009,-1.206,-1.322,0.0
11.93,-0.722,-0.856,0.0
11.189,-0.681,-0.867,0.0
15.985,-0.975,-0.792,0.0
14.816,-0.908,-0.818,0.0
13.646,-0.84,-0.831,0.0
20.023,-1.24,-1.335,0.0
11.866,-0.738,-0.858,0.0
11.132,-0.696,-0.869,0.0
16.022,-1.003,-0.803,0.0
14.656,-0.922,-0.817,0.0
13.6,-0.86,-0.835,0.0
12.554,-0.798,-0.844,0.0
11.807,-0.754,-0.861,0.0
11.083,-0.711,-0.871,0.0
20.066,-1.289,-1.016,0.0
14.554,-0.94,-0.819,0.0
13.549,-0.879,-0.839,0.0
12.472,-0.813,-0.844,0.0
11.721,-0.768,-0.86,0.0
11.053,-0.727,-0.874,0.0
20.06,-1.322,-1.025,0.0
14.4,-0.953,-0.817,0.0
13.481,-0.896,-0.841,0.0
12.408,-0.829,-0.846,0.0
11.652,-0.782,-0.86,0.0
10.998,-0.742,-0.875,0.0
15.493,-1.046,-0.798,0.0
14.297,-0.97,-0.817,0.0
13.407,-0.913,-0.842,0.0
12.396,-0.848,-0.85,0.0
11.613,-0.798,-0.862,0.0
10.971,-0.758,-0.877,0.0
15.403,-1.065,-0.8,0.0
14.237,-0.989,-0.82,0.0
13.332,-0.93,-0.843,0.0
12.332,-0.864,-0.85,0.0
11.559,-0.813,-0.863,0.0
10.935,-0.773,-0.878,0.0
15.236,-1.078,-0.796,0.0
14.219,-1.01,-0.823,0.0
13.278,-0.947,-0.844,0.0
12.263,-0.879,-0.85,0.0
11.55,-0.831,-0.866,0.0
10.914,-0.789,-0.88,0.0
15.179,-1.098,-0.798,0.0
14.177,-1.03,-0.825,0.0
13.188,-0.962,-0.842,0.0
12.237,-0.896,-0.851,0.0
11.49,-0.845,-0.864,0.0
10.898,-0.805,-0.881,0.0
15.227,-1.126,-0.805,0.0
14.133,-1.049,-0.826,0.0
13.201,-0.984,-0.846,0.0
12.238,-0.916,-0.855,0.0
11.473,-0.862,-0.866,0.0
10.875,-0.821,-0.882,0.0
15.201,-1.147,-0.807,0.0
14.111,-1.069,-0.828,0.0
13.205,-1.005,-0.849,0.0
12.208,-0.933,-0.855,0.0
11.469,-0.88,-0.868,0.0
10.84,-0.835,-0.881,0.0
15.191,-1.171,-0.809,0.0
14.054,-1.087,-0.827,0.0
13.134,-1.02,-0.847,0.0
12.171,-0.949,-0.854,0.0
11.448,-0.896,-0.868,0.0
10.844,-0.852,-0.883,0.0
15.155,-1.191,-0.809,0.0
14.017,-1.106,-0.827,0.0
13.033,-1.032,-0.842,0.0
12.198,-0.97,-0.858,0.0
11.429,-0.912,-0.868,0.0
10.817,-0.867,-0.882,0.0
15.135,-1.213,-0.81,0.0
14.062,-1.131,-0.831,0.0
13.107,-1.058,-0.848,0.0
12.178,-0.987,-0.857,0.0
11.437,-0.931,-0.869,0.0
10.84,-0.885,-0.885,0.0
15.109,-1.234,-0.809,0.0
14.014,-1.149,-0.829,0.0
13.049,-1.074,-0.845,0.0
12.172,-1.005,-0.857,0.0
11.446,-0.949,-0.87,0.0
10.82,-0.9,-0.883,0.0
15.076,-1.254,-0.808,0.0
14.096,-1.177,-0.834,0.0
13.085,-1.096,-0.847,0.0
12.198,-1.026,-0.859,0.0
11.445,-0.966,-0.87,0.0
10.846,-0.919,-0.885,0.0
15.163,-1.284,-0.812,0.0
13.986,-1.188,-0.827,0.0
13.053,-1.113,-0.845,0.0
12.205,-1.044,-0.859,0.0
11.475,-0.985,-0.872,0.0
10.836,-0.934,-0.884,0.0
15.114,-1.302,-0.808,0.0
14.042,-1.214,-0.829,0.0
13.011,-1.129,-0.841,0.0
12.247,-1.066,-0.861,0.0
11.496,-1.004,-0.872,0.0
10.849,-0.951,-0.884,0.0
15.16,-1.328,-0.809,0.0
14.022,-1.232,-0.827,0.0
13.056,-1.151,-0.842,0.0
12.211,-1.08,-0.857,0.0
11.508,-1.022,-0.872,0.0
10.887,-0.97,-0.886,0.0
15.185,-1.352,-0.809,0.0
13.981,-1.249,-0.822,0.0
13.164,-1.18,-0.847,0.0
12.276,-1.104,-0.86,0.0
11.524,-1.04,-0.871,0.0
10.922,-0.989,-0.887,0.0
15.215,-1.377,-0.807,0.0
14.169,-1.286,-0.83,0.0
13.101,-1.193,-0.841,0.0
12.281,-1.122,-0.857,0.0
11.618,-1.065,-0.876,0.0
10.943,-1.006,-0.886,0.0
15.359,-1.411,-0.812,0.0
14.157,-1.305,-0.826,0.0
13.276,-1.227,-0.849,0.0
12.335,-1.144,-0.858,0.0
11.601,-1.079,-0.872,0.0
10.944,-1.021,-0.883,0.0
15.45,-1.441,-0.812,0.0
14.16,-1.324,-0.823,0.0
13.262,-1.244,-0.844,0.0
12.43,-1.169,-0.861,0.0
11.672,-1.101,-0.874,0.0
10.972,-1.039,-0.882,0.0
15.394,-1.456,-0.805,0.0
14.231,-1.35,-0.823,0.0
13.329,-1.268,-0.844,0.0
12.406,-1.184,-0.856,0.0
11.658,-1.116,-0.869,0.0
11.074,-1.063,-0.887,0.0
15.393,-1.476,-0.8,1.0
14.267,-1.372,-0.82,0.0
13.367,-1.289,-0.842,0.0
12.56,-1.215,-0.862,0.0
11.688,-1.134,-0.867,0.0
11.096,-1.08,-0.884,0.0
15.451,-1.502,-0.797,1.0
14.435,-1.407,-0.824,0.0
13.428,-1.312,-0.841,0.0
12.6,-1.235,-0.86,0.0
11.729,-1.153,-0.865,0.0
11.181,-1.102,-0.887,0.0
15.647,-1.541,-0.801,1.0
14.529,-1.434,-0.824,0.0
13.477,-1.334,-0.838,0.0
12.59,-1.25,-0.854,0.0
11.778,-1.172,-0.864,0.0
11.218,-1.12,-0.885,0.0
15.696,-1.565,-0.796,0.0
14.64,-1.463,-0.823,0.0
13.539,-1.357,-0.836,0.0
12.687,-1.275,-0.854,0.0
11.836,-1.192,-0.862,0.0
11.265,-1.138,-0.883,0.0
15.363,-1.55,-0.772,0.0
14.659,-1.483,-0.817,0.0
13.629,-1.382,-0.835,0.0
12.722,-1.294,-0.851,0.0
11.923,-1.215,-0.863,0.0
11.319,-1.157,-0.882,0.0
14.895,-1.521,-0.741,1.0
14.724,-1.507,-0.813,0.0
13.83,-1.419,-0.84,0.0
12.837,-1.32,-0.851,0.0
12.081,-1.246,-0.868,0.0
11.37,-1.175,-0.879,0.0
14.513,-1.498,-0.714,1.0
14.453,-1.496,-0.79,0.0
13.897,-1.442,-0.836,0.0
12.91,-1.342,-0.849,0.0
12.108,-1.262,-0.863,0.0
11.422,-1.194,-0.877,0.0
14.274,-1.49,-0.694,1.0
14.188,-1.484,-0.768,1.0
13.936,-1.461,-0.83,0.0
13.036,-1.37,-0.849,0.0
12.192,-1.284,-0.861,0.0
11.537,-1.218,-0.878,0.0
14.196,-1.497,-0.682,1.0
13.891,-1.468,-0.743,0.0
13.765,-1.458,-0.811,0.0
13.237,-1.405,-0.854,0.0
12.278,-1.306,-0.86,0.0
11.596,-1.237,-0.876,0.0
14.249,-1.518,-0.675,1.0
13.603,-1.452,-0.719,0.0
13.508,-1.445,-0.787,0.0
13.235,-1.419,-0.845,0.0
12.461,-1.339,-0.864,0.0
11.677,-1.257,-0.874,0.0
14.361,-1.544,-0.67,3.0
13.401,-1.444,-0.699,1.0
13.283,-1.434,-0.765,0.0
13.237,-1.432,-0.836,1.0
12.532,-1.359,-0.86,0.0
11.744,-1.276,-0.87,0.0
14.41,-1.564,-0.663,8.0
13.378,-1.455,-0.688,1.0
13.043,-1.421,-0.742,0.0
13.053,-1.425,-0.815,0.0
12.616,-1.38,-0.857,0.0
11.824,-1.296,-0.868,0.0
14.48,-1.585,-0.655,11.0
13.484,-1.479,-0.684,1.0
12.816,-1.408,-0.72,0.0
12.728,-1.402,-0.785,0.0
12.682,-1.399,-0.852,0.0
11.888,-1.314,-0.863,0.0
14.56,-1.608,-0.648,14.0
13.669,-1.512,-0.682,1.0
12.728,-1.41,-0.705,1.0
12.534,-1.391,-0.764,0.0
12.51,-1.391,-0.83,0.0
12.171,-1.356,-0.874,0.0
14.548,-1.619,-0.636,14.0
13.919,-1.552,-0.684,1.0
12.762,-1.425,-0.696,1.0
12.371,-1.384,-0.743,0.0
12.323,-1.381,-0.808,0.0
12.247,-1.375,-0.869,0.0
14.828,-1.663,-0.636,14.0
13.958,-1.568,-0.674,8.0
12.875,-1.449,-0.692,1.0
12.234,-1.379,-0.725,1.0
12.201,-1.377,-0.789,0.0
12.196,-1.379,-0.856,0.0
15.05,-1.7,-0.632,15.0
13.958,-1.579,-0.662,11.0
13.03,-1.476,-0.689,1.0
12.211,-1.386,-0.713,1.0
12.027,-1.367,-0.768,0.0
12.006,-1.367,-0.832,0.0
15.255,-1.735,-0.628,17.0
13.913,-1.585,-0.648,13.0
13.254,-1.512,-0.689,1.0
12.242,-1.398,-0.704,1.0
11.863,-1.357,-0.747,0.0
11.817,-1.354,-0.808,0.0
15.38,-1.76,-0.619,19.0
13.993,-1.604,-0.639,12.0
13.457,-1.545,-0.687,4.0
12.325,-1.417,-0.698,2.0
11.76,-1.354,-0.729,0.0
11.695,-1.348,-0.789,0.0
15.545,-1.79,-0.612,18.0
14.035,-1.618,-0.628,11.0
13.438,-1.551,-0.674,8.0
12.438,-1.438,-0.692,1.0
11.751,-1.36,-0.718,0.0
11.57,-1.341,-0.769,0.0
15.74,-1.823,-0.604,17.0
14.212,-1.648,-0.622,10.0
13.481,-1.565,-0.663,11.0
12.638,-1.469,-0.691,1.0
11.836,-1.378,-0.711,0.0
11.449,-1.334,-0.75,0.0
15.981,-1.86,-0.598,16.0
14.582,-1.699,-0.624,12.0
13.551,-1.581,-0.653,13.0
12.939,-1.512,-0.695,1.0
11.974,-1.401,-0.708,0.0
11.377,-1.332,-0.734,0.0
16.167,-1.891,-0.589,16.0
14.848,-1.739,-0.621,12.0
13.598,-1.594,-0.642,9.0
13.013,-1.527,-0.686,6.0
12.153,-1.428,-0.706,0.0
11.407,-1.342,-0.725,0.0
16.373,-1.924,-0.58,17.0
15.192,-1.787,-0.62,15.0
14.031,-1.652,-0.648,11.0
13.083,-1.542,-0.676,11.0
12.338,-1.456,-0.704,2.0
11.485,-1.357,-0.717,0.0
16.594,-1.958,-0.571,15.0
15.273,-1.804,-0.608,17.0
14.225,-1.682,-0.642,11.0
13.13,-1.554,-0.665,11.0
12.399,-1.469,-0.695,4.0
11.626,-1.378,-0.714,0.0
16.92,-2.004,-0.564,16.0
15.4,-1.825,-0.597,16.0
14.37,-1.705,-0.634,13.0
13.193,-1.567,-0.654,9.0
12.503,-1.486,-0.687,5.0
11.806,-1.405,-0.713,0.0
17.368,-2.064,-0.561,16.0
15.639,-1.86,-0.589,13.0
14.573,-1.734,-0.627,13.0
13.296,-1.584,-0.645,10.0
12.679,-1.512,-0.683,8.0
11.966,-1.428,-0.709,0.0
17.716,-2.112,-0.553,16.0
15.921,-1.899,-0.583,13.0
14.864,-1.774,-0.624,16.0
13.493,-1.612,-0.64,9.0
12.859,-1.537,-0.679,11.0
12.16,-1.455,-0.708,0.0
18.153,-2.169,-0.547,18.0
16.221,-1.94,-0.576,14.0
15.053,-1.801,-0.615,19.0
13.673,-1.637,-0.633,10.0
12.94,-1.55,-0.669,11.0
12.266,-1.471,-0.7,3.0
18.319,-2.194,-0.532,17.0
16.601,-1.989,-0.571,15.0
15.233,-1.826,-0.605,19.0
13.877,-1.665,-0.627,10.0
13.062,-1.568,-0.661,11.0
12.324,-1.48,-0.689,7.0
18.57,-2.228,-0.518,18.0
16.996,-2.04,-0.565,15.0
15.424,-1.852,-0.595,15.0
14.363,-1.726,-0.633,12.0
13.261,-1.594,-0.655,10.0
12.478,-1.501,-0.684,9.0
19.086,-2.294,-0.511,22.0
17.452,-2.098,-0.56,15.0
15.645,-1.882,-0.586,13.0
14.556,-1.751,-0.625,14.0
13.305,-1.601,-0.642,9.0
12.66,-1.524,-0.679,10.0
19.36,-2.329,-0.496,32.0
17.798,-2.142,-0.551,16.0
15.954,-1.92,-0.579,13.0
14.854,-1.789,-0.62,16.0
13.86,-1.67,-0.653,12.0
12.85,-1.548,-0.674,11.0
19.698,-2.372,-0.481,26.0
18.12,-2.182,-0.54,17.0
16.335,-1.967,-0.574,14.0
15.116,-1.821,-0.614,17.0
13.977,-1.684,-0.642,13.0
12.964,-1.563,-0.665,10.0
20.284,-2.443,-0.472,20.0
18.387,-2.215,-0.526,17.0
16.799,-2.024,-0.571,14.0
15.291,-1.842,-0.603,17.0
14.219,-1.713,-0.636,11.0
13.144,-1.584,-0.659,11.0
20.983,-2.527,-0.464,21.0
18.704,-2.253,-0.513,18.0
17.26,-2.079,-0.566,15.0
15.518,-1.869,-0.593,14.0
14.438,-1.739,-0.629,13.0
13.229,-1.594,-0.647,9.0
21.482,-2.586,-0.449,22.0
19.272,-2.32,-0.506,26.0
17.638,-2.123,-0.557,16.0
15.754,-1.896,-0.584,13.0
14.725,-1.772,-0.624,15.0
13.77,-1.658,-0.658,11.0
21.986,-2.645,-0.434,21.0
19.469,-2.342,-0.488,29.0
17.974,-2.161,-0.547,16.0
16.132,-1.94,-0.579,13.0
14.983,-1.801,-0.617,19.0
13.921,-1.674,-0.648,12.0
22.657,-2.722,-0.42,22.0
20.046,-2.408,-0.479,20.0
18.299,-2.198,-0.535,16.0
16.567,-1.989,-0.574,14.0
15.213,-1.826,-0.609,19.0
14.14,-1.697,-0.641,12.0
23.347,-2.801,-0.405,23.0
20.804,-2.495,-0.472,21.0
18.627,-2.233,-0.522,17.0
16.982,-2.035,-0.569,14.0
15.417,-1.847,-0.598,16.0
14.382,-1.723,-0.635,13.0
24.052,-2.88,-0.389,23.0
21.358,-2.556,-0.459,21.0
19.062,-2.28,-0.512,20.0
17.468,-2.089,-0.564,15.0
15.824,-1.892,-0.595,15.0
14.661,-1.752,-0.63,15.0
24.915,-2.976,-0.373,21.0
21.904,-2.615,-0.445,18.0
19.453,-2.321,-0.499,21.0
17.858,-2.13,-0.555,15.0
16.179,-1.929,-0.589,15.0
14.974,-1.785,-0.625,21.0
25.625,-3.052,-0.353,14.0
22.582,-2.688,-0.431,19.0
20.062,-2.387,-0.49,18.0
18.221,-2.167,-0.544,17.0
16.429,-1.953,-0.578,14.0
15.193,-1.805,-0.616,21.0
28.393,-3.372,-0.357,16.0
23.128,-2.744,-0.414,20.0
20.489,-2.43,-0.476,18.0
18.562,-2.2,-0.532,16.0
16.853,-1.996,-0.573,14.0
15.389,-1.822,-0.606,16.0
29.529,-3.494,-0.336,22.0
24.003,-2.838,-0.401,23.0
21.232,-2.508,-0.468,19.0
18.965,-2.239,-0.521,16.0
17.374,-2.05,-0.57,15.0
15.79,-1.862,-0.602,14.0
30.762,-3.625,-0.313,15.0
24.717,-2.911,-0.383,19.0
21.834,-2.569,-0.455,17.0
19.448,-2.286,-0.511,17.0
17.79,-2.09,-0.562,16.0
16.149,-1.896,-0.597,15.0
35.403,-4.154,-0.319,9.0
25.337,-2.97,-0.363,13.0
22.446,-2.629,-0.441,18.0
20.044,-2.346,-0.503,17.0
18.116,-2.118,-0.551,20.0
16.46,-1.923,-0.589,16.0
35.784,-4.179,-0.28,24.0
28.279,-3.299,-0.372,8.0
23.026,-2.684,-0.425,21.0
20.501,-2.387,-0.49,17.0
18.418,-2.142,-0.538,17.0
16.806,-1.953,-0.581,15.0
37.073,-4.307,-0.246,15.0
29.411,-3.413,-0.352,20.0
23.778,-2.756,-0.411,24.0
21.144,-2.449,-0.481,19.0
19.01,-2.199,-0.534,26.0
17.27,-1.996,-0.577,15.0
38.29,-4.424,-0.209,22.0
30.746,-3.548,-0.332,25.0
24.465,-2.82,-0.394,18.0
21.678,-2.496,-0.467,18.0
19.337,-2.223,-0.52,28.0
17.655,-2.028,-0.569,15.0
39.026,-4.482,-0.168,15.0
35.367,-4.056,-0.341,5.0
25.403,-2.91,-0.38,14.0
22.189,-2.538,-0.453,22.0
19.677,-2.248,-0.506,19.0
18.157,-2.072,-0.564,18.0
0.0,0.0,0.0,0.0
35.671,-4.064,-0.302,24.0
0.0,0.0,0.0,0.0
22.803,-2.591,-0.439,19.0
20.157,-2.287,-0.495,15.0
18.473,-2.094,-0.553,17.0
42.839,-4.854,-0.086,12.0
36.717,-4.155,-0.269,14.0
29.374,-3.319,-0.372,25.0
23.777,-2.682,-0.43,23.0
21.235,-2.392,-0.498,17.0
18.876,-2.124,-0.543,28.0
46.004,-5.175,-0.04,21.0
37.901,-4.257,-0.235,19.0
30.329,-3.401,-0.35,23.0
24.706,-2.766,-0.42,20.0
21.828,-2.44,-0.487,20.0
19.233,-2.147,-0.532,23.0
45.899,-5.123,0.011,18.0
38.698,-4.312,-0.197,14.0
0.0,0.0,0.0,0.0
25.413,-2.823,-0.403,15.0
22.417,-2.486,-0.475,22.0
20.25,-2.242,-0.538,26.0
48.522,-5.372,0.065,15.0
0.0,0.0,0.0,0.0
35.584,-3.926,-0.332,12.0
0.0,0.0,0.0,0.0
23.069,-2.536,-0.464,24.0
20.482,-2.248,-0.521,18.0
50.887,-5.585,0.124,14.0
42.567,-4.663,-0.123,17.0
36.067,-3.944,-0.297,13.0
28.719,-3.135,-0.393,23.0
23.636,-2.575,-0.45,39.0
20.911,-2.274,-0.51,16.0
33.145,-3.604,0.116,31.0
33.136,-3.596,-0.06,9.0
37.532,-4.066,-0.269,15.0
30.01,-3.245,-0.378,26.0
24.256,-2.618,-0.436,30.0
21.575,-2.324,-0.503,19.0
33.106,-3.566,0.151,79.0
33.104,-3.558,-0.025,71.0
33.093,-3.55,-0.202,50.0
0.0,0.0,0.0,0.0
25.552,-2.73,-0.432,12.0
22.541,-2.404,-0.502,29.0
33.106,-3.53,0.186,78.0
33.1,-3.522,0.008,81.0
33.089,-3.514,-0.168,76.0
32.554,-3.45,-0.343,44.0
27.124,-2.868,-0.431,14.0
22.863,-2.413,-0.486,17.0
33.115,-3.494,0.219,74.0
33.109,-3.486,0.042,72.0
33.095,-3.477,-0.134,75.0
33.089,-3.469,-0.315,73.0
28.708,-3.003,-0.427,12.0
23.394,-2.442,-0.473,7.0
33.142,-3.459,0.253,3.0
33.132,-3.45,0.075,18.0
33.118,-3.44,-0.101,49.0
33.127,-3.433,-0.282,67.0
29.878,-3.089,-0.414,26.0
23.559,-2.43,-0.453,19.0
87.778,-9.056,0.757,5.0
79.238,-8.154,0.259,4.0
45.855,-4.707,-0.095,20.0
38.117,-3.903,-0.287,18.0
30.446,-3.11,-0.393,26.0
23.561,-2.401,-0.43,6.0
98.376,-10.026,0.944,5.0
81.28,-8.263,0.344,7.0
47.35,-4.801,-0.053,21.0
38.843,-3.928,-0.256,14.0
31.085,-3.136,-0.371,9.0
23.588,-2.374,-0.408,0.0
111.351,-11.206,1.174,8.0
81.539,-8.184,0.422,4.0
48.491,-4.854,-0.008,16.0
0.0,0.0,0.0,0.0
35.351,-3.52,-0.389,11.0
23.659,-2.35,-0.388,0.0
111.521,-11.074,1.281,11.0
84.647,-8.383,0.517,12.0
51.054,-5.042,0.037,14.0
42.734,-4.209,-0.202,19.0
35.825,-3.519,-0.362,12.0
23.722,-2.324,-0.367,8.0
114.84,-11.25,1.42,8.0
85.251,-8.328,0.596,13.0
51.541,-5.02,0.083,3.0
44.318,-4.304,-0.171,19.0
36.912,-3.575,-0.34,15.0
29.58,-2.857,-0.432,8.0
119.035,-11.496,1.577,8.0
86.098,-8.289,0.677,7.0
72.062,-6.918,0.179,4.0
46.189,-4.421,-0.138,21.0
37.778,-3.605,-0.316,13.0
29.774,-2.833,-0.409,3.0
119.111,-11.333,1.68,15.0
89.043,-8.445,0.776,4.0
79.087,-7.478,0.263,3.0
47.554,-4.483,-0.102,22.0
38.726,-3.64,-0.292,14.0
29.864,-2.798,-0.386,14.0
119.197,-11.167,1.778,13.0
111.181,-10.383,1.06,9.0
78.261,-7.285,0.323,1.0
41.333,-3.835,-0.055,3.0
40.589,-3.755,-0.273,15.0
29.865,-2.754,-0.362,6.0
135.577,-12.5,2.13,150.0
111.689,-10.264,1.153,14.0
71.966,-6.591,0.355,2.0
51.142,-4.668,-0.028,25.0
41.63,-3.787,-0.248,16.0
29.922,-2.713,-0.339,0.0
135.618,-12.293,2.237,110.0
114.54,-10.347,1.272,6.0
84.259,-7.586,0.48,8.0
51.692,-4.637,0.01,5.0
43.969,-3.932,-0.228,18.0
30.043,-2.677,-0.318,0.0
135.645,-12.085,2.338,48.0
119.2,-10.583,1.41,6.0
86.187,-7.625,0.553,11.0
55.761,-4.915,0.051,5.0
45.171,-3.968,-0.202,19.0
35.634,-3.12,-0.352,0.0
135.715,-11.879,2.435,53.0
119.156,-10.39,1.494,16.0
89.43,-7.769,0.637,3.0
57.84,-5.006,0.093,4.0
0.0,0.0,0.0,0.0
35.65,-3.063,-0.328,3.0
126.485,-10.866,2.355,65.0
119.171,-10.198,1.575,17.0
89.501,-7.63,0.697,2.0
67.513,-5.733,0.153,8.0
47.935,-4.055,-0.15,15.0
35.791,-3.017,-0.305,2.0
126.501,-10.659,2.438,39.0
119.177,-10.001,1.651,16.0
87.141,-7.284,0.735,1.0
72.577,-6.043,0.212,5.0
50.305,-4.172,-0.125,24.0
40.675,-3.36,-0.322,0.0
126.498,-10.446,2.517,62.0
119.269,-9.809,1.726,16.0
114.273,-9.359,1.033,3.0
72.212,-5.89,0.254,8.0
50.757,-4.124,-0.096,22.0
40.648,-3.289,-0.298,5.0
126.511,-10.232,2.592,35.0
119.292,-9.607,1.796,28.0
114.414,-9.174,1.102,9.0
81.82,-6.533,0.335,11.0
51.239,-4.075,-0.068,4.0
40.65,-3.219,-0.274,11.0
67.912,-5.374,1.429,14.0
67.895,-5.35,1.06,43.0
67.874,-5.325,0.69,82.0
67.85,-5.3,0.314,90.0
0.0,0.0,0.0,0.0
40.638,-3.147,-0.253,8.0
67.897,-5.254,1.464,71.0
67.895,-5.23,1.095,43.0
67.88,-5.206,0.725,4.0
83.064,-6.341,0.428,7.0
62.802,-4.772,-0.018,2.0
40.703,-3.079,-0.233,2.0
72.528,-5.481,1.6,8.0
119.371,-8.981,1.984,40.0
20.037,-1.5,0.223,0.0
20.021,-1.492,0.112,6.0
63.941,-4.744,0.011,0.0
45.099,-3.331,-0.237,19.0
20.038,-1.478,0.451,2.0
20.017,-1.47,0.341,7.0
20.024,-1.463,0.232,32.0
19.99,-1.453,0.121,19.0
0.0,0.0,0.0,0.0
0.0,0.0,0.0,0.0
20.013,-1.44,0.459,10.0
20.015,-1.433,0.35,11.0
20.054,-1.428,0.241,22.0
20.023,-1.419,0.129,3.0
63.435,-4.474,0.064,0.0
48.722,-3.42,-0.216,0.0
20.016,-1.403,0.467,9.0
20.038,-1.397,0.358,9.0
119.322,-8.278,1.481,13.0
19.969,-1.378,0.136,0.0
20.014,-1.374,0.027,7.0
19.998,-1.366,-0.081,20.0
20.075,-1.369,0.475,8.0
119.43,-8.105,2.177,33.0
19.962,-1.347,0.254,10.0
20.0,-1.343,0.143,21.0
19.986,-1.334,0.034,19.0
19.983,-1.327,-0.074,28.0
19.963,-1.324,0.479,11.0
19.933,-1.315,0.369,15.0
19.961,-1.309,0.26,27.0
19.975,-1.303,0.149,26.0
19.982,-1.297,0.04,27.0
19.981,-1.289,-0.069,29.0
19.928,-1.284,0.484,19.0
19.934,-1.277,0.375,19.0
19.955,-1.271,0.266,28.0
19.984,-1.265,0.155,26.0
20.005,-1.26,0.045,24.0
20.006,-1.252,-0.063,23.0
19.932,-1.245,0.489,24.0
19.925,-1.237,0.379,24.0
19.942,-1.231,0.27,26.0
19.986,-1.227,0.159,150.0
19.983,-1.219,0.05,150.0
19.98,-1.212,-0.059,150.0
19.95,-1.208,0.494,25.0
19.943,-1.2,0.384,20.0
19.935,-1.192,0.274,25.0
20.006,-1.189,0.163,41.0
20.013,-1.182,0.053,20.0
20.005,-1.175,-0.055,14.0
19.958,-1.169,0.497,26.0
19.94,-1.161,0.387,20.0
19.966,-1.155,0.278,25.0
20.002,-1.149,0.166,11.0
20.017,-1.143,0.057,12.0
20.038,-1.137,-0.053,0.0
19.958,-1.13,0.5,25.0
19.953,-1.122,0.39,22.0
19.96,-1.115,0.28,24.0
19.987,-1.109,0.169,24.0
19.992,-1.102,0.059,23.0
20.009,-1.095,-0.05,19.0
19.959,-1.09,0.502,23.0
19.961,-1.082,0.392,19.0
19.975,-1.076,0.282,19.0
19.957,-1.067,0.17,18.0
19.978,-1.061,0.06,32.0
19.991,-1.055,-0.049,22.0
19.97,-1.05,0.504,17.0
19.973,-1.043,0.394,13.0
19.99,-1.036,0.284,15.0
20.014,-1.03,0.172,16.0
19.983,-1.021,0.061,17.0
19.975,-1.013,-0.048,24.0
20.12,-1.017,0.508,20.0
20.143,-1.011,0.397,25.0
20.158,-1.004,0.286,25.0
20.167,-0.997,0.173,2.0
20.043,-0.984,0.061,1.0
19.997,-0.974,-0.048,21.0
20.13,-0.977,0.508,25.0
20.144,-0.97,0.397,19.0
20.152,-0.963,0.286,1.0
138.263,-6.56,1.185,23.0
0.0,0.0,0.0,0.0
20.045,-0.936,-0.049,1.0
20.14,-0.937,0.507,13.0
20.151,-0.93,0.396,0.0
138.043,-6.322,1.952,46.0
138.272,-6.28,1.176,26.0
0.0,0.0,0.0,0.0
0.0,0.0,0.0,0.0
0.0,0.0,0.0,0.0
193.036,-8.517,3.779,21.0
138.097,-6.043,1.939,52.0
138.002,-5.986,1.159,22.0
0.0,0.0,0.0,0.0
0.0,0.0,0.0,0.0
193.016,-8.195,4.824,24.0
193.073,-8.123,3.755,22.0
138.18,-5.762,1.922,30.0
138.374,-5.719,1.143,21.0
0.0,0.0,0.0,0.0
0.0,0.0,0.0,0.0
192.678,-7.783,4.784,23.0
193.459,-7.74,3.73,18.0
138.377,-5.485,1.899,2.0
138.457,-5.439,1.119,18.0
0.0,0.0,0.0,0.0
0.0,0.0,0.0,0.0
192.661,-7.386,4.745,23.0
193.706,-7.352,3.694,9.0
0.0,0.0,0.0,0.0
138.499,-5.151,1.088,24.0
0.0,0.0,0.0,0.0
0.0,0.0,0.0,0.0
193.501,-7.011,4.718,15.0
193.696,-6.946,3.645,7.0
0.0,0.0,0.0,0.0
138.558,-4.867,1.053,17.0
0.0,0.0,0.0,0.0
0.0,0.0,0.0,0.0
187.444,-6.404,4.518,41.0
193.248,-6.531,3.582,9.0
0.0,0.0,0.0,0.0
138.648,-4.584,1.012,16.0
0.0,0.0,0.0,0.0
0.0,0.0,0.0,0.0
193.959,-6.228,4.614,26.0
193.961,-6.157,3.533,10.0
0.0,0.0,0.0,0.0
138.651,-4.297,0.965,12.0
0.0,0.0,0.0,0.0
0.0,0.0,0.0,0.0
194.634,-5.843,4.56,17.0
194.252,-5.761,3.467,6.0
138.503,-4.058,1.7,10.0
138.416,-4.004,0.912,17.0
0.0,0.0,0.0,0.0
55.124,-1.555,-0.251,0.0
206.157,-5.763,4.749,5.0
0.0,0.0,0.0,0.0
0.0,0.0,0.0,0.0
138.753,-3.727,0.858,11.0
45.566,-1.207,0.027,0.0
0.0,0.0,0.0,0.0
118.231,-3.061,2.672,2.0
193.046,-4.928,3.284,9.0
0.0,0.0,0.0,0.0
138.827,-3.444,0.796,7.0
0.0,0.0,0.0,0.0
54.576,-1.314,-0.297,0.0
118.187,-2.816,2.616,3.0
193.222,-4.535,3.195,11.0
138.922,-3.209,1.52,3.0
138.875,-3.156,0.728,4.0
0.0,0.0,0.0,0.0
0.0,0.0,0.0,0.0
193.903,-4.217,4.192,5.0
192.98,-4.126,3.091,9.0
138.922,-2.922,1.447,10.0
0.0,0.0,0.0,0.0
0.0,0.0,0.0,0.0
0.0,0.0,0.0,0.0
193.472,-3.808,4.077,15.0
139.02,-2.687,2.15,7.0
139.004,-2.637,1.371,16.0
0.0,0.0,0.0,0.0
0.0,0.0,0.0,0.0
0.0,0.0,0.0,0.0
193.866,-3.415,3.971,8.0
139.157,-2.403,2.07,7.0
139.111,-2.352,1.288,16.0
113.401,-1.877,0.402,4.0
0.0,0.0,0.0,0.0
0.0,0.0,0.0,0.0
194.687,-3.03,3.866,18.0
138.858,-2.111,1.977,22.0
138.833,-2.064,1.198,17.0
0.0,0.0,0.0,0.0
0.0,0.0,0.0,0.0
46.943,-0.648,-0.39,0.0
0.0,0.0,0.0,0.0
139.213,-1.834,1.89,3.0
139.231,-1.786,1.108,23.0
0.0,0.0,0.0,0.0
0.0,0.0,0.0,0.0
45.446,-0.536,-0.409,0.0
119.725,-1.377,2.216,8.0
119.744,-1.336,1.543,62.0
119.769,-1.296,0.869,150.0
0.0,0.0,0.0,0.0
0.0,0.0,0.0,0.0
0.0,0.0,0.0,0.0
119.747,-1.134,2.128,97.0
119.67,-1.094,1.453,17.0
114.333,-1.005,0.744,11.0
0.0,0.0,0.0,0.0
0.0,0.0,0.0,0.0
0.0,0.0,0.0,0.0
119.821,-0.895,2.038,20.0
119.711,-0.852,1.361,16.0
111.073,-0.752,0.636,5.0
0.0,0.0,0.0,0.0
0.0,0.0,0.0,0.0
40.549,-0.235,-0.456,0.0
119.805,-0.657,1.942,12.0
119.707,-0.616,1.265,16.0
111.107,-0.535,0.547,2.0
0.0,0.0,0.0,0.0
0.0,0.0,0.0,0.0
0.0,0.0,0.0,0.0
119.849,-0.419,1.842,2.0
114.466,-0.363,1.113,150.0
101.006,-0.288,0.413,1.0
0.0,0.0,0.0,0.0
0.0,0.0,0.0,0.0
39.442,-0.073,-0.511,0.0
114.497,-0.177,1.66,4.0
117.266,-0.142,1.038,8.0
97.535,-0.087,0.313,1.0
0.0,0.0,0.0,0.0
45.81,-0.011,-0.375,1.0
0.0,0.0,0.0,0.0
111.156,0.043,1.512,15.0
110.909,0.079,0.881,9.0
0.0,0.0,0.0,0.0
0.0,0.0,0.0,0.0
42.832,0.072,-0.39,0.0
36.288,0.073,-0.536,0.0
111.242,0.259,1.408,11.0
110.746,0.293,0.776,6.0
0.0,0.0,0.0,0.0
0.0,0.0,0.0,0.0
42.869,0.154,-0.431,0.0
34.795,0.136,-0.547,0.0
111.085,0.471,1.298,28.0
104.424,0.475,0.629,6.0
0.0,0.0,0.0,0.0
45.915,0.238,-0.248,1.0
42.783,0.235,-0.473,0.0
33.694,0.196,-0.563,0.0
104.972,0.645,1.121,5.0
97.075,0.628,0.486,4.0
0.0,0.0,0.0,0.0
0.0,0.0,0.0,0.0
39.909,0.295,-0.482,0.0
0.0,0.0,0.0,0.0
104.766,0.842,1.01,12.0
85.255,0.712,0.338,8.0
0.0,0.0,0.0,0.0
48.749,0.436,-0.364,0.0
37.745,0.349,-0.496,0.0
31.023,0.296,-0.583,0.0
98.48,0.973,0.845,16.0
85.399,0.87,0.247,2.0
0.0,0.0,0.0,0.0
46.276,0.499,-0.395,1.0
36.423,0.403,-0.518,0.0
30.236,0.344,-0.601,0.0
98.265,1.151,0.735,12.0
78.835,0.948,0.141,4.0
0.0,0.0,0.0,0.0
43.928,0.555,-0.424,1.0
35.209,0.454,-0.54,0.0
29.061,0.384,-0.611,0.0
92.042,1.247,0.583,5.0
76.606,1.06,0.05,1.0
0.0,0.0,0.0,0.0
41.495,0.599,-0.448,1.0
33.323,0.491,-0.55,0.0
0.0,0.0,0.0,0.0
84.956,1.305,0.439,7.0
74.517,1.166,-0.038,1.0
0.0,0.0,0.0,0.0
41.76,0.677,-0.501,0.0
32.409,0.535,-0.573,0.0
27.425,0.461,-0.641,0.0
84.441,1.447,0.335,4.0
0.0,0.0,0.0,0.0
0.0,0.0,0.0,0.0
37.783,0.679,-0.498,0.0
0.0,0.0,0.0,0.0
26.411,0.49,-0.649,0.0
73.724,1.392,0.202,4.0
0.0,0.0,0.0,0.0
45.007,0.875,-0.388,0.0
0.0,0.0,0.0,0.0
29.774,0.595,-0.599,0.0
25.996,0.527,-0.671,0.0
70.772,1.458,0.105,9.0
0.0,0.0,0.0,0.0
0.0,0.0,0.0,0.0
34.404,0.737,-0.54,0.0
28.924,0.628,-0.619,0.0
24.702,0.543,-0.669,0.0
68.181,1.521,0.015,5.0
0.0,0.0,0.0,0.0
40.454,0.924,-0.452,0.0
0.0,0.0,0.0,0.0
28.121,0.657,-0.638,0.0
24.293,0.574,-0.69,0.0
66.549,1.595,-0.071,2.0
0.0,0.0,0.0,0.0
0.0,0.0,0.0,0.0
31.557,0.781,-0.577,0.0
26.804,0.671,-0.643,0.0
23.47,0.593,-0.697,0.0
65.316,1.672,-0.156,2.0
0.0,0.0,0.0,0.0
37.278,0.974,-0.515,0.0
0.0,0.0,0.0,0.0
26.143,0.697,-0.663,0.0
22.586,0.608,-0.702,0.0
57.135,1.555,-0.214,6.0
0.0,0.0,0.0,0.0
35.233,0.977,-0.535,0.0
28.651,0.801,-0.601,1.0
25.146,0.71,-0.672,0.0
22.057,0.628,-0.715,0.0
55.433,1.597,-0.284,0.0
40.586,1.179,-0.44,0.0
33.465,0.98,-0.554,0.0
28.517,0.842,-0.638,2.0
24.259,0.723,-0.682,0.0
21.41,0.643,-0.724,0.0
48.95,1.486,-0.319,0.0
0.0,0.0,0.0,0.0
0.0,0.0,0.0,0.0
27.0,0.839,-0.642,0.0
23.653,0.741,-0.698,0.0
20.639,0.651,-0.727,0.0
45.496,1.45,-0.361,0.0
36.012,1.156,-0.492,0.0
30.285,0.979,-0.587,0.0
26.164,0.852,-0.66,0.0
22.524,0.739,-0.697,0.0
20.153,0.666,-0.739,0.0
0.0,0.0,0.0,0.0
34.848,1.17,-0.526,0.0
29.245,0.989,-0.609,0.0
24.85,0.846,-0.662,0.0
22.004,0.754,-0.713,0.0
19.613,0.677,-0.748,0.0
40.774,1.418,-0.442,0.0
33.301,1.166,-0.552,0.0
28.103,0.99,-0.627,0.0
24.158,0.857,-0.68,0.0
21.334,0.762,-0.723,0.0
18.956,0.681,-0.751,0.0
0.0,0.0,0.0,0.0
0.0,0.0,0.0,0.0
26.621,0.976,-0.633,0.0
23.379,0.862,-0.693,0.0
20.541,0.762,-0.726,0.0
18.622,0.695,-0.765,0.0
0.0,0.0,0.0,0.0
30.45,1.152,-0.596,0.0
26.011,0.99,-0.658,0.0
22.561,0.863,-0.703,0.0
19.912,0.766,-0.735,0.0
18.016,0.697,-0.768,0.0
34.321,1.337,-0.527,0.0
29.008,1.136,-0.612,0.0
25.029,0.986,-0.672,0.0
21.676,0.858,-0.709,0.0
19.515,0.777,-0.75,0.0
17.525,0.702,-0.774,0.0
33.275,1.341,-0.563,0.0
0.0,0.0,0.0,0.0
23.81,0.969,-0.676,0.0
21.135,0.865,-0.724,0.0
18.876,0.776,-0.755,0.0
17.106,0.707,-0.783,0.0
0.0,0.0,0.0,0.0
26.384,1.102,-0.639,0.0
23.005,0.966,-0.689,0.0
20.353,0.859,-0.729,0.0
18.258,0.774,-0.759,0.0
16.731,0.713,-0.792,0.0
29.435,1.26,-0.59,0.0
25.569,1.1,-0.659,0.0
22.504,0.972,-0.71,0.0
19.952,0.866,-0.746,0.0
17.88,0.78,-0.771,0.0
16.233,0.711,-0.794,0.0
28.286,1.245,-0.611,0.0
24.574,1.086,-0.672,0.0
21.414,0.951,-0.709,0.0
19.107,0.852,-0.745,0.0
17.349,0.777,-0.776,0.0
15.901,0.715,-0.803,0.0
27.164,1.228,-0.631,0.0
23.552,1.069,-0.683,0.0
20.83,0.949,-0.723,0.0
18.475,0.845,-0.75,0.0
16.887,0.776,-0.783,0.0
15.511,0.716,-0.808,0.0
26.248,1.216,-0.652,0.0
22.69,1.055,-0.694,0.0
20.133,0.94,-0.732,0.0
18.083,0.848,-0.764,0.0
16.566,0.78,-0.795,0.0
15.158,0.716,-0.815,0.0
24.969,1.184,-0.661,0.0
22.011,1.048,-0.709,0.0
19.525,0.933,-0.741,0.0
17.532,0.841,-0.769,0.0
16.01,0.771,-0.794,0.0
14.722,0.711,-0.815,0.0
23.908,1.159,-0.672,0.0
21.241,1.034,-0.72,0.0
18.931,0.924,-0.75,0.0
17.047,0.835,-0.775,0.0
15.728,0.773,-0.806,0.0
14.422,0.712,-0.823,0.0
22.976,1.138,-0.684,0.0
20.423,1.014,-0.725,0.0
18.33,0.913,-0.756,0.0
16.752,0.837,-0.789,0.0
15.299,0.767,-0.809,0.0
14.086,0.709,-0.827,0.0
22.255,1.123,-0.699,0.0
19.778,1.002,-0.735,0.0
17.928,0.911,-0.77,0.0
16.342,0.833,-0.797,0.0
14.997,0.767,-0.818,0.0
13.821,0.709,-0.834,0.0
21.491,1.105,-0.711,0.0
19.299,0.995,-0.749,0.0
17.419,0.901,-0.777,0.0
15.845,0.822,-0.8,0.0
14.538,0.757,-0.818,0.0
13.584,0.709,-0.842,0.0
20.719,1.084,-0.72,0.0
18.519,0.972,-0.75,0.0
16.837,0.886,-0.779,0.0
15.435,0.814,-0.805,0.0
14.282,0.756,-0.827,0.0
13.258,0.704,-0.845,0.0
20.133,1.071,-0.733,0.0
18.09,0.965,-0.763,0.0
16.402,0.877,-0.786,0.0
15.089,0.809,-0.812,0.0
13.965,0.751,-0.832,0.0
12.935,0.697,-0.846,0.0
19.41,1.048,-0.739,0.0
17.576,0.951,-0.771,0.0
16.005,0.869,-0.794,0.0
14.673,0.798,-0.814,0.0
13.675,0.746,-0.838,0.0
12.605,0.69,-0.845,0.0
18.783,1.029,-0.747,0.0
16.999,0.933,-0.774,0.0
15.617,0.86,-0.801,0.0
14.349,0.792,-0.82,0.0
13.372,0.74,-0.842,0.0
12.338,0.684,-0.848,0.0
18.339,1.018,-0.76,0.0
16.585,0.923,-0.783,0.0
15.291,0.853,-0.81,0.0
14.075,0.787,-0.828,0.0
13.011,0.729,-0.841,0.0
12.058,0.677,-0.849,0.0
17.723,0.996,-0.764,0.0
16.171,0.911,-0.791,0.0
14.899,0.841,-0.814,0.0
13.774,0.779,-0.834,0.0
12.753,0.723,-0.846,0.0
11.782,0.669,-0.85,0.0
17.214,0.979,-0.771,0.0
15.79,0.899,-0.798,0.0
14.471,0.826,-0.815,0.0
13.466,0.77,-0.838,0.0
12.45,0.714,-0.847,0.0
11.576,0.665,-0.854,0.0
16.79,0.965,-0.78,0.0
15.326,0.882,-0.801,0.0
14.243,0.822,-0.826,0.0
13.182,0.762,-0.843,0.0
12.203,0.707,-0.851,0.0
11.359,0.659,-0.858,0.0
16.369,0.95,-0.788,0.0
15.074,0.876,-0.813,0.0
13.849,0.807,-0.827,0.0
12.928,0.754,-0.848,0.0
11.91,0.696,-0.85,0.0
11.123,0.652,-0.859,0.0
15.97,0.935,-0.796,0.0
14.555,0.854,-0.809,0.0
13.618,0.8,-0.836,0.0
12.493,0.735,-0.84,0.0
11.659,0.688,-0.852,0.0
10.956,0.647,-0.864,0.0
15.474,0.914,-0.797,0.0
14.366,0.85,-0.823,0.0
13.281,0.787,-0.838,0.0
12.299,0.73,-0.848,0.0
11.465,0.682,-0.857,0.0
10.775,0.642,-0.868,0.0
15.143,0.901,-0.805,0.0
14.056,0.837,-0.828,0.0
12.978,0.774,-0.84,0.0
11.993,0.717,-0.847,0.0
11.235,0.673,-0.859,0.0
10.627,0.637,-0.874,0.0
14.675,0.879,-0.805,0.0
13.727,0.823,-0.832,0.0
12.651,0.76,-0.84,0.0
11.755,0.707,-0.85,0.0
11.034,0.665,-0.862,0.0
10.467,0.631,-0.878,0.0
14.424,0.869,-0.815,0.0
13.452,0.812,-0.837,0.0
12.431,0.751,-0.846,0.0
11.523,0.697,-0.852,0.0
10.828,0.656,-0.864,0.0
10.279,0.624,-0.88,0.0
14.155,0.858,-0.823,0.0
13.102,0.795,-0.837,0.0
12.127,0.736,-0.845,0.0
11.318,0.688,-0.856,0.0
10.705,0.652,-0.872,0.0
10.147,0.619,-0.885,0.0
13.891,0.845,-0.83,0.0
12.977,0.791,-0.851,0.0
11.852,0.723,-0.846,0.0
11.096,0.677,-0.857,0.0
10.509,0.642,-0.873,0.0
10.006,0.612,-0.889,0.0
13.605,0.831,-0.835,0.0
12.622,0.772,-0.848,0.0
11.654,0.713,-0.85,0.0
10.929,0.67,-0.862,0.0
10.374,0.636,-0.878,0.0
9.888,0.607,-0.895,0.0
13.3,0.815,-0.838,0.0
12.26,0.752,-0.843,0.0
11.509,0.707,-0.858,0.0
10.723,0.659,-0.863,0.0
10.206,0.628,-0.881,0.0
9.733,0.599,-0.897,0.0
13.012,0.799,-0.841,0.0
11.988,0.737,-0.844,0.0
11.205,0.69,-0.854,0.0
10.611,0.654,-0.871,0.0
10.094,0.622,-0.887,0.0
9.576,0.591,-0.897,0.0
12.875,0.792,-0.852,0.0
11.779,0.726,-0.848,0.0
11.044,0.681,-0.859,0.0
10.454,0.645,-0.875,0.0
9.93,0.613,-0.889,0.0
9.468,0.585,-0.903,0.0
12.419,0.765,-0.842,0.0
11.548,0.712,-0.85,0.0
10.87,0.671,-0.863,0.0
10.28,0.635,-0.877,0.0
9.875,0.61,-0.899,0.0
9.311,0.576,-0.902,0.0
12.175,0.751,-0.844,0.0
11.351,0.7,-0.853,0.0
10.69,0.66,-0.865,0.0
10.125,0.625,-0.879,0.0
9.709,0.6,-0.899,0.0
9.194,0.569,-0.905,0.0
11.865,0.731,-0.841,0.0
11.199,0.691,-0.859,0.0
10.587,0.653,-0.873,0.0
10.037,0.62,-0.887,0.0
9.602,0.593,-0.904,0.0
9.126,0.564,-0.913,0.0
11.717,0.722,-0.848,0.0
10.994,0.677,-0.86,0.0
10.413,0.642,-0.875,0.0
9.865,0.608,-0.887,0.0
9.449,0.583,-0.904,0.0
8.998,0.555,-0.914,0.0
11.52,0.709,-0.851,0.0
10.806,0.665,-0.861,0.0
10.289,0.633,-0.88,0.0
9.777,0.602,-0.894,0.0
9.224,0.568,-0.897,0.0
8.9,0.548,-0.917,0.0
11.315,0.694,-0.853,0.0
10.683,0.656,-0.867,0.0
10.138,0.622,-0.882,0.0
9.678,0.594,-0.899,0.0
9.14,0.561,-0.902,0.0
8.731,0.537,-0.912,0.0
11.135,0.681,-0.855,0.0
10.533,0.645,-0.87,0.0
10.005,0.612,-0.884,0.0
9.536,0.584,-0.899,0.0
9.067,0.555,-0.908,0.0
8.704,0.533,-0.922,0.0
10.961,0.669,-0.858,0.0
10.408,0.635,-0.875,0.0
9.899,0.604,-0.889,0.0
9.343,0.57,-0.894,0.0
9.001,0.549,-0.914,0.0
8.616,0.526,-0.925,0.0
10.805,0.656,-0.861,0.0
10.274,0.624,-0.878,0.0
9.783,0.594,-0.893,0.0
9.361,0.569,-0.91,0.0
8.902,0.541,-0.917,0.0
8.47,0.515,-0.922,0.0
10.685,0.646,-0.866,0.0
10.158,0.614,-0.882,0.0
9.69,0.586,-0.898,0.0
0.0,0.0,0.0,0.0
8.784,0.531,-0.917,0.0
8.409,0.508,-0.927,0.0
10.552,0.635,-0.87,0.0
10.033,0.603,-0.885,0.0
9.577,0.576,-0.9,0.0
9.062,0.545,-0.905,0.0
8.682,0.522,-0.918,0.0
8.339,0.501,-0.93,0.0
10.402,0.622,-0.872,0.0
9.926,0.593,-0.889,0.0
9.496,0.567,-0.906,0.0
8.989,0.537,-0.91,0.0
8.614,0.514,-0.922,0.0
8.222,0.491,-0.928,0.0
10.299,0.612,-0.876,0.0
9.835,0.584,-0.894,0.0
9.334,0.554,-0.902,0.0
8.831,0.524,-0.906,0.0
8.498,0.504,-0.921,0.0
8.169,0.484,-0.933,0.0
10.194,0.601,-0.881,0.0
9.721,0.573,-0.896,0.0
9.288,0.547,-0.91,0.0
8.809,0.519,-0.915,0.0
8.401,0.494,-0.921,0.0
8.06,0.474,-0.931,0.0
10.082,0.59,-0.884,0.0
9.656,0.565,-0.902,0.0
9.07,0.53,-0.9,0.0
8.692,0.508,-0.914,0.0
8.329,0.486,-0.924,0.0
7.97,0.465,-0.93,0.0
9.992,0.58,-0.888,0.0
9.447,0.548,-0.894,0.0
9.062,0.525,-0.91,0.0
0.0,0.0,0.0,0.0
8.276,0.479,-0.928,0.0
7.909,0.457,-0.933,0.0
9.864,0.567,-0.889,0.0
9.348,0.537,-0.896,0.0
8.966,0.515,-0.911,0.0
8.525,0.489,-0.917,0.0
8.205,0.47,-0.93,0.0
7.862,0.45,-0.937,0.0
9.788,0.557,-0.893,0.0
9.253,0.526,-0.898,0.0
8.862,0.503,-0.911,0.0
0.0,0.0,0.0,0.0
8.121,0.461,-0.93,0.0
7.807,0.442,-0.939,0.0
9.69,0.546,-0.895,0.0
9.204,0.518,-0.903,0.0
8.76,0.492,-0.91,0.0
0.0,0.0,0.0,0.0
8.064,0.452,-0.932,0.0
7.718,0.433,-0.937,0.0
9.584,0.534,-0.896,0.0
9.174,0.51,-0.911,0.0
8.661,0.481,-0.91,0.0
0.0,0.0,0.0,0.0
7.975,0.442,-0.931,0.0
7.62,0.422,-0.934,0.0
9.543,0.525,-0.902,0.0
9.05,0.497,-0.908,0.0
8.674,0.476,-0.92,0.0
0.0,0.0,0.0,0.0
7.944,0.435,-0.936,0.0
7.587,0.415,-0.938,0.0
9.39,0.51,-0.898,0.0
9.001,0.488,-0.912,0.0
8.548,0.463,-0.916,0.0
8.181,0.443,-0.925,0.0
7.85,0.424,-0.933,0.0
7.575,0.409,-0.944,0.0
9.337,0.501,-0.902,0.0
8.959,0.48,-0.917,0.0
8.462,0.452,-0.915,0.0
0.0,0.0,0.0,0.0
7.775,0.415,-0.931,0.0
7.504,0.4,-0.943,0.0
9.257,0.489,-0.903,0.0
8.797,0.464,-0.909,0.0
8.414,0.443,-0.918,0.0
0.0,0.0,0.0,0.0
7.705,0.405,-0.93,0.0
7.448,0.391,-0.943,0.0
9.153,0.477,-0.902,0.0
8.761,0.456,-0.913,0.0
8.405,0.436,-0.925,0.0
7.976,0.413,-0.924,0.0
7.725,0.4,-0.94,0.0
7.371,0.381,-0.94,0.0
9.105,0.467,-0.905,0.0
8.739,0.447,-0.919,0.0
8.26,0.422,-0.916,0.0
0.0,0.0,0.0,0.0
7.598,0.387,-0.931,0.0
0.0,0.0,0.0,0.0
9.035,0.456,-0.906,0.0
8.607,0.433,-0.913,0.0
8.253,0.415,-0.922,0.0
0.0,0.0,0.0,0.0
7.61,0.381,-0.939,0.0
7.255,0.363,-0.937,0.0
8.994,0.446,-0.909,0.0
8.575,0.424,-0.916,0.0
8.215,0.406,-0.925,0.0
0.0,0.0,0.0,0.0
7.583,0.373,-0.942,0.0
7.304,0.359,-0.95,0.0
8.9,0.434,-0.907,0.0
8.531,0.415,-0.918,0.0
8.202,0.398,-0.93,0.0
7.851,0.38,-0.936,0.0
7.501,0.362,-0.938,0.0
7.239,0.349,-0.947,0.0
8.914,0.426,-0.915,0.0
8.519,0.406,-0.923,0.0
8.147,0.388,-0.929,0.0
7.8,0.37,-0.935,0.0
7.455,0.353,-0.937,0.0
0.0,0.0,0.0,0.0
8.81,0.413,-0.91,0.0
8.444,0.395,-0.921,0.0
8.103,0.378,-0.93,0.0
7.757,0.361,-0.936,0.0
7.472,0.347,-0.944,0.0
0.0,0.0,0.0,0.0
8.761,0.402,-0.911,0.0
8.396,0.384,-0.921,0.0
8.053,0.368,-0.93,0.0
7.705,0.351,-0.934,0.0
7.439,0.338,-0.945,0.0
0.0,0.0,0.0,0.0
8.758,0.394,-0.916,0.0
8.402,0.376,-0.927,0.0
7.967,0.356,-0.924,0.0
7.651,0.341,-0.933,0.0
7.352,0.327,-0.938,0.0
0.0,0.0,0.0,0.0
8.655,0.38,-0.91,0.0
8.369,0.367,-0.928,0.0
8.023,0.351,-0.936,0.0
7.639,0.333,-0.935,0.0
7.334,0.319,-0.94,0.0
7.045,0.305,-0.944,0.0
8.639,0.371,-0.913,0.0
8.277,0.354,-0.922,0.0
7.959,0.34,-0.932,0.0
7.612,0.324,-0.936,0.0
